# .PCD v0.7 - Point Cloud Data file format
VERSION 0.7
FIELDS x y z
SIZE 4 4 4
TYPE F F F
COUNT 1 1 1
WIDTH 1000
HEIGHT 1
VIEWPOINT 0 0 0 1 0 0 0
POINTS 1000
DATA ascii
0.090865046 0.010000001 0.10328586
0.13314442 0.010000001 0.054954372
0.13551904 0 0.10370028
0.061812151 0.0056548845 0.12
0.045611832 0 0.094622679
0.030827329 0.010000001 0.084514685
0.084778003 0 0.053478453
0.017595381 0 0.025885602
0.15540975 0 0.027167538
0.087052077 0 0.065015964
0.2 0.0035483381 0.10992369
0.076328069 0 0.0067270095
0.19725873 0.0071149259 0
0.03611869 0.010000001 0.044696789
0.13659853 0 0.10754323
0.034595262 0 0.10496277
0.0043291184 0 0.0069067525
0.16108781 0 0.043346707
0.13770112 0.010000001 0.079500109
0.0031164093 0 0.077142976
0.017582605 0 0.050699573
0.12014899 0.010000001 0.097492769
0.099304952 0 0.10344125
0.059578948 0.010000001 0.00021032034
0.004026291 0.0093320962 0.052288581
0.16870221 0.010000001 0.077758469
0.12323947 0.010000001 0.02534385
0.083014153 0 0.032786891
0.12986574 0.010000001 0.085759386
0.10192617 0.010000001 0.10047359
0.099358402 0.010000001 0.1118302
0.076455586 0.010000001 0.10818549
0.071626894 0 0.10518462
0.039186299 0.010000001 0.061064854
0.012609905 0.010000001 0.060585506
0.091596432 0.010000001 0.085092992
0.13531736 0.010000001 0.025652416
0.19939311 0 0.069613911
0.081502512 0 0.020789092
0.076125346 0 0.077332765
0.02650144 0 0.062600926
0.0089336196 0.010000001 0.048737977
0.1662899 0.010000001 0.043191791
0.1299952 0 0.084740005
0.10832326 0.010000001 0.011433857
0.17410611 0.010000001 0.087826721
0.15910789 0 0.01148092
0.085723564 0.010000001 0.059410382
0.067479581 0 0.024826458
0.14840357 0.010000001 0.062169842
0.042880014 0.010000001 0.011689668
0.074758515 0 0.055926424
0.0041020694 0 0.030135086
0.073067233 0.010000001 0.10049615
0.15772404 0 0.074142456
0.16905221 0 0.013716026
0.19918744 0.010000001 0.10217103
0.0045631751 0 0.048233442
0.11993134 0.010000001 0.011181598
0.04658436 0 0.10818537
0.09206187 0 0.096141979
0 0.0074647786 0.020509409
0.2 0.0073519438 0.072650485
0.049142003 0.010000001 0.11931732
0.19015397 0.010000001 0.063140154
0.14551511 0.010000001 0.056401603
0.030033927 0.010000001 0.10999328
0.14070034 0.010000001 0.054284252
0.080774367 0.010000001 0.00084910443
0.10702154 0.010000001 0.061371632
0.098244675 0.010000001 0.0059884819
0.065806732 0 0.044747666
0.14109777 0 0.081261665
0.13473973 0.010000001 0.021122122
0.2 0.0070961188 0.11827555
0.049595181 0.0015190298 0.12
0 0.0027309591 0.11485656
0.010966484 0.0044245911 0.011742439
0.10828698 0.0096276281 0.050900396
0.048530258 0.010000001 0.017188694
0.12417854 0.010000001 0.0024595254
0.13186315 0 0.0071523157
0.16029526 0.010000001 0.011781566
0.1624244 0.010000001 0.037970856
0.097220495 0 0.078345321
0.065229818 0.010000001 0.019987835
0.16718718 0.010000001 0.082456574
0.17837241 0.010000001 0.026883645
0.15621452 0.0070395335 0.12
0.1154163 0.010000001 0.068199113
0.034708101 0 0.072201312
0.067574024 0.010000001 0.018116098
0.055922344 0.010000001 0.037068032
0.18668726 0 0.0090082483
0.132039 0.010000001 0.084375449
0.0078653507 0.0089972494 0.051281869
0.027673261 0.010000001 0.022211725
0.16550346 0.010000001 0.043742914
0.015954586 0.010000001 0.098573819
0.13074569 0 0.028902097
0.025853787 0 0.0079598222
0.093069084 0.010000001 0.093983956
0.068553887 0 0.027363623
0.1361855 0.0042193206 0
0.10789872 0.0090266392 0
0.18267542 0.010000001 0.021973059
0.12198287 0.010000001 0.032793432
0.184793 0.010000001 0.084005602
0.069644466 0.0095186234 0
0.06074968 0 0.086303532
0.032093573 0.010000001 0.089413576
0.10971308 0.010000001 0.084317796
0.086233057 0 0.10002293
0.046397191 0 0.026647074
0.060320698 0 0.069172606
0.11455877 0 0.00043178603
0.086809359 0 0.11972591
0.030463239 0 0.018574309
0.0092769628 0.0060342457 0
0.076138936 0.010000001 0.014524887
0.06943211 0.0045818305 0.12
0.12002078 0 0.082012124
0.14817612 0.010000001 0.062795863
0.16127697 0 0.10772415
0.10523571 0 0.058135886
0.055981103 0.010000001 0.032325611
0.11727881 0.010000001 0.064961657
0.0096634738 0.0063890307 0.11195914
0.086513266 0 0.033274185
0.15338343 0 0.036629483
0.036501747 0 0.0067950743
0.029460974 0 0.053405784
0 0.0027210205 0.013959897
0.18879618 0.0097965021 0.012512501
0.11163509 0.010000001 0.007901744
0.066516086 0 0.085265204
0.032165546 0.0058790743 0
0.2 0.0053096162 0.038121574
0.093105257 0 0.04774731
0.088522263 0 0.061923735
0.016452016 0.0052514123 0
0.11379431 0 0.004319516
0.075612962 0 0.10518908
0.16383076 0 0.074008591
0.054907463 0.010000001 0.020032443
0.068813592 0 0.019955274
0.028231593 0 0.088802017
0.0010760399 0.010000001 0.080289431
0.099515133 0 0.11302321
0.14702074 0 0.095385529
0.17585102 0.0095409108 0.12
0.081175983 0 0.085322887
0.044786844 0 0.04348306
0.028179934 0.010000001 0.090003662
0.17175934 0.010000001 0.041621499
0.16112846 0 0.088391826
0.087683685 0.010000001 0.025610106
0.080613062 0 0.088112287
0.14148258 0.010000001 0.062513284
0.15058853 0 0.061352149
0.10740761 0 0.031459022
0.19329037 0.0099980859 0.12
0.036987953 0 0.0042988355
0.14010896 0.010000001 0.095056079
0.12801184 0.010000001 0.0044980426
0.14538543 0 0.1132129
0.13462977 0 0.043860551
0.044098485 0.010000001 0.0013345139
0.046895374 0 0.10164552
0.18839239 0.0014037252 0.12
0.051284671 0 0.049806874
0.039428692 0.010000001 0.074328192
0.021825863 0.010000001 0.09318547
0.12421837 0.010000001 0.041904002
0.053316653 0.010000001 0.080427356
0.106802 0.010000001 0.03355395
0.021757983 0.010000001 0.025277682
0.078599915 0.010000001 0.013066153
0.11886828 0.010000001 0.057627045
0.14568068 0.010000001 0.0028863666
0.089026786 0.010000001 0.026319994
0.081762843 0 0.054171611
0.15310904 0.010000001 0.049702521
0.2 0.0017123541 0.040275682
0.2 0.00040884723 0.026427172
0.10867583 0 0.099276692
0.057003651 0 0.061660349
0.10327713 0 0.061460137
0.13117576 0.010000001 0.044871327
0.1892114 0.0089699347 0.11182433
0.15264499 0 0.050663382
0.11503783 0.010000001 0.012615078
0.088384271 0.010000001 0.037833989
0 0.0009894761 0.040531207
0.014493282 0.010000001 0.10139487
0.051434211 0.010000001 0.040724661
0.082212858 0 0.035771962
0 0.00090390415 0.11630735
0.089759178 0 0.030496884
0.016008012 0.010000001 0.023338286
0.01273184 0.010000001 0.025329089
0.095227949 0 0.096457608
0.13136865 0.010000001 0.016997077
0.042473543 0 0.09984953
0.09634985 0 0.036513072
0.057427283 0 0.059575085
0.049339544 0.010000001 0.0055149961
0.15831549 0.010000001 0.013963647
0.10148588 0.0099068517 0.12
0.10158543 0 0.059367955
0.10972403 0.010000001 0.040737297
0.06729506 0.010000001 0.063111365
0.064383253 0.0010824258 0
0.19795604 0.010000001 0.099531047
0.08757896 0.010000001 0.10758953
0.1808051 0.010000001 0.068948835
0.074475504 0.010000001 0.069586888
0.11547986 0.010000001 0.040941905
0.098493062 0 0.012423713
0.1404985 0 0.014553608
0.01211479 0 0.078076452
0.12310764 0 0.055928621
0 0.00068274833 0.023361241
0.081132486 0 0.055867739
0.1107159 0 0.093945041
0.013185797 0 0.0041336156
0.11265948 0.0098483926 0.12
0.062995464 0 0.11919492
0.18177006 0 0.11065158
0.2 0.0070333807 0.018193085
0.16440961 0.010000001 0.049046434
0.078725241 0.010000001 0.0032675592
0.019505123 0.010000001 0.040607106
0.17323692 0.010000001 0.024940487
0.066209383 0.010000001 0.032955576
0.1442475 0 0.010507931
0.038297869 0 0.058168288
0.080545798 0 0.055264249
0.10648488 0.010000001 0.058650881
0.040283356 0.010000001 0.06251502
0.13899957 0.010000001 0.018300965
0.013353351 0.00096922461 0
0.2 0.0044343076 0.024778074
0.076845944 0 0.022150556
0.19823267 0.0087096291 0.12
0.10344497 0 0.079700425
0.0867116 0 0.085413136
0.088418894 0.010000001 0.015756829
0.0074940333 0.010000001 0.08303377
0.057908483 0.010000001 0.044956598
0.17464374 0 0.09778583
0.1251688 0.010000001 0.024070757
0.20000002 0.007695891 0.082854994
0.02388482 0 0.021860007
0.08633469 0.010000001 0.090124883
0.041378304 0.010000001 0.096343458
0.15207623 0 0.08800783
0.13828823 0 0.053926546
0.036244426 0 0.0070531596
0.13674371 0.0094649373 0
0.084105603 0 0.035188962
0.15312213 0 0.05555243
0.0054189041 0.010000001 0.1072991
0.19495955 0.010000001 0.063944772
0.038723897 0.0012978059 0
0.15895864 0 0.085073248
0.18736461 0.010000001 0.053718843
0.014610888 0.010000001 0.016688839
0.0015902948 0 0.081989735
0.19096179 0 0.025523676
0.12494692 0 0.039128348
0.10744709 0 0.053667262
0.10799215 0 0.10118395
0.10799992 0.0026201187 0.051922515
0.12727159 0.010000001 0.0095161367
0.095627919 0 0.07496313
0.049232237 0 0.083431944
0.12215453 0 0.02659288
0.051187564 0 0.11140539
0.017766366 0 0.058372546
0.10903122 0 0.080063902
0.14094597 0 0.036592677
0.13602594 0 0.058256097
0 0.0006375942 0.085182503
0.025502872 0.010000001 0.048360594
0.16662945 0.010000001 0.097443141
0.2 0.0060948757 0.0036431088
0.034498032 0 0.073581427
0.085005678 0.010000001 0.027098419
0.088478819 0 0.10542479
0.062644504 0.010000001 0.073405996
0.14751591 0 0.089030333
0.16307056 0.010000001 0.083078615
0.019260678 0.010000001 0.095307708
0.0045657107 0.010000001 0.088228233
0.10341517 0.010000001 0.025384365
0.19014105 0.010000001 0.00095309754
0.12749118 0.010000001 0.010531113
0.10902445 0 0.039425127
0.17418137 0.010000001 0.083621062
0.014232185 0 0.11414644
0.05926523 0 0.063260615
0.078685731 0 0.023268992
0.062013172 0.010000001 0.066021897
0.014929425 0.010000001 0.018430719
0.055611495 0 0.0062968638
0.11827353 0.010000001 0.10208116
0.10006543 0.010000001 0.039194308
0.091495343 0.010000001 0.048605986
0.10047343 0.010000001 0.036486462
0.052744187 0 0.0020062609
0.07437636 0 0.015007825
0.19108756 0.007047784 0.0083382288
0.017216429 0 0.080578566
0.1563651 0.010000001 0.019128677
0.19009456 0.010000001 0.08510799
0.095435552 0 0.083568305
0.19723074 0 0.08231128
0.086828597 0.010000001 0.085763954
0 0.0087864297 0.069670506
0.061991252 0 0.041612778
0.054572955 0 0.076084107
0.012384004 0.0056126798 0
0.05252647 0 0.058353633
0.1486374 0 0.068019263
0.027334072 0.010000001 0.052039973
0.032975115 0 0.017053043
0.074614428 0.010000001 0.049485009
0.14589696 0 0.030825324
0.17015247 0.010000001 0.0041528251
0.088633768 0.010000001 0.082410254
0.16228239 0 0.014666365
0.12344927 0.010000001 0.0014509722
0.15136372 0.0032380505 0.12
0.0012494869 0.010000001 0.054865435
0.12872212 0 0.058682833
0.18152654 0.010000001 0.030228999
0.10217526 0.010000001 0.0051067085
0.2 0.0042868266 0.078360237
0.15333006 0 0.065666728
0.060009692 0.010000001 0.083910391
0.0832185 0 0.0012547151
0.13772862 0.0070718145 0.050978679
0.048254207 0.010000001 0.030162334
0.15397355 0 0.11441693
0.19774498 0.010000001 0.11384255
0.16541135 0 0.024142228
0.099276222 0 0.092269309
0.14033967 0.010000001 0.05234611
0.1449815 0 0.043796673
0.10996893 0.010000001 0.059058178
0.17490514 0 0.1152989
0.032359481 0.010000001 0.022363413
0 0.0034537814 0.043258332
0.077675849 0.010000001 0.029743679
0.1227062 0 0.033608586
0.003918556 0 0.0060565928
0.058406528 0 0.087927006
0.077266142 0.010000001 0.068849653
0.11415857 0.010000001 0.10909849
0.079260752 0.010000001 0.066423975
0.19127506 0.010000001 0.11476178
0.079888567 0 0.022591842
0.091939941 0 0.045902945
0.16219704 0.010000001 0.074448101
0.14320578 0 0.0041312273
0.049095552 0.010000001 0.11209064
0.1716422 0 0.11253266
0.16831063 0 0.10855212
0.16998683 0 0.0086149219
0.13705544 0 0.022197422
0.17043215 0 0.095594592
0.14279379 0 0.06175578
0.15484007 0.010000001 0.023135675
0.0619817 0.010000001 0.0018897753
0.18649688 0.0060604336 0.12000001
0.05898983 0 0.014987053
0.096892186 0.010000001 0.088336743
0.077508546 0.010000001 0.077663966
0.17409903 0.010000001 0.11201964
0.014397759 0 0.035154771
0.11779166 0.010000001 0.023829225
0.2 0.0030660375 0.073855996
0.18737906 0.010000001 0.047144808
0.08392781 0.010000001 0.026339589
0.11695413 0.010000001 0.10195456
0.16145842 0.010000001 0.069417059
0.097403571 0 0.016607545
0.12296788 0.010000001 0.012623233
0.0083724232 0 0.096453846
0.08339145 0 0.028627621
0.017770676 0 0.053650171
0.17029265 0.010000001 0.066777103
0.031687666 0 0.030072453
0.094977103 0.010000001 0.070953116
0.10485567 0 0.10276029
0.13957222 0 0.047239561
0.10449088 0.010000001 0.077550568
0.086195335 0 0.018487863
0 0.00227435 0.053991258
0.064022645 0.010000001 0.10990915
0.046200231 0.010000001 0.0072550788
0.14684688 0.010000001 0.074528858
0.041406162 0 0.11663094
0.089194633 0.010000001 0.093722127
0.075195856 0 0.070485741
0.17558418 0.010000001 0.016662681
0.2 0.0055054296 0.11535641
0.071245559 0.010000001 0.046981651
0.085582584 0 0.042164225
0.099031247 0.010000001 0.092319824
0.07413353 0.010000001 0.037043113
0.01363494 0.010000001 0.034418497
0.098538175 0 0.00079317542
0.15488777 0 0.065381564
0.13737155 0.010000001 0.02129521
0.022064319 0.010000001 0.088326983
0.17082301 0.010000001 0.076635025
0.12134311 0 0.046869494
0.1221388 0.010000001 0.091004826
0.12682568 0.010000001 0.10793847
0.01837277 0 0.10876691
0.03164139 0.0023652371 0.12
0.0084543107 0 0.052769203
0.19980925 0 0.018011931
0.18032318 0 0.073464133
0.0049318625 0.010000001 0.10009957
0.10879757 0.0032117493 0.050358973
0.17423142 0 0.040253926
0.088155314 0.010000001 0.11060449
0.048642501 0 0.028773399
0.08011353 0 0.055358522
0.15796195 0 0.045608923
0.10004291 0.010000001 0.11914133
0.025149774 0 0.086498059
0.10922305 0 0.097892344
0.14190482 0.010000001 0.080277517
0.16181767 0 0.02628199
0.15107809 0.010000001 0.056575201
0.15362911 0 0.10118477
0.12757067 0 0.10895015
0.04004351 0.0081473505 0
0.0057814545 0.010000001 0.0049552559
0.11677988 0 0.072971031
0.015242424 0 0.077986501
0.028011082 0.010000001 0.074880525
0.062889084 0 0.096376456
0.094413444 0 0.10198645
0.17725416 0.010000001 0.070147052
0.016609265 0.0093814032 0.12
0.0077388166 0.010000001 0.082148537
0.18440118 0 0.053759821
0.17747585 0.010000001 0.11600213
0.18048374 0 0.064264275
0.09557569 0 0.1027711
0.072604351 0 0.043429181
0.18623991 0.010000001 0.10511024
0.13493559 0.0037302531 0.12
0.15754175 0 0.047880687
0 0.0019228834 0.020194523
0.2 0.0037787098 0.0007935107
0.16259284 0.0033727286 0.12
0.076534204 0.010000001 0.0086724712
0.16594703 0.010000001 0.083622091
0.18562891 0 0.071328804
0.14644088 0.010000001 0.0076610772
0.022825448 0.0099999998 0.017347364
0.13453296 0.0042611705 0.12
0.0042495462 0 0.097178452
0.015544766 0.010000001 0.065953828
0.00088801607 0.010000001 0.055668194
0.18763869 0.010000001 0.051148403
0.12558672 0 0.11766459
0.13798544 0.0048261764 0.050005663
0.1667202 0 0.043798544
0.03624611 0.00072321837 0
0.15940467 0.0052421526 0
0.19383629 0.0058187321 0.12
0.1683163 0.010000001 0.11675268
0.14022914 0.0062020235 0.12
0.19344085 0.010000001 0.055909898
0.19019718 0.0059200176 0.00802394
0.012442593 3.2414198e-05 0.12
0.17287886 0 0.063532338
0.11349564 0.010000001 0.1147093
0.16652223 0.010000001 0.051691148
0.2 0.0092274984 0.075708263
0.023564603 0 0.056153495
0.14504384 0 0.055444922
0.086134478 0 0.096371859
0.11182503 0.010000001 0.020277131
0.16528621 0 0.010827722
0.053356502 0.010000001 0.029790062
0.11315233 0.010000001 0.093350038
0.010078896 0 0.084909372
0.085306726 0.010000001 0.051268633
0.0473902 0 0.041656587
0.095616095 0 0.10153075
0.083055459 0.010000001 0.028574064
0.041456636 0 0.055274975
0.16953011 0.010000001 0.059143502
0.1646886 0 0.019526888
0.093889393 0 0.045211021
0.010283386 0 0.11753661
0.028932814 0.010000001 0.015497576
0.19142467 0.010000001 0.082284912
0.02600373 0.010000001 0.04825712
0.024225099 0 0.00062811078
0.09717837 0.010000001 0.081954487
0.10052744 0 0.10281514
0.13671491 0.0082775699 0
0.15920967 0.010000001 0.11394928
0.013741945 0 0.050162338
0.12373891 0.010000001 0.096219517
0.086088307 0.010000001 0.043924976
0.18590368 0 0.084279671
0.12965806 0 0.099016376
0.18742462 0 0.0024950732
0.041894369 0.010000001 0.10894857
0.020496681 0 0.024281435
0.032852668 0.010000001 0.025501519
0.16331367 0 0.089881979
0.027377889 0 0.04738469
0.15017053 0 0.010367177
0.067991689 0.0099999998 0.0030861881
0.072265662 0.010000001 0.10888331
0 0.0039008877 0.010060694
0.073839724 0.010000001 0.044177465
0.14395045 0 0.045283828
0.16537684 0 0.061021067
0.18002512 0.010000001 0.098172419
0.16153845 0.010000001 0.10543125
0.18107001 0.010000001 0.07865423
0.19576047 0.0034029116 0.12
0.14586911 0.010000001 0.013100926
0.0056166388 0.010000001 0.044598691
0.12006909 0.010000001 0.026015393
0.055473048 0 0.021572486
0.0093311584 0.010000001 0.03229038
0.14249679 0.010000001 0.084170379
0.021017546 0 0.0089633521
0.088502429 0 0.061314579
0.040766817 0.010000001 0.003961924
0.11578734 0.010000001 0.11957279
0.024577452 0.010000001 0.098947547
0.058857806 0 0.091515891
0.049724177 0 0.011416972
0.1274246 0.010000001 0.094215222
0.12474697 0.010000001 0.0046069166
0.015255926 0.00089193409 0
0.16952521 0.010000001 0.016362781
0.19117415 0.010000001 0.032722682
0.073823251 0.010000001 0.083211645
0.17596769 0 0.0048827748
0.19233391 0 0.029180864
0.014211389 0 0.069078602
0.091677405 0.010000001 0.11963259
0.043552134 0 0.027022634
0.035515055 0.010000001 0.00067750295
0.012118883 0 0.11608213
0.01041333 0 0.049148988
0.16380826 0 0.023258829
0.19064756 0.010000001 0.11504404
0.18803054 0.0065624132 0.11030579
0.045139182 0 0.08618328
0.19970502 0.0025255342 0
0.179561 0 0.1101956
0.046530887 0 0.051360246
0.19363828 0 0.11959738
0.2 0.0083610089 0.036965154
0 0.0051122899 0.038862731
0.0072396342 0.006565454 0.050443199
0.075362608 0.010000001 0.017727025
0.15546496 0.010000001 0.0085914489
0 0.0002524803 0.076309852
0.1784533 0 0.01894689
0.021911498 0.010000001 0.10591805
0.14058706 0.010000001 0.086182915
0.1801061 0 0.019390004
0.04240695 0 0.059840214
0 0.004000036 0.093185723
0.0021054186 0.010000001 0.10985418
0.03073727 0.0021493991 0.12
0.088769659 0.010000001 0.10983419
0.10984206 0.010000002 0.065019235
0.047107883 0.010000001 0.09683118
0.15747663 0.010000001 0.059761357
0.049680047 0.010000001 0.007287045
0.12965143 0.010000001 0.062486161
0.03815075 0.010000001 0.10562294
0.032141913 0 0.070091523
0.17981456 0.0099999998 0.1101494
0.11955916 0 0.021154566
0.026402161 0 0.078868389
0.16593257 0 0.039486192
0.057147652 0 0.014155311
0.016679049 0.010000001 0.060089905
0.11628367 0.010000001 0.03053485
0.11717183 0.010000001 0.018697677
0.051283952 0 0.00314386
0.077971175 0 0.020733124
0.076893523 0.010000001 0.046045337
0 0.0046366933 0.0558169
0.10555144 0.010000001 0.094241306
0.12187072 0.010000001 0.031791005
0.017185256 0 0.094175771
0.164672 0.0025728007 0.12
0.18482432 0.010000001 0.037060414
0.010240632 0.005345752 0.11197079
0.074398428 0.010000001 0.066062018
0.069728009 0 0.030739225
0.078737617 0.010000001 0.039747208
0.12470521 0 0.096203469
0.034975212 0.003535117 0
0.00068441586 0 0.11265587
0.12589894 0.010000001 0.10777243
0.026932584 0.010000001 0.031567443
0.2 0.0025407404 0.074365281
0.019109925 0.010000001 0.029830927
0.1639531 0 0.11096189
0.17789109 0 0.099903695
0.032164533 0.010000001 0.096957356
0.1235024 0 0.060740069
0.048492506 0 0.096018724
0.19242266 0 0.091551237
0.073696814 0 0.035618518
0.018255105 0 0.070112683
0.2 0.006964582 0.098939143
0.011179657 0 0.09019471
0.2 0.0023702816 0.10618682
0.18438137 0 0.085728914
0.08726842 0.010000001 0.080475375
0.081606716 0.010000001 0.083610699
0.0076703699 0 0.11430155
0.027525276 0 0.02699922
0.0771918 0 0.034833554
0.072972782 0 0.040714271
0.0018894196 0 0.11463144
0.075805061 0 0.013302903
0.15452436 0 0.010578109
0.050974078 0.010000001 0.10375794
0.043160167 0.0052365665 0.12
0.042382609 0.010000001 0.066397436
0.106841 0 0.10377684
0.10659187 0 0.059484854
0.19809952 0.010000001 0.092011496
0.044407587 0.010000001 0.074190207
0.19621381 0 0.10032178
0.063375771 0.010000001 0.10309993
0.053237632 0 0.077966332
0.14194457 0 0.016740538
0.16299222 0 0.07540483
0.10672843 0.010000001 0.0050521684
0.0031037086 0 0.067735389
0.18461107 3.1179192e-05 0
0.082105897 0 0.066683628
0.15011251 0 0.036316074
0.18173991 0.010000001 0.10081535
0.061024655 0 0.10599954
0.14613256 0 0.030466117
0.18508194 0.010000001 0.083313115
0.19725074 0.010000001 0.099087074
0.05467682 0.010000001 0.091909751
0.081779309 0 0.065743193
0.11285117 0 0.014963976
0.067274377 0 0.040059492
0.16463959 0.0092916247 0
0.12457505 0 0.010060614
0.19675681 0 0.052429359
0.14913249 0 0.062884361
0.038223136 0.010000001 0.010724129
0.024084866 0.010000001 0.02744545
0.069132909 0 0.041290142
0.11403143 0.010000001 0.069817923
0.053181157 0 0.080068633
0.13107279 0 0.071367487
0.045756139 0.0043995087 0.12
0.046444681 0.010000001 0.01389418
0.17691877 0.010000001 0.048656747
0.15942322 0.010000001 0.023620827
0.0093096718 0.0091558369 0.012027049
0.2 0.0030862826 0.085272312
0.10947133 0.010000001 0.068256415
0.005988115 0 0.10252073
0.040395074 0 0.084352612
0.18028107 0.010000001 0.0018065523
0.0021576362 0.010000001 0.050517198
0.18965259 0.0099373711 0.0071048141
0.032968156 0.010000001 0.016440056
0.13622612 0.010000001 0.038909823
0.1742143 0.010000001 0.0084585389
0.11679752 0 0.11771546
0.087780237 0.010000001 0.11698552
0.014554326 0 0.083864056
0.039485991 0.010000001 0.07920862
0.1640628 0.010000001 0.024707315
0.099370584 0 0.11520704
0.085878208 0.010000001 0.0062676822
0.0131633 0.010000001 0.040910732
0.19637024 0.010000001 0.083040647
0.044020146 0 0.0027109222
0.062909231 0 0.095120952
0.036682922 0.010000001 0.058810487
0.12029582 0 0.025612371
0.081832521 0 0.053278718
0.1668625 0.010000001 0.089446642
0.074578427 0.010000001 0.010023512
0.15454464 0 0.0585628
0.017433902 0.010000001 0.025678292
0.18334772 0.002641679 0
0.070657328 0.010000001 0.049923114
0.0037907609 0 0.01853032
0.080713168 0.010000001 0.10914242
0.17835654 0 0.077120148
0.053149365 0.0014832271 0.12
0.054939751 0.0080590118 0.12
0.17643665 0.010000001 0.08908046
0.16025729 0.010000001 0.089205839
0.12861544 0 0.035882346
0.12781458 0.006613438 0
0.030297358 0 0.0036570495
0.095110126 0 0.012149452
0.14233714 0.010000001 0.016986622
0.12100484 0.010000001 0.011004687
0.10283086 0 0.039556369
0.061304137 0 0.0044502225
0.17511274 0.0093556 0.12
0.1740941 0 0.0048779198
0.0099655017 0 0.054173764
0.037554886 0.010000001 0.050617341
0.14188275 0 0.11297755
0.0069762534 0.010000001 0.1157788
0.065829605 0 0.079116352
0.19385578 0.010000001 0.031833209
0.11302637 0.010000001 0.092170112
0.15855275 0.010000001 0.061710186
0.19421162 0 0.043709323
0.13281934 0.010000001 0.0029853359
0.15013197 0 0.11099128
0.13410209 0.010000001 0.077171847
0.051065959 0.010000001 0.10414773
0.18097654 0 0.092359692
0 0.004787683 0.0090133743
0.0053391159 0 0.098788783
0.045581508 0.0099999998 0.027136995
0.060580309 0 0.021133007
0.053849719 0.010000001 0.083276093
0.16584831 0.010000001 0.048865784
0.11132025 0 0.0085981637
0.12919979 0.010000001 0.09804415
0.15929335 0.010000001 0.098558843
0.18916224 0.010000001 0.10584309
0.11306594 0.010000001 0.032938488
0.17783678 0 0.030083448
0.049513165 0.010000001 0.045953546
0.06061523 0.010000001 0.10848209
0.13694514 0.010000001 0.037808347
0.13094635 0.00538379 0.12
0.17401259 0 0.073943742
0.021772118 0 0.077117324
0.14610721 0.010000001 0.024540633
0.019085724 0.010000001 0.10950156
0.034365121 0.010000001 0.037666682
0.12787297 0.010000001 0.041773144
0.04361302 0.010000001 0.070325986
0.18888478 0.010000001 0.030476509
0.076119773 0.010000001 0.029765163
0.091170527 0.010000001 0.10283075
0.057844058 0 0.061921373
0.0085954154 0.010000001 0.066914432
0.021022664 0.0055259876 0
0.097666152 0 0.067781024
0.12468404 0 0.11395566
0.078018516 0.010000001 0.10889469
0.19912806 0.010000001 0.061196689
0.011022332 0.0084219705 0
0.2 0.0059338519 0.048183199
0.177663 0 0.046136912
0.096595645 0.010000001 0.079466119
0.016670136 0 0.084232971
0.14031683 0.010000001 0.046363663
0.17947058 0 0.11577176
0.10946874 0 0.053941585
0.0040548542 0.0027288527 0.052404467
0.074166857 0 0.090748161
0.14967988 0.010000001 0.066824436
0.11095805 0 0.090723701
0.040413365 0.010000001 0.091092877
0.16687855 0.010000001 0.087365851
0.071878485 0 0.054783225
0.15468474 0 0.069509737
0.069039457 0 0.059985761
0.15920289 0 0.0050148685
0.070219159 0 0.00046225454
0.16979928 0.010000001 0.04898759
0 0.0026585869 0.05907375
0.017074225 0 0.043771785
0.10547096 0.010000001 0.0021945091
0.16089262 0.010000001 0.0075323987
0.10993771 0 0.006087664
0.12677413 0 0.096006356
0.030663121 0 0.0068853982
0 0.0047165081 0.066075414
0.072102547 0 0.022070164
0.15655665 0 0.10887254
0.046617068 0.010000001 0.067628175
0.18348169 0 0.11829147
0.040128503 0 0.1147299
0.0068873717 0.010000001 0.10727681
0 0.0022293506 0.060192909
0.0059978683 0.010000001 0.018976321
0.058108889 0.010000001 0.11301401
0.095811933 0.010000001 0.10169756
0.038829122 0 0.0974207
0.18782626 0 0.10193247
0.15700899 0 0.020459967
0.13945864 0.010000001 0.030139374
0.18185315 0.010000001 0.062788717
0.13879849 0 0.087675452
0.12398074 0 0.11919983
0.18939503 0.010000001 0.11492352
0.17435977 0 0.047030445
0.13005142 0.010000001 0.089918695
0.11622192 0.010000001 0.038351025
0.03385948 0.0029778667 0.12
0 0.0024213439 0.0064077545
0.038253702 0.0099999998 0.024361733
0.17229959 0.010000001 0.043400303
0.028327504 0.010000001 0.055246901
0.15053336 0 0.047726054
0.022015762 0.0083072279 0
0.2 0.00062580867 0.038414728
0.13729182 0.0011021445 0.051520791
0.16125602 0.010000001 0.066482641
0.14710784 0.010000001 0.01378628
0.099764094 0.002562854 0
0.072582997 0 0.028487679
0.19835527 0 0.00093023229
0.19713689 0.010000001 0.041413676
0.1888749 0 0.096978575
0.042191505 0.010000001 0.084492192
0.0037266698 0 0.049715608
0.17279701 0 0.046239968
0.069403701 0 0.015892742
0.020582201 0.010000001 0.078691341
0.14428531 0 0.084126338
0.10939884 0.010000001 0.0020273346
0.089596055 0.0010543925 0.12
0.075689934 0.010000001 0.0074486448
0.1389406 0 0.10620972
0.11636727 0 0.035280492
0.14851885 0 0.060154308
0.18781272 0.010000001 0.11741722
0.12996382 0.010000001 0.08935219
0.077012241 0 0.0038064078
0.10294863 0.010000001 0.084849492
0.11100505 0.010000001 0.10804898
0.16664228 0 0.004894116
0.13151278 0.010000001 0.0022266021
0.020344643 0.010000001 0.069037572
0.17974278 0 0.013036707
0.09078408 0.010000001 0.054198917
0.004920294 0.010000001 0.047550518
0.014515178 0.010000001 0.051540524
0.15981755 0 0.04521618
0.16335148 0 0.021425422
0.012063432 0.0050678086 0.12
0.19028458 0.0010011095 0.11196546
0.040373582 0 0.086939521
0.072496094 0.010000001 0.025200047
0.010183995 0.010000001 0.077797204
0.18921036 0 0.078231759
0.1191411 0 0.02442671
0 0.0077249347 0.071809962
0.17429295 0 0.07253179
0.026444873 0.010000001 0.051500335
0.036955323 0 0.063445017
0.089400105 0.010000001 0.027650593
0.083217487 0.010000001 0.080126248
0.070263766 0.0088608861 0.12
0.0075429338 0 0.059271447
0.11418475 0.0035538687 0
0.055050395 0.010000001 0.085106991
0.00900672 0.006771198 0.011731239
0.14295132 0.010000001 0.10353057
0.14044771 0 0.1077558
0.062769726 0.010000001 0.08170259
0.088122703 0 0.042110071
0.06411542 0.010000001 0.10945179
0.029008226 0 0.022922494
0.091448158 0 0.073240899
0.13119955 0.010000001 0.040210638
0.15993936 0.010000001 0.042728931
0.10283389 0 0.05930914
0.2 0.0012913537 0.0042786594
0.01494035 0 0.072369218
0.09705624 0 0.063783213
0.11965432 0.010000001 0.0948608
0.0030229106 0 0.11596269
0.086059771 0.010000001 0.11597437
0.14700741 0 0.10365599
0.021491744 0 0.078989722
0.036362585 0 0.00054306851
0.17321755 0 0.065347403
0.010389097 0.010000001 0.062908098
0.15431841 0.010000001 0.10018229
0.17672813 0.010000001 0.069297656
0.12467738 0.010000001 0.024628531
0.0075486377 0 0.046022654
0.010136559 0 0.015742775
0.13862206 0 0.046004988
0.13569598 0 0.10524381
0.12921754 0 0.041149307
0.076961547 0.0070766611 0
0.15238345 0.010000001 0.10738918
0.19085573 0 0.095755942
0.13307124 0 0.099735208
0.15463267 0.010000001 0.08262559
0.0033804607 0.0045352173 0
0.11829145 0 0.0015222116
0 0.0070857098 0.034059033
0.04694616 0 0.10680485
0.19633614 0.010000001 0.0009487982
0.062363308 0.010000001 0.11503642
0.047894116 0.010000001 0.025278054
0.12920398 0.0032095201 0
0.17977059 0 0.0053777806
0.14366712 0.010000001 0.040901683
0.07130146 0 0.012354814
0.14077872 0 0.038354564
0 0.0083808126 0.0072867111
0 0.0048767114 0.11841488
0.011815719 0 0.0081512267
0.14346337 0 0.029714487
0.15831977 0 0.0063383901
0.11404706 0 0.077567786
0 0.0082393577 0.059368316
0.031216957 0 0.015917439
0.051911518 0 0.054558557
0.10422437 0 0.088738784
0.017971234 0.010000001 0.071923263
0.16668455 0 0.072246641
0.15488029 0 0.079944707
0.15960814 0 0.081310853
0.2 0.0091439895 0.031778961
0.01109887 0.0051479382 0.0083378581
0.17574649 0.010000001 0.11058842
0.13882166 0 0.047055803
0.002543553 0 0.089350343
0.17865375 0 0.034794398
0.085286565 0.010000001 0.018928319
0.061090853 0.010000001 0.080922961
0.075208582 0.010000001 0.016833905
0.13949417 0 0.012013379
0.077308476 0.010000001 0.041568406
0.15893079 0 0.085573077
0.10007682 0 0.11689062
0.011288663 0 0.11713161
0.065195329 0 0.039536569
0.060450133 0 0.09756285
0.14116479 0.010000001 0.09520267
0.014131441 0 0.025868827
0.08052779 0.010000001 0.08472988
0.18271284 0 0.010622111
0.19834392 0 0.0075720865
0.17438149 0.0039270557 0
0.050360698 0 0.02866618
0.17510863 0 0.074394576
0.18023172 0.010000001 0.11369248
0.052612763 0 0.017572267
0.0027805457 0.010000001 0.11876254
0.0086301463 0 0.11556398
0.053837355 0 0.019158823
0.17109028 0.010000001 0.042827751
0.173232 0.010000001 0.065547675
0.16363023 0.010000001 0.099969111
0.14946653 0.010000001 0.031455114
0.082921147 0.010000001 0.0069060382
0.083432592 0 0.023625033
0.13566028 0 0.004332975
0.040543273 0.010000001 0.08128158
0.01807208 0.010000001 0.049977519
0.18798645 0.010000001 0.098082609
0 0.0052635991 0.018311104
0.12931049 0 0.047159478
0.087496385 0.010000001 0.0083140861
0.13056865 0.010000001 0.0555383
0.10412885 0 0.029419662
0.18588461 0 0.048651177
0.18223676 0.010000001 0.093414128
0 0.0091388272 0.11979315
0.11303589 0 0.03752486
0.092856906 0 0.03314526
0.05387878 0 0.050999686
0.15791635 0.010000001 0.023745859
0.1280399 0.010000001 0.043588858
0.16026105 0.010000001 0.0078997184
0.057494391 0.010000001 0.099942617
0.1303377 0.010000001 0.044984169
0.052717615 0.0054747821 0.12
