# .PCD v0.7 - Point Cloud Data file format
VERSION 0.7
FIELDS x y z
SIZE 4 4 4
TYPE F F F
COUNT 1 1 1
WIDTH 1000
HEIGHT 1
VIEWPOINT 0 0 0 1 0 0 0
POINTS 1000
DATA ascii
0.20000002 0.0050239931 0.11740179
0.090733789 0 0.080348499
0.061296474 0.0080000004 0.10328107
0.15034929 0 0.072163709
0.16125688 0.0080000004 0.081478089
0.010571934 0.0061967722 0.0081532933
0.026933424 0.0080000004 0.030582661
0.05778512 0.0080000004 0.0138502
0.041734867 0.0080000004 0.032146163
0.051486351 0.0080000004 0.092913002
0.19706628 0 0.0057505486
0.14874564 0.0080000004 0.10476926
0.031111939 0 0.02215082
0.023270886 0 0.11476915
0.18233514 0.0080000004 0.098314404
0.18779112 0.0080000004 0.067797735
0.1465998 0.0080000004 0.010725157
0.14482011 0.0080000004 0.0032483246
0.18399106 0.0044221398 0.12000005
0.1356663 0.0080000004 0.047434673
0.019668408 0.0080000004 0.00032548458
0.12494271 0.003868825 5.2154068e-08
0.19511278 0.0080000004 0.073891275
0.15977138 0 0.016040547
0.098200925 0 0.046084061
0.15104581 0 0.10358433
0.11211886 0 0.097654834
0.07190828 0.0080000004 0.048060104
0.20000003 0.0035452023 0.027658826
0.14987308 0.0014837118 0.12000005
0.096042886 0.010685301 0.038500052
0.052011803 0.00040325997 5.2154068e-08
0.17848735 0.0080000004 0.095151745
0.047633186 0.0055569243 0.12000005
0.10200003 0.0065407427 0.07100857
2.2351744e-08 0.0036385662 0.050128322
0.17699729 0 0.086607531
0.17350489 0.0080000004 0.10724641
0.14256291 0.0080000004 0.061036941
0.10104025 0 0.045609955
0.063324347 0.0080000004 0.099657543
0.017153833 0 0.10215537
0.079776563 0 0.013618536
0.14513452 0.0080000004 0.085978106
0.072178349 0 0.042429719
0.10169762 0 0.10768189
0.02587408 0.0080000004 0.034352455
0.10200003 0.00087723322 0.071163282
0.045642484 0.0080000004 0.057629053
0.097370036 0 0.11638127
0.16807294 0 0.099888451
0.016139464 0.0080000004 0.029158916
0.13001721 0.0080000004 0.017407747
0.0033910582 0 0.067975037
0.1073289 0.0080000004 0.041585863
0.11696161 0.0080000004 0.066902742
0.10988081 0.025607212 0.030292707
0.1118772 0.0080000004 0.020690003
0.072565958 0 0.039500162
0.16743335 0.0080000004 0.10056592
0.13479584 0.0080000004 0.089827336
0.18041472 0 0.032103349
0.052049588 0 0.086569242
0.11116666 0.020499416 0.028815428
0.090711728 0 0.11605227
0.078221038 0 0.11833707
2.2351744e-08 0.0072929007 0.10128267
0.09636841 0 0.119055
0.14950179 0 0.015513695
0.20000003 0.0075427266 0.02757943
0.15847719 0 0.0040598009
0.0066334922 0.0080000004 0.012579719
0.086301856 0.0080000004 0.11150419
0.15899292 0 0.094182335
0.011297597 0 0.056055423
0.19789225 0 0.078633212
0.12156991 0 0.045505434
0.14533469 0 0.035241786
0.1031604 0 0.045578904
0.06333594 0 0.058902871
0.1282545 0 0.01528887
0.17323884 0.0080000004 0.10390357
0.17653334 0 0.090469755
0.043236732 0 0.0065444885
0.049285851 0.0080000004 0.11679626
0.16151392 0 0.097486101
0.098217309 0 0.10950271
0.087759539 0 0.01777968
0.069179773 0 0.083061814
2.2351744e-08 0.006626613 0.077067219
0.025138425 0.0080000004 0.088550322
0.061910968 0 0.054513078
0.030462688 0 0.086759366
0.10267112 0.0080000004 0.048193853
0.20000002 0.0037390953 0.02665933
0.17835933 0 0.02252255
0.059895828 0 0.1168738
0.079506785 0 0.01362997
0.19100003 0.0013996355 0.051356532
0.15307452 0.0080000004 0.072848462
0.10739261 0.0080000004 0.1018544
2.2351744e-08 0.0023929237 0.097641133
0.072464049 0.0080000004 0.042307641
0.049859453 0 0.025509853
0.018885065 0 0.027065625
0.09016332 0 0.018765297
0.094575755 0 0.085600972
0.17882557 0 0.10719013
0.032205444 0 0.031361792
0.14409202 0.0080000004 0.087785847
0.034428004 0.0010295911 0.12000005
0.010373612 0 0.076322086
0.1406775 0.0080000004 0.099404402
0.051917072 0.0080000004 0.014065281
0.038046736 0.0080000004 0.094467185
0.043254241 0.0080000004 0.065843523
0.14737637 0 0.022832738
0.083842307 0.0080000004 0.06802807
0.015491847 0 0.05910584
0.19872886 0 0.097452603
0.14117467 0 0.070577458
0.10984319 0.0080000004 0.096841484
0.096046261 0 0.116169
0.068684906 0.0080000004 0.10192847
0.10033868 0 0.080962293
0.036440011 0 0.086604558
0.024924291 0.0067929653 5.2154068e-08
0.12719636 0 0.042701486
0.12864189 0.0080000004 0.074178159
0.1783181 0.0080000004 0.059896488
0.12678228 0.0080000004 0.1045373
0.010481135 0.0080000004 0.11360855
0.16387135 0 0.044761866
0.16994895 0 0.058451306
0.049277894 0 0.048536811
0.14030884 0.0080000004 0.087570392
0.15197214 0 0.04250342
0.059113506 0 0.098677471
0.012143779 0.0080000004 0.091049552
0.17510815 0.0080000004 0.052883819
0.14663704 0 0.042046495
0.08640901 0.0080000004 0.07460738
0.018774396 0.0080000004 0.11413074
0.11999494 0.0080000004 0.033728212
0.19687724 0 0.10023373
0.0013667794 0.0080000004 0.053281106
0.021379305 0.0080000004 0.085132524
0.17087592 0 0.10603777
0.12651224 0.0080000004 0.11033638
0.073927619 0.0080000004 0.097832493
0.18357483 0 0.066524409
0.19619747 0.0080000004 0.028240141
0.025012109 0.0080000004 0.014061585
0.0096707204 0.0067396485 0.10808828
0.053731952 0 0.0043512103
0.052237745 0.0080000004 0.076735459
0.15176632 0 0.083410263
0.15063599 0.0080000004 0.094216213
0.068881944 0 0.076211274
0.11748215 0.0080000004 0.036875665
0.12023385 0.0080000004 0.060991716
0.094921596 0 0.023434388
0.15647066 0.0080000004 0.11024434
0.021871286 0.0022427165 5.2154068e-08
0.12501614 0 0.020626264
0.10040992 0.0080000004 0.1053977
0.069232777 0.0080000004 0.048748437
0.16612954 0 0.020919379
0.1625175 0.0080000004 0.099635296
0.18829368 0 0.065933011
0.010227129 0.0080000004 0.086599745
0.0090000266 0.002516859 0.048062868
0.18700004 0.0021757877 0.037324097
0.025360405 0 0.047983702
0.013000027 0.00057283294 0.042606343
0.038190424 0 0.049669694
0.045297109 0 0.090406686
0.10552736 0 0.086121239
0.080369987 0 0.066898562
0.11799515 0 0.01412951
0.049305528 0 0.051790275
0.02990552 0.0080000004 0.03190884
0.020271791 0 0.015836243
0.19718692 0 0.0015411709
0.0092787193 0 0.064621143
0.19544604 0.0080000004 0.015451503
0.046027821 0.0080000004 0.034634478
0.11010639 0 0.071075186
0.083744645 0 0.060770392
0.12852833 0 0.03922534
0.1321879 0.0080000004 0.023076886
0.070363373 0 0.041147105
0.12184995 0 0.094883665
0.17858949 0 0.043822628
0.10200003 0.007792965 0.049671192
0.02975742 0 0.1119419
0.0054766028 0.0080000004 0.06555748
0.18438438 0 0.036146354
0.12575018 0.0080000004 0.079982862
0.058048945 0 0.11906918
0.054802265 0 0.11964875
0.18916084 0.0080000004 0.09889707
0.16637756 0 0.087703586
0.16353482 0.0080000004 0.090596654
0.1785395 0.0080000004 0.075834706
0.036806844 0.0080000004 0.091001742
0.13928187 0 0.0054782666
0.068291277 0 0.030935545
0.094758064 0 0.042780049
0.070856094 0.0080000004 0.1198614
0.080476269 0 0.08177568
0.0090000276 0.0018371636 0.042320263
0.033263624 0 0.063942745
0.09551581 0.011500001 0.004544097
2.2351744e-08 0.0048400201 0.024616359
0.085989125 0 0.11408273
0.098000035 0.00037583127 0.053147182
0.19124416 0 0.082867891
0.14100268 0.0080000004 0.077825889
0.13176888 0.0080000004 0.067241788
0.19070292 0.0080000004 0.0043931887
0.083888188 0.0080000004 0.033952195
0.18119666 0 0.04001011
0.065739192 0.0080000004 0.093860686
0.12340188 0.0080000004 0.098539524
0.14577177 0.0080000004 0.11057638
0.094653271 0 0.040126361
0.15851203 0 0.024445901
0.098223493 0.0080000004 0.092838094
0.004079815 0 0.087495424
0.016585285 0 0.01259236
0.18478608 0 0.012211123
0.029917581 0 0.11802172
0.089591086 0 0.014373029
0.048505161 0 0.10290984
0.12176446 0.0080000004 0.05262829
0.066858046 0.0080000004 0.09880428
0.015373983 0.0080000004 0.0297851
0.18245709 0.0073431591 0.12000005
0.19564579 0.0039289501 0.089237846
0.061626919 0 0.037026417
0.11023844 0 0.047778174
0.059032664 0 0.099464178
0.0040732883 0.0080000004 0.030098192
0.1989783 0 0.022380032
0.047745585 0.0080000004 0.11587003
0.14623266 0.0080000004 0.094282612
0.17091756 0 0.010707716
0.041731074 0 0.012693349
0.054599971 0 0.10399154
0.077928014 0.0080000004 0.057027448
0.024947394 0 0.056449678
0.062920131 0 0.096040063
0.059544977 0.0080000004 0.019108851
0.14906019 0.0029335881 0.12000005
0.0022073786 0 0.10584248
0.038303129 0.0080000004 0.10905854
0.18174614 0.0080000004 0.063407086
0.1236028 0.0080000004 0.10394685
0.053333603 0 0.027507635
0.1280392 0.0080000004 0.064094216
0.13343547 0.0080000004 0.029874396
0.058244761 0 0.017200071
0.093567692 0.011500001 0.037985403
0.11303138 0 0.04947466
0.04863302 0.0080000004 0.077227756
0.17527176 0 0.11924669
0.0071426304 0 0.059587386
0.038168915 0.0080000004 0.059892099
0.16929422 0.0080000004 0.052551053
0.015025227 0.0080000004 0.049716718
0.12386897 0.0080000004 0.041315887
0.023326745 0.0080000004 0.11137322
0.12048282 0 0.026782043
0.075124972 0 0.037180215
0.19256993 0.0080000004 0.05449925
0.031955332 0.0080000004 0.086080797
0.11760277 0.0080000004 0.070960134
0.097591542 0.0080000004 0.11570592
0.07591854 0.0080000004 0.083209991
0.13750605 0.0080000004 0.094883017
0.056879885 0.0080000004 0.036127955
0.019062685 0.0080000004 0.07795801
0.18158048 0 0.050173678
0.00058871735 0 0.018203998
0.077211767 0.0019082847 5.2154071e-08
0.039251581 0 0.10071027
0.043483973 0.0080000004 0.092534401
0.13060787 0 0.099607714
0.14679202 0 0.065651916
0.19037168 0.0072060768 0.0080996295
0.1915392 0.0080000004 0.088179961
0.047003027 0 0.067528374
0.009439094 0.0067574568 0.055171181
0.14941831 0 0.10828106
0.080402732 0 0.088294223
0.098803997 0 0.0037771531
0.073565431 0 0.037441343
0.11211393 0.0080000004 0.062665984
0.10816109 0 0.10910788
0.1574201 0.0080000004 0.11930857
0.058352586 0.0080000004 0.097349212
0.17179847 0.0080000004 0.070670776
0.098000035 0.0037686503 0.061051242
0.055511165 0 0.092822559
0.14280963 0.0080000004 0.1057128
2.2351744e-08 0.0012584883 0.098298803
0.11882658 0 0.094227895
0.01594745 0 0.082938612
0.16925058 0 0.082559459
0.074855864 0.0080000004 0.068919159
0.049923662 0.0080000004 0.054929215
0.15334059 0 0.061154
0.19121468 0.0080000004 0.057231981
0.11900164 0 0.09211196
0.084167518 0 0.11297067
0.12388667 0.0080000004 0.097062923
0.15247364 0.0080000004 0.012971854
2.2351744e-08 0.0035445641 0.048727918
0.14103462 0 0.048700843
0.062247965 0.0080000004 0.0052927788
0.19667464 0.0080000004 0.0071112914
0.016493866 0 0.059517618
0.010046151 0.0080000004 0.017291717
0.03017633 0.0080000004 0.080256671
0.028755236 0 0.077965021
0.063464448 0.0080000004 0.062503234
0.014826716 0 0.084949888
0.14795311 0.0080000004 0.07359305
0.10575823 0 0.015015511
0.15584472 0.0040144227 0.12000005
0.10923198 0.0080000004 0.051845606
0.12931637 0 0.012519805
0.045909297 0 0.083281927
0.15352078 0 0.1068619
0.018906884 0.0080000004 0.073332496
0.066840529 0 0.011195734
0.17236102 0 0.0067014131
0.19645572 0 0.012349519
0.13468723 0.0080000004 0.026856439
2.2351744e-08 0.0038042509 0.042736031
0.05945915 0.0080000004 0.067451067
0.133516 0 0.064240098
0.0042343927 0 0.013673698
0.11741553 0 0.038961466
0.10021851 0.022546673 0.031000055
0.03762063 0.0080000004 0.04144856
0.15741764 0.0080000004 0.095399268
0.077998742 0 0.10169996
0.12238379 0.0080000004 0.0029834034
0.17923883 0.0075874464 0.12000005
0.10753947 0 0.036282051
0.0083453851 0 0.090367548
0.15764289 0 0.051916495
0.083729208 0 0.083899066
0.1624091 0.0080000004 0.074689545
0.15063359 0.0080000004 0.011744052
0.19198109 0.0080000004 0.015871491
0.011520164 0.007745252 0.011211961
2.2351744e-08 0.0035033415 0.081480324
0.091615461 0.0056046052 0.090875462
0.091577716 0.016230527 0.031000054
0.14168054 0.0080000004 0.061606627
0.021190625 0.0080000004 0.0036590144
0.13970622 0 0.10237025
0.061427414 0.0080000004 0.073070139
0.11150002 0.0090014338 0.011084766
0.10963742 0 0.044685885
0.18398102 0.0080000004 0.091277815
0.090255633 0.0080000004 0.066687942
0.11446373 0.0080000004 0.056006856
0.060436781 0.0080000004 0.078431062
0.079586342 0.0080000004 0.024744928
0.097584695 0 0.095958985
0.15745305 0 0.020520907
0.1877701 0 0.071332909
0.0014575217 0.0080000004 0.058459278
0.034478951 0.0031841099 5.2154068e-08
0.010160333 0.0076294667 5.2154068e-08
0.11020182 0.0091864038 0.038500052
0.041488748 0.0080000004 0.0087970411
0.15297623 0 0.094731331
0.01069681 0 0.0031793537
0.07137499 0 0.0010328554
0.15049922 0 0.083042867
0.15678257 0.0012762254 0.12000005
0.13777328 0 0.10367782
0.040504474 0.0080000004 0.051131923
0.12480128 0 0.096294992
0.15773948 0.0080000004 0.05647105
0.13442928 0.0080000004 0.074476771
0.19921526 0.0080000004 0.10213245
0.088086806 0 0.10754215
0.060438525 0.0080000004 0.011572813
0.15995423 0.0073500504 0.12000004
0.13383929 0 0.025501989
0.1901231 0.0080000004 0.022400051
2.2351744e-08 0.004695273 0.055834498
0.14241917 0.0080000004 0.074254379
0.16766804 0 0.050049081
2.2351744e-08 0.0057402374 0.081313163
0.11429574 0 0.00026534093
0.082420915 0 0.075034596
0.11363375 0.0080000004 0.11604549
0.057411335 0.0058444459 5.2154068e-08
0.18553692 0.0080000004 0.054742776
0.066506945 0 0.029152434
0.0082638375 0 0.0048271841
0.0058422708 0 0.002415891
0.011566594 0.0080000004 0.10087589
0.005075797 0 0.070276819
0.0023501276 0 0.037312232
0.033769995 0 0.091646396
0.087163001 0.0080000004 0.081780873
0.11839581 0.0080000004 0.035896949
0.17378867 0 0.08743117
0.18700004 0.0019778304 0.051756911
0.1544373 0 0.10466405
0.072859243 0.0080000004 0.032903649
0.026481949 0.0028103061 5.2154068e-08
0.082768738 0.00043786824 5.2154068e-08
0.18267323 0.0080000004 0.10064866
0.1222228 0 0.071603328
0.0127873 0.0080000004 0.092832647
0.18310109 0.0080000004 0.11660635
0.1431614 0.0080000004 0.038641833
0.16854976 0 0.1116373
0.12765022 0 0.032990165
0.16350228 0.0080000004 0.0050692223
0.076481171 0.0045790905 5.2154068e-08
0.073362097 0.0080000004 0.012286423
0.064675488 0.0080000004 0.095840886
0.14016819 0.0080000004 0.0019164282
0.089383103 0.013078527 0.01909855
0.06742233 0.0080000004 0.049661033
0.12922186 0 0.078053504
0.18566191 0.004313224 0.12000005
0.04101574 0.0080000004 0.041740444
0.11027411 0 0.11827821
0.10612415 0.0080000004 0.099569738
0.19693349 0.0080000004 0.050819904
0.01395699 0 0.037525918
0.094500594 0 0.036041949
0.069997728 0.0080000004 0.11361048
0.015322554 0.0080000004 0.096838258
0.051289018 0.0033506376 0.12000005
0.15028831 0.0080000004 0.089875989
0.13780791 0.0080000004 0.099683814
0.1336049 0 0.11367646
0.18221103 0 0.079178706
0.042605136 0 0.010334868
0.17593192 0.0080000004 0.048515052
0.094623327 0.019017396 0.031000055
0.15468432 0.0080000004 0.043670304
0.13776766 0.0080000004 0.091202885
0.066299252 0.0080000004 0.0043062456
0.095947906 0 0.10182162
0.19743599 0 0.035988901
0.13927363 0.0080000004 0.00057891087
0.1706555 0 0.043326747
0.052967902 0 0.10087827
0.043886468 0 0.082772404
0.076421276 0 0.049380813
0.081214085 0 0.11365302
0.1530226 0.0080000004 0.041284379
0.094780281 0 0.03177477
0.05529318 0 0.090033934
0.19428238 0 0.046677019
0.13507701 0.0080000004 0.051033735
0.098000035 0.0074751712 0.067126557
0.14943343 0 0.1051444
0.069235548 0 0.021252282
0.1298652 0 0.02909507
0.14612293 0 0.060117509
0.15258275 0.0080000004 0.0029823012
0.10814738 0 0.050068472
0.033559293 0 0.039660886
0.19670789 0 0.065495461
0.10343789 0.020703753 0.0075000529
0.199312 0 0.034850791
0.0028467895 0 0.061917368
0.15222232 0 0.062541634
0.06100513 0 0.089585461
0.14520979 0.0080000004 0.041937061
0.10768685 0.02256394 0.0075000529
0.14378558 0 0.1109269
0.049974125 0 0.09646143
0.19102421 0.0080000004 0.020458139
0.12240551 0.0080000004 0.025237162
0.13807607 0.0080000004 0.098884858
0.12155414 0 0.089260109
0.1113067 0.0080000004 0.07303755
0.047574226 0 0.11181781
0.0056539099 0 0.10684244
0.076972157 0.0080000004 0.046662282
0.062448513 0 0.10095823
0.0049478416 0.0080000004 0.10548922
0.047792967 0.0080000004 0.10401033
0.18997654 0 0.082632668
0.069749467 0.0080000004 0.098567709
0.14984976 0 0.10964958
0.10359267 0.0080000004 0.067116857
0.085905395 0.0080000004 0.067380413
0.11899372 0.0080000004 0.11924925
0.096774697 0 0.0686884
0.0035602336 0 0.05073759
0.00060949108 0 0.018096684
0.017626164 0.0080000004 0.056253023
0.005631574 0 0.073194847
0.19511974 0.0080000004 0.046293307
0.045725245 0 0.031308934
0.10679478 0.017328804 0.031000054
0.011016167 0.0080000004 0.056769989
0.20000003 0.0040655187 0.016280834
0.021843217 0 0.08342807
0.18090275 0.0080000004 0.039914299
0.19824858 0.0080000004 0.073905542
0.035043392 0.0080000004 0.069874026
0.11189271 0.000296349 0.12000005
0.055672351 0.0080000004 0.019801253
0.068691589 0 0.11335813
0.087132774 0.0080000004 0.032604888
0.0015128212 0.0080000004 0.0063350233
0.025752522 0.0080000004 0.040927295
0.1816123 0 0.012754472
0.20000002 0.0054418813 0.080461204
0.15384248 0 0.047769591
0.024154024 0 0.107601
0.12074798 0.0080000004 0.0021078321
0.15067567 0.0080000004 0.035262883
0.09600769 0 0.10417401
0.10405679 0.0016150479 0.12000005
0.091896042 0 0.10756864
0.035540488 0 0.081267424
0.069616869 0 0.033724915
0.1087819 0 0.021174572
0.16929162 0 0.085524797
0.15439904 0.0080000004 0.063725367
0.087855779 0 0.0018900689
0.18316849 0.0037678261 0.12000005
0.18264 0.0080000004 0.080208816
0.025910942 0.0080000004 0.038123995
0.1556406 0 0.010130948
0.088965431 0.025174523 0.021027181
0.10200003 0.0003191102 0.050861903
0.039412409 0.0080000004 0.10737676
0.10722997 0.0080000004 0.073661558
0.057968311 0.0040523256 5.2154068e-08
0.12644917 0 0.021292979
0.017420063 0 0.064128816
0.064604968 0 0.028926855
0.053834468 0 0.0017008454
0.040435847 0.0039021464 5.2154068e-08
0.056430455 0.0080000004 0.074538238
0.043560255 0.0080000004 0.043883637
0.057522967 0.0080000004 0.10055533
0.088900283 0.025150096 0.018205164
0.051314201 0.0080000004 0.014681872
0.17057444 0 0.020007422
0.1354063 0.0080000004 0.11925957
0.012287624 0.0080000004 0.065374799
0.035788652 0.0080000004 0.035233699
0.094117619 0.017019577 0.0075000529
0.12496173 0 0.041656792
0.14223066 0.0080000004 0.045804471
0.029069049 0 0.045936041
0.09905237 0.0080000004 0.092743471
0.093157873 0.0080000004 0.073290467
0.097955234 0 0.023223246
0.071112186 0 0.088774003
0.14354557 0 0.056325275
0.15719055 0 0.027456937
0.088205293 0 0.084897786
0.1708345 0 0.090646729
0.18485394 0 0.047501046
0.19055574 0.0080000004 0.022578456
0.10937694 0.011492328 5.2154068e-08
2.2351744e-08 0.0034858668 0.020384816
0.17451799 0.0080000004 0.017353002
0.045813654 0.0080000004 0.087317489
0.16800657 0 0.044458102
0.026892792 0 0.0074351542
0.12037738 0 0.071480118
0.14533387 0.0078277262 5.2154068e-08
2.2351744e-08 0.0071296431 0.056673862
0.028576816 0 0.08013735
0.11617517 0 0.11719789
0.11568471 0 0.00016957738
0.081845231 0 0.078482144
0.12576737 0.0072377222 5.2154068e-08
0.050643023 0.0080000004 0.085367121
0.18482506 0.0078718876 5.2154064e-08
0.12761053 0.0080000004 0.052850094
0.020804269 0.0080000004 0.087225169
0.15207858 0.0080000004 0.0055212281
0.056733496 0.0080000004 0.057822574
0.068442769 0.0062846183 0.12000005
0.11068038 0 0.098535717
0.16438136 0 0.095201127
0.1776834 0.0080000004 0.1129119
0.1692148 0.0080000004 0.069680914
0.019163765 0 0.084574774
0.14758813 0 0.057676625
0.057997789 0.0050537107 5.2154068e-08
0.040899217 0 0.045421172
0.19947936 0.0080000004 0.11559972
0.19300148 0 0.076939277
0.069773212 0 0.0070914747
0.14485215 0 0.03880332
0.019482452 0.0027808941 0.12000005
0.13907561 0.0080000004 0.064457521
0.02710323 0 0.084161647
0.028987711 0.0080000004 0.11049291
0.18864466 0 0.028511794
0.17717652 0.0080000004 0.061722178
0.20000002 0.00046112869 0.095481262
0.05544642 0 0.11043372
0.18908677 0 0.11685584
0.039556261 0 0.09085989
0.086781941 0.0080000004 0.10354917
0.077351078 0.0080000004 0.057834752
0.11150002 0.0081733912 0.035927873
0.020605316 0.0080000004 0.069077589
0.033339523 0.0080000004 0.10586316
0.11545875 0.0080000004 0.0065681976
0.088408679 0.0080000004 0.063685544
0.048686389 0.0080000004 0.086653031
0.19054912 0 0.11854897
0.012892621 0.0080000004 0.095471807
0.19253348 0 0.0021333054
0.17896485 0.0080000004 0.038584482
0.19605339 0.0069630826 0.12000004
0.20000003 0.006978957 0.044326529
0.089412682 0.0080000004 0.11412313
0.062475346 0.0080000004 0.013246492
0.035233255 0.0080000004 0.057443496
0.070706211 0.0080000004 0.0057861144
0.16664119 0.0080000004 0.060130022
0.05058359 0.0080000004 0.054419871
0.026756177 0.0080000004 0.033249244
0.12045635 0.0010235686 0.12000005
0.086386576 0 0.035237856
0.10200004 0.0033706413 0.060821254
0.17619075 0.0080000004 0.096653916
0.10393394 0.0080000004 0.093147337
0.11048015 0.011500001 0.0044760844
0.013000027 0.0049121166 0.048652187
0.12913355 0.0080000004 0.012414876
2.2351744e-08 0.0011157569 0.037137419
0.049130965 0.0080000004 0.046541538
0.13359484 0.0080000004 0.068095095
0.1487996 0.0080000004 0.029421307
0.17547132 0 0.0068648029
0.097297929 0.0080000004 0.06415277
0.072037086 0 0.064969599
0.048788369 0.0080000004 0.089309752
0.057654116 0.0080000004 0.053271051
0.092357785 0 0.11962453
0.17981681 0.0080000004 0.094730325
0.0078818537 0.0080000004 0.042155322
0.12685759 0 0.10921229
0.095184878 0.011500001 0.0038394313
0.034135938 0 0.080208771
0.048838489 0.0080000004 0.093232393
0.036059398 0.0080000004 0.048172321
0.068038791 0.0080000004 0.0061411248
0.061151095 0 0.026388479
0.13082787 0.0080000004 0.076505706
0.11271286 0.0080000004 0.10264594
0.12880234 0.0080000004 0.022307945
0.073268861 0 0.059427906
0.0058385106 0 0.047910292
0.067346752 0.0080000004 0.0054709781
2.2351744e-08 0.00656424 0.053060219
0.18890323 0.0080000004 0.017665239
0.096303038 0.0080000004 0.0846866
0.13961583 0 0.072314955
0.16401491 0 0.099961855
0.077101424 0 0.0063216644
0.083386973 0 0.037831094
0.12822951 0 0.040954504
0.011125492 0 0.11420753
0.0070359674 0 0.077051088
0.12115408 0.0080000004 0.049435221
0.048820578 0.0080000004 0.025263932
0.102755 0 0.0072728619
0.16199116 0 0.11117691
0.18204001 0 0.060465388
0.064486235 0 0.062492955
0.085921064 0 0.054070678
0.095286712 0 0.09197475
0.1339227 0 0.028940525
0.089089543 0.017041599 0.017264662
0.035656076 0.0080000004 0.084799461
0.18843655 0.0023472339 0.011168614
0.078585789 0 0.039563701
0.10051262 0.0080000004 0.11004128
0.14827104 0 0.0032233759
0.029416686 0 0.11922208
0.0957537 0.016387744 0.031000054
0.17892817 0.0080000004 0.11388762
0.03021813 0.0080000004 0.11738233
0.087904327 0.0057417494 0.12000005
0.15433836 0.0080000004 0.071568318
0.19992658 0.0080000004 0.0056726881
0.072838232 0 0.069752902
0.07434538 0 0.050280586
0.12630601 0.0080000004 0.039494544
0.054237939 0 0.11874606
0.024578037 0 0.046545818
0.014270818 0 0.095592126
0.14177665 0.0080000004 0.015350337
2.2351744e-08 0.00026919169 0.039388102
0.13598649 0.0080000004 0.036110628
0.19774117 0 0.078690767
0.17090458 0 0.074897826
0.10370643 0 0.10725678
0.057383709 0 0.06609755
0.10592651 0.0080000004 0.059964102
0.034427106 0 0.025970252
0.16048223 0.0080000004 0.11169855
0.15099005 0.0080000004 0.066322103
0.11025754 0 0.095872305
0.072837777 0 0.03918156
0.070573486 0.0080000004 0.0553587
0.16760576 0.0080000004 0.10994492
0.093769938 0 0.024579888
0.056998715 0.0080000004 0.074528761
0.18551989 0.0080000004 0.0641151
0.0024796354 0 0.022750955
0.10504016 0.0080000004 0.10580623
0.088923074 0.019288732 0.017492039
0.054863337 0.0080000004 0.045393441
0.020260748 0 0.01007528
0.055658206 0.0048718932 5.2154068e-08
0.084148668 0 0.10506938
0.069220036 0.0080000004 0.039142601
0.12387726 0 0.015823858
0.086951301 0.0080000004 0.10504279
0.18375973 0.0047483356 0.12000005
0.1061922 0.0067827133 5.2154068e-08
0.12083554 0.0080000004 0.028589185
0.14630471 0 0.050344098
0.12546073 0.0080000004 0.049544763
0.074354053 0 0.11257381
0.15233997 0.0080000004 0.076574042
0.099017411 0.0034662406 0.073736764
0.045463365 0 0.021901822
0.093899712 0.0080000004 0.072016574
0.20000002 0.0036730934 0.055195622
0.18170749 0.0017519732 0.12000005
0.056922168 0 0.10138159
0.14969464 0 0.090930998
0.16990234 0.0080000004 0.011057163
0.019255931 0 0.0965259
0.18768089 0.0019924594 5.2154068e-08
0.086492769 0 0.052813109
0.19901103 0 0.070550233
0.13396372 0.0080000004 0.03661475
0.011346121 0.0080000004 0.017448884
0.10081784 0 0.096513368
0.073892005 0.00021887579 5.2154068e-08
0.0047005014 0 0.03681523
0.089571312 0 0.056743179
0.0086582629 0.0052668862 0.0086097624
0.075481147 0 0.01104703
0.13978332 0 0.096143141
0.18955408 0.0011534701 0.12000005
0.034912691 0.0080000004 0.029374558
0.033835817 0 0.016511237
0.034705833 0 0.02807864
0.061293542 0.0080000004 0.11871728
0.10229931 0.0080000004 0.10750873
0.074549839 0.0051770885 5.2154068e-08
0.10976249 0.025651578 0.022472005
0.17358677 0 0.037146192
0.0041558049 0 0.099520102
0.16746445 0.0080000004 0.0016055709
0.14902483 0.0013863021 5.2154068e-08
0.039931033 0.0080000004 0.10045376
0.17930469 0 0.018754389
0.10532578 0 0.034845449
0.029154684 0.0080000004 0.030984098
0.097378008 0 0.037997797
0.19284618 0.0080000004 0.043935549
0.029300679 0 0.10489
0.12602104 0 0.067465372
0.032486353 0.00013614655 0.12000005
0.051772203 0 0.068247877
0.014828714 0.0080000004 0.028857928
0.11304653 0.0080000004 0.033603884
0.19259477 0.0080000004 0.0053053638
0.062815875 0.0080000004 0.074796282
0.057779524 0.0080000004 0.065903038
0.031793434 0 0.015624688
0.16440205 0 0.0520873
0.079143852 0.0080000004 0.02013904
0.13710411 0 0.016597999
0.14496472 0 0.0034065703
0.17414118 0.0080000004 0.10629518
0.11646574 0.0080000004 0.089799188
0.12261515 0.0080000004 0.10431963
0.10389376 0 0.055327464
0.17360409 0.0080000004 0.07020545
0.18450373 0.0080000004 0.090529464
0.098000035 0.0028642698 0.052554339
0.10293388 0 0.0271906
0.13699599 0.0080000004 0.11645266
0.18421921 0 0.11877552
0.16805054 0 0.050943188
0.15972686 0 0.017142028
0.095358476 0.024505662 0.0075000529
0.2 0.001312232 0.041394975
0.16582148 0.0080000004 0.081346944
0.11841715 0.0080000004 0.025321912
0.13059087 0.0080000004 0.069541082
0.098814987 0 0.097424075
0.1709668 0 0.11276476
0.19654985 0.0080000004 0.043286178
0.13028245 0 0.024430968
0.10835436 0.016801806 0.031000054
0.11522903 0.0080000004 0.0082430001
0.13694282 0.0037340133 5.2154068e-08
0.030819619 0 0.048844967
0.12746079 0 0.071981005
0.1664186 0 0.042574178
0.073944725 0 0.11390886
0.079674497 0 0.011086506
0.07407257 0.0060216794 0.12000005
0.11381424 0.0080000004 0.017442431
0.01960011 0 0.056885596
0.19368914 0 0.021326184
0.18007483 0 0.064765729
0.085152268 0 0.1045192
0.11088933 0 0.095306978
0.12378429 0 0.052892007
0.00062233099 0.0080000004 0.011446897
0.078401677 0.0080000004 0.081902847
0.1112626 0.021794669 0.0086606862
0.12681445 0.0080000004 0.024234807
0.0061041988 0.0025281918 0.093822129
0.072376661 0.0080000004 0.064898305
0.16069058 0.0080000004 0.0015448959
0.051109143 0.0080000004 0.055935923
0.040066972 0.0071573835 0.12000005
0.042714953 0.0080000004 0.11062523
0.13540606 0 0.015693646
0.047729872 0 0.086084627
0.16383725 0 0.013999148
0.18015964 0.0080000004 0.098316468
0.16741325 0.0080000004 0.075345032
0.1275966 0.0080000004 0.025785113
0.10499261 0.022196902 0.0075000529
0.079850607 0.0030418423 5.2154068e-08
0.18354234 0.0080000004 0.11144674
0.005715054 0 0.07237985
0.14922898 0.00042238421 0.12000005
0.059521936 0.0080000004 0.074560396
0.12502696 0 0.013824063
0.10200003 0.0047638174 0.060008854
0.10230974 0.0080000004 0.065769374
0.098000035 0.0011897488 0.065180041
0.1855706 0 0.0012328591
0.003243824 0 0.062174652
0.14279969 0.0080000004 0.0021476597
0.099636622 0.0080000004 0.076019347
0.14532977 0 0.07562948
0.1779597 0 0.027949212
0.011160891 0.0080000004 0.02107944
0.14333072 0 0.082453221
0.098000035 0.0043703588 0.055672642
0.18483452 0.0080000004 0.043702599
0.12105248 0.0080000004 0.058245398
0.15286541 0 0.053867344
0.13608104 0.0080000004 0.037458114
0.0031016832 0 0.057050679
0.17299818 0.0080000004 0.057180818
0.081040181 0 0.089382298
0.14508237 0.0071760695 0.12000005
0.09288317 0 0.044995159
0.14943291 0.0080000004 0.044579327
0.1322079 0 0.052730341
0.10621622 0.011500001 0.036863878
0.18476565 0 0.025463708
0.021009378 0 0.070255667
0.015856987 0.0080000004 0.10663582
0.043834381 0.0079914937 5.2154068e-08
0.091137052 0.0080000004 0.061734565
0.20000002 0.0002258497 0.076143451
0.0070271147 0.0080000004 0.1143373
0.12375116 0 0.069621965
0.068885252 0 0.053776741
0.039641526 0 0.0036858751
0.10887774 0 0.071340524
0.00095478387 0 0.081398629
0.046170447 0.0080000004 0.086600237
0.19297107 0.0080000004 0.023063021
0.058697544 0.0043585706 5.2154068e-08
0.15646091 0.0080000004 0.058484584
0.096078023 0.027841749 0.018117808
0.17599361 0.0080000004 0.08929126
0.018369123 0.0080000004 0.087240666
0.016945645 0.0080000004 0.056854248
0.16202021 0.0080000004 0.026653793
0.065167151 0.0063987137 0.12000005
0.090842567 0.0023545022 5.2154068e-08
0.16329706 0 0.10897745
0.051904488 0 0.042508472
0.12009627 0.0080000004 0.011373282
0.1481352 0.0080000004 0.019806605
0.073686048 0.0080000004 0.056451336
0.11849265 0.0080000004 0.091715977
0.063541621 0.0080000004 0.028702738
0.018918347 0 0.038737047
2.2351745e-08 0.001882748 0.10215259
0.18448815 0.0080000004 0.023974793
0.11881359 0 0.076968826
0.089591905 0 0.068010785
0.14054936 0 0.041938089
0.0501302 0.0080000004 0.067973599
0.12677149 0 0.061642259
0.16624013 0.0080000004 0.10036947
0.095939539 0 0.0030835487
0.11055081 0.012185629 0.015116335
0.071881287 0 0.11149503
0.12928095 0 0.054489065
0.088714167 0.0080000004 0.080023199
0.077962503 0 0.057149112
0.10934449 0.0080000004 0.048870664
0.060064625 0.0080000004 0.041880317
0.11576312 0 0.061195031
0.14232928 0 0.041582149
0.097677156 0.0080000004 0.10138995
0.0036752704 0.0080000004 0.043171637
0.089281805 0.0080000004 0.086715423
0.11372647 0 0.036600664
0.14405259 0 0.056036677
0.076110467 0.0080000004 0.029710572
0.18504052 0.0080000004 0.059864823
0.057419792 0.0080000004 0.10831026
0.065216489 0.00067899947 0.090689376
0.12605274 0.0080000004 0.035481852
0.0037478772 0.0080000004 0.11581989
0.0448002 0.0080000004 0.079656743
0.031659763 0 0.099051408
0.16120936 0 0.034272131
0.20000002 6.6604596e-05 0.081804454
0.15878825 0.0080000004 0.054656312
0.14741355 0.0080000004 0.051877312
0.17039269 0.0080000004 0.0082835592
0.060662974 0 0.050414518
0.10541479 0.011500001 0.036621112
0.13651858 0 0.083951831
0.0053926781 0.0080000004 0.061655603
0.028408179 0 0.10699847
0.079958059 0.0080000004 0.050675493
0.14183751 0 0.031446371
0.12330703 0.0080000004 0.11919921
0.0083320886 0.0080000004 0.097377524
0.1660534 0.0080000004 0.082807682
2.2351744e-08 0.0033452057 0.033944264
0.084244058 0.0080000004 0.021164896
0.13761877 0.0069414075 0.12000005
0.013824612 0.0080000004 0.035256568
0.091670431 0.0080000004 0.042124368
0.051700246 0 0.023409072
0.048694421 0.0080000004 0.013152358
0.13490492 0.0080000004 0.03667748
0.091670528 0.013828004 0.031000055
0.12009586 0.0080000004 0.074819371
0.089327224 0.013832945 0.027040113
0.14340611 0.0080000004 0.11970683
0.00077926344 0.0080000004 0.054096166
0.052774478 0 0.0036265058
0.1338083 0 0.11523595
2.2351744e-08 0.0015543903 0.080292359
0.083156697 0 0.046330042
0.13816164 0 0.0013109938
0.0016305245 0.0080000004 0.049464542
0.065355733 0.0080000004 0.073464245
0.19100003 0.0038910608 0.050317142
0.014163006 0 0.091610149
0.10945927 0 0.10420447
0.14225943 0 0.053369064
0.074497946 0.0080000004 0.049635191
0.076971941 0 0.046576954
0.088548422 0 0.080250688
0.12369472 0.0080000004 0.060839176
0.17854184 0.0080000004 0.00012527709
0.17585441 0 0.10338781
0.17953351 0 0.035259131
0.1716211 0.0080000004 0.07622277
0.030740475 0.0080000004 0.054438949
0.013009523 0.0080000004 0.01190621
0.095356449 0 0.095882922
0.05971409 0 0.055969596
0.066957273 0 0.051736336
0.11295521 0.0068148687 0.12000005
0.084291615 0 0.060828894
0.086813577 0 0.034207325
