# .PCD v0.7 - Point Cloud Data file format
VERSION 0.7
FIELDS x y z
SIZE 4 4 4
TYPE F F F
COUNT 1 1 1
WIDTH 1000
HEIGHT 1
VIEWPOINT 0 0 0 1 0 0 0
POINTS 1000
DATA ascii
0.07 0.031154983 0.0031399957
0 0.0038308993 0.0047348537
0.04956932 0.0022070818 0
0.020192865 0.012280291 0.0050000004
0.0071038273 0.060000002 0.0014174
0.0034189578 0 0.010396703
0.00022667815 0.042564962 0
0.016152604 0.056455672 0
0.033521373 0.016404811 0
0.0038936595 0.050082605 0
0.0099893063 0.024911979 0.0050000004
0.03516794 0.0036012102 0
0.052026905 0.015371793 0.0050000004
0.014166329 0.0050000004 0.017924558
0.062244512 0.0016164989 0.013613247
0.060240265 0.060000002 0.00087019376
0.023066688 0.025590092 0
0.053003151 0.015525186 0
0.037824791 0 0.015049183
0.016995374 0.048678942 0
0.027744962 0.022747926 0
0.07 0.028494725 0.0011883316
0.069007196 0.059157059 0.00064038788
0.024057267 0.032668848 0.0050000004
0.0052710851 0.0058595412 0.0050000004
0.00052507955 0.0050000004 0.013358429
0.039088517 0.055130459 0.0050000004
0.053599529 0.034988083 0
0.0040034079 0.00065799692 0.016002104
0.039920326 0 0.014949257
0.069093078 0 0.013391901
0.07 0.019280951 0.00025203751
0.048980583 0.032230265 0.00191197
0.040125757 0 0.019140227
0.066390581 0 0.0024289074
0.013952744 0.0032707283 0.020000001
0.054539844 0.053417306 0.0050000004
0.05032723 0.0059217638 0
0.061531901 0.028618013 0
0.059186976 0.010406609 0.0050000004
0.0031400267 0.015587139 0
0.063397564 0.0050000004 0.017387753
0.026592841 0.041072849 0.0050000004
0.03059349 0.060000002 0.0022881723
0.062541053 0.042747464 0.0050000004
0.068429485 0.0050000004 0.018795744
0.039551638 0.047680866 0
0.02092281 0 0.011855713
0.060896125 0.022209089 0
0.067047611 0.0050000004 0.015471867
0.014721167 0.059030589 0.0050000004
0.0010071594 0.038404759 0
0.024310598 0.023097508 0
0 0.026394539 0.0040746564
0.010163478 0.007611834 0
0.068989269 0.048428435 0
0.0098225586 0 0.015393658
0.038717434 0.034228478 0
0.063673533 0.044553094 0.0050000004
0.028759656 0.045609858 0.0010838067
0.050686128 0.060000002 0.0028465677
0.043740727 0.0146066 0.0050000004
0.0047135409 0.018903242 0.0050000004
0.011501761 0 0.0088766571
0.014697763 0.0050000004 0.0052335942
0.012431193 0.0050000004 0.012024411
0.0061871205 0.00053567771 0.020000001
0.010472119 0.0050000004 0.012774194
0.024870526 0.031784292 0.0050000004
0.07 0.0046370314 0.019142613
0.042897057 0.056270059 0.0050000004
0.063808858 0.056911852 0
0.053267922 0.0092728902 0
0.044315692 0.056336336 0.0050000004
0.0049131159 0.013447016 0.0050000004
0.030624112 0.018732708 0.0050000008
0.022828914 0.021714047 0.0050000004
0.033163361 0.0061368248 0.0050000004
0.06760595 0.005479217 0.0050000008
0.05755211 0.029055659 0.0050000004
0.034576327 0.02472071 0.0050000004
0.054933235 0.0027902343 0
0.064148344 0.058140978 0.0050000004
0.014279711 0.042678919 0.0050000004
0.023472091 0.037756734 0
0.028039197 0.034919739 0.0050000004
0.041624926 0.0050000004 0.0084437393
0.023141317 0.037714567 0.0050000004
0.0013727229 0.042357009 0.0050000004
0.01201714 0.0046117622 0.020000001
0.0061898651 0.025302989 0
0.059664208 0.030696049 0.0050000004
0.055466048 0.0050000004 0.010322239
0.0698599 0.056076486 0
0.007958658 0.00054177642 0.016074384
0.0048419307 0.0060214992 0.0050000004
0.05786524 0.0050000004 0.019714834
0.026728151 0.041151673 0.0050000004
0.061144743 0 0.011555817
0.068052173 0.02628962 0
0.0080908304 0.00087059994 0
0.020594485 0.0029666121 0.020000001
0.029524878 0.020532917 0
0.061474293 0.014957375 0.0050000004
0.05023703 0.023583343 0.0050000004
0.022069193 0.036764298 0.0050000004
0.067978166 0.023528907 0.0050000004
0.039230578 0.0050000004 0.015624885
0.050299648 0.026630517 0.0050000004
0.040029731 0.060000002 0.0023444786
0.010390302 0 0.019405195
0 0.043203548 0.0026580181
0.026143875 0.045153268 0.0015873181
0.027802385 0.059664354 0
0.0052211625 0.037692796 0
0.025387719 0.037547968 0
0.019468121 0.010180634 0.0050000004
0.030776689 0.052643973 0
0.057638101 0.021706624 0.0050000004
0.06798175 0.058632087 0.0050000004
0.04676855 0.038794685 0.0050000004
0.026143897 0.045153253 0.0041942671
0.018545875 0.0050000004 0.016679233
0.059532881 0.00093998306 0
0.025092499 0.017233981 0.0050000004
0.062683754 0.0050000004 0.0093260743
0.013483698 0.00075439696 0.020000001
0.012824897 0.0087334653 0.0050000004
0.051004358 0.040175647 0
0.049010184 0.019388653 0
0.018894048 0.0033839087 0
0.00021641368 0.012210822 0
0.01777263 0.017003899 0.0050000004
0.051870175 0.0068226275 0.0050000004
0.051397249 0.049256504 0.0050000004
0.038905077 0.060000002 0.0025488089
0.045714494 0.0299179 0.0050000004
0.0083488841 0.02879717 0.0050000004
0.030383715 0.033926576 0
0.054221001 0.025957983 0
0.022370713 0.027195686 0.0050000004
0.045083888 0.016610729 0
0.052230857 0.012923432 0
0.0053393547 0.056496974 0
0.067524858 0.059154477 0.0050000004
0.050776582 0.044859264 0
0.011468348 0.030777369 0
0.052153278 0.0050000004 0.015125823
0.049987901 0.0060971039 0
0.042856708 0.01787198 0.0030851022
0.040146954 0.019401198 0.0050000008
0.044558395 0.01917218 0.0007255915
0.037181724 0.05470353 0
0.0026131864 0 0.012960503
0.017972345 0.0437782 0.0050000004
0.037473384 0.045428637 0.0019195571
0.047794525 0.050407588 0.0050000004
0.065647632 0.0041540824 0.013491492
0 0.0043706922 0.0095385211
0.0052297679 0.050758306 0
0.066193424 0.020260686 0
0.069144681 0.056124453 0.0050000004
0.033135679 0.0087302029 0
0.07 0.033833176 0.0014016978
0.025607778 0.025678484 0.0050000004
0.05610875 0.001058717 0
0.013136334 0.0073620626 0
0.031128991 0.021325782 0.0050000004
0.026603946 0.044855781 0.0013493123
0.0075681098 0.0075540459 0.0050000004
0.025217526 0.034319732 0
0.04853303 0 0.0091265878
0.057934083 0 0.011102723
0.069932185 0.01484991 0.0050000004
0.039370265 0 0.012362382
0.066578753 0.020743139 0.0050000004
0.05454253 0.0050000004 0.0078499708
0.059828196 0.03715191 0.0050000004
0 0.00059051398 0.0019885194
0.047351215 0.052352164 0.0050000004
0.063400358 0.025488274 0.0050000004
0.037884552 0.017423715 0
0.018270791 0.040247839 0.0050000004
0.0029262358 0.042821534 0.0050000004
0.0031922827 0.049010247 0.0050000004
0.041064341 0.019661207 0.0031948248
0.054779138 0.026961161 0
0.021157131 0.032646917 0.00018656044
0.050654583 0.041075356 0.0050000004
0.021778269 0.0050429921 0.0050000004
0.0062818285 0.0064393594 0
0.063447647 0.042483963 0.0050000004
0.023331858 0.051562816 0.0050000004
0.020643964 0.022190832 0.0050000004
0.061820682 0 0.012006872
0.036495283 0.0050000004 0.018314339
0.049945481 0.038860083 0
0.024332106 0.019837186 0.0050000004
0.064230822 0.018927675 0
0.064981982 0.0050000004 0.019310189
0.066581003 0.0050000004 0.019082937
0.065999135 0.0033317306 0.015997278
0.062172174 0.056250706 0.0050000004
0.054701917 0.060000002 0.0012943685
0.05185958 0.039354131 0
0.002171003 0.030890251 0
0.030848565 0.053803127 0.0050000004
0.068103634 0.046959821 0.0050000004
0.05748729 0.051394038 0.0050000004
0.044469576 0.018458109 0
0.06823729 0.014055582 0.0050000004
0.032099742 0 0.010257928
0.059819303 0.012494331 0.0050000004
0.02037327 0 0.0015371235
0.027649829 0.0022792094 0.020000001
0.023125704 0.0050000004 0.0065658991
0.027085882 0 0.012690287
0.067825004 0.056384835 0.0050000004
0.061634064 0.040253185 0
0.066274494 0.043604299 0
0.0080626775 0.016115021 0
0.032939952 0.034373246 0.0017645501
0.022428924 0.020915981 0.0050000004
0.004855419 0.049157109 0
0.025579326 0.046535075 0.0034619581
0.024568304 0.0090412423 0
0.05895482 0.05188619 0.0050000004
0.016319565 0.0078632738 0.0050000004
0.06640204 0.060000002 0.0048218486
0.0052805836 0.040892988 0.0050000004
0.020366754 0.040842112 0.0050000004
0.031205514 0.059651215 0.0050000004
0.058645397 0.0050000004 0.018236876
0.023476286 0.035913542 0.0050000004
0.035101555 0.0050000004 0.0086737843
0.065873891 0.04862247 0
0.012469145 0.039634001 0
0.00079532445 0.041216344 0
0.060294319 0 0.015299899
0.048983481 0 0.0065396642
0.066961676 0.040094327 0.0050000004
0.04303683 0.023276363 0.0050000004
0.0099069336 0.032431278 0.0050000004
0.056899417 0.052435443 0
0.0021395674 0.051913761 0.0050000004
0.022506183 0.039568331 0
0.065293044 0.0018841076 0.013178498
0.029564027 0.057868861 0.0050000004
0.013108754 0.048818376 0.0050000004
0.033292558 0.0050000004 0.019022256
0.001741033 0.059096485 0.0010818682
0.066648915 0.032552805 0.0050000004
0.004101316 0.015408047 0.0050000004
0.016205389 0.058343839 0
0.027863996 0 0.015152924
0 0.018926533 0.0037110297
0.059121285 0.0080765896 0
0.0015773567 0.053971201 0
0.017338999 0.0028307855 0
0.00095241325 0.022312257 0.0050000004
0.064563945 0.012929816 0
0.007443598 0.0055397712 0
0.067918874 0.0050000004 0.0073508504
0.055526838 0 0.0020599186
0.044517435 0.022446835 0.0050000004
0.033490028 0.045762338 0.0010023224
0.0034583076 0.0050000004 0.0057700207
0.063625485 0.0050000004 0.0060467664
0.037076745 0.049203113 0
0.054973722 0.022354698 0
0.069435179 0.014106353 0
0.06691847 0.0050240704 0
0.038803574 0.0029994603 0
0.036662474 0.012035721 0.0050000004
0.064104222 0.047179043 0.0050000004
0.02868369 0.020440495 0.00062935537
0.0097564505 0.039367065 0
0.057326458 0.045079671 0
0.016984399 0.00051470136 0
0.0017979465 0.0085017588 0
0.061766408 0.0010410097 0.015021718
0.044001032 0.04026445 0
0.03861833 0.044751916 0.0044912673
0.018937483 0.0271808 0.0050000004
0.021628214 0.0050000004 0.012698124
0.053302512 0.0037482621 0.020000001
0.0069511221 0.044890765 0.0050000004
0.0066286181 0.025938049 0
0.025170268 0.054629289 0.0050000004
0.020275604 0.034498848 0.0019149694
0.013373507 0 0.016024018
0.039280228 0.060000002 0.0019101471
0 0.023095967 0.002325349
0.059356142 0 0.011247661
0.019077221 0.0050000004 0.014418784
0.061332446 0.054610193 0.0050000004
0.031991385 0.032122213 0.0050000004
0.06431891 0.046208192 0.0050000004
0.067888573 0.011605965 0
0.042114042 0.0050000004 0.007378377
0.031274915 0.012063074 0
0.0033421228 0.033900812 0
0.061725214 0.025471313 0
0.03514928 0 0.010222802
0.06116147 0.0050000004 0.0064126127
0.029322598 0.0044851024 0
0.036221966 0.0033738383 0.020000001
0.027049875 0.051174261 0.0050000004
0.0050006546 0.0050000004 0.019511815
0.054372136 0.036374252 0.0050000004
0.031836007 0.02110518 0
0.059702117 0.034087859 0
0.03615617 0.0077915038 0.0050000004
0.016769418 0.035537791 0
0.068884231 0.04160786 0.0050000004
0.027531287 0.0050000004 0.0069261761
0.025880918 0.045448896 0.0034357749
0.017007627 0.03078993 0
0.012495543 0.0031078914 0.020000001
0.011610396 0.018983897 0.0050000004
0.042758774 0.057278872 0
0.0074195042 0.03829981 0
0.044794481 0.034618031 0.0050000004
0.0017838696 0.027540581 0
0.040453307 0.037582308 0.003375194
0 0.013413404 0.0027725566
0.055925637 0.026167572 0
0.046931718 0.0050000004 0.012928092
0.069948122 0.026211595 0
0.028005155 0.026920823 0.0050000004
0.035076227 0 0.014646501
0.06849023 0.046447143 0
0.032554574 0.031588644 0.0050000004
0.007707641 0.03331463 0.0050000004
0.025456026 0.0050000004 0.014927884
0.036988132 0.045644488 0.0020950825
0.011447602 0.048891176 0.0050000004
0.04136502 0.058054369 0.0050000004
0.0039928835 0.028630842 0.0050000004
0.0074446453 0.0066130627 0
0.00046904446 0.0024111602 0.020000001
0.032038197 0.024304269 0
0.017784709 0.0087683517 0.0050000004
0.061712284 0.0050000004 0.0088726496
0.052961536 0.0066535305 0.0050000004
0.0051806518 0 0.0038248228
0.03986989 0.020081256 0
0.051921625 0.033894219 0.0015784593
0.0081310943 0.0050000004 0.01285252
0.045729872 0.020854801 0
0.05967585 0 0.013352083
0.054227456 0.0093043037 0.0050000004
0.064787954 0.0050000004 0.0072364789
0.014192191 0.018874265 0.0050000004
0.062895104 0.020591564 0.0050000004
0.068147764 0.019950582 0
0.045867521 0.027170064 0
0.041175816 0.020196589 0.0022142902
0.0011278442 0 0.017684814
0.039345767 0.002982503 0.020000001
0.024366865 0 0.012601866
0.049720358 0 4.4893441e-05
0.061716113 0.026389638 0
0.056951471 0.059624299 0
0.00028535648 0.0050000004 0.011856566
0.03635915 0.023848234 0
0.069181696 0 0.013059825
0.063535929 0.0050047161 0.0050000004
0.058257494 0.060000002 0.00019006373
0.049852666 0.056900751 0
0.067398019 0.034619134 0
0.033233017 0.045698993 0.00046158029
0.029657239 0.037290838 0.0041682199
0.050805651 0.055761196 0.0050000004
0.032206215 0.02155702 0.0050000004
0.027651373 0.013668952 0.0050000004
0.050225895 0.046421498 0
0.042139042 0.001306139 0.020000001
0.07 0.0055398638 0.0029246167
0.067729667 0 0.0098421173
0.020418011 0.053449679 0
0.037602518 0.055563089 0.0050000004
0.0054977606 0.03287483 0.0050000004
0.02375146 0.04577003 0.0050000004
0.047662601 0.049718574 0.0050000004
0.016597187 0 0.013881219
0.025257358 0.0050000004 0.015721859
0.062329106 0.0354435 0
0.042577066 0.058763932 0.0050000004
0.0084095318 0.049944375 0
0.051366281 0.041984797 0
0.00029681274 0.0059371912 0
0.021870831 0.0050000004 0.0081724226
0.024119431 0.056945108 0
0.057702988 0 0.013864765
0.046922442 0.016112221 0.0050000004
0.061152238 0.0074378769 0
0.013995694 0.0039342386 0.020000001
0.053546324 0.046484523 0
0.016577724 0.021668701 0.0050000004
0.019772924 0.0015134583 0.020000001
0.034887884 0.050591972 0.0050000004
0 0.0015121049 0.0090274494
0.023115041 0.0036112394 0
0.048740953 0.0013472214 0.020000001
0.057146508 0.02130832 0
0.065829456 0.052397791 0.0050000004
0.007311536 0.018436125 0.0050000004
0.048872046 0.0050000004 0.012402681
0.067243375 0.059957042 6.8637648e-19
0 0.037023798 0.0033587052
0.06145326 0.0050000004 0.010849843
0.036226004 0.0050000004 0.0097710518
0.049481474 0.0089711044 0
0.0068492186 0.049198255 0
0.067363635 0.036925007 0.0050000004
0.058189802 0 0.010023789
0.042707112 0.0050000004 0.016184002
0.021956412 0.013668621 0
0.045409825 0.0021596889 0.020000001
0.066168658 0.0031172072 0.020000001
0.041788526 0.045008108 0.00026069809
0.048224766 0.036647089 0.0050000004
1.8933579e-05 0.0003528021 0
0.044123206 0.014690057 0
0.011697203 0.05237627 0
0.020534173 0.0050000004 0.013932418
0.040955726 0.0080785872 0.0050000004
0.041906841 0.03579082 0
0.069436908 0.0021380687 0.020000001
0.029938934 0.059328958 0
0.0050293719 0.048941609 0
0.05257092 0.014796964 0
0.011103234 0 0.0051867799
0.062851131 0.012885747 0
0.039356377 0.029999418 0.0050000004
0.037095971 0 0.015032008
0.027654881 0.012471207 0
0.012166343 0.0050000004 0.01694119
0.025605844 0.046076339 0.0043951329
0.026280807 0.020973081 0.0033511447
0.0032977175 0.050176542 0.0050000004
0.061222449 0.052654285 0.0050000004
0.044158265 0.011883565 0
0.0080333585 0.017780121 0
0.030511675 0 0.019486053
0.050940108 0.060000002 0.0020098148
0.028035657 0.044913583 0.0019153141
0.025083847 0.0050000004 0.007084501
0.041777134 0.040079389 0.0050000004
0.01361128 0.050385684 0.0050000004
0.025899077 0.017185125 0
0.032351047 0 0.001226388
0.015642747 0.051109806 0
0.057866372 0.060000002 0.0026860586
0.047964279 0.058026165 0
0.066979207 0.0050000004 0.0052989824
0.0053694174 0.032097545 0.0050000004
0.053398836 0.013104446 0
0.019446956 0.018791802 0.0050000004
0.011073898 0.04098253 0.0050000004
0.0084673064 0.035183001 0.0050000004
0.058785435 0.041204989 0.0050000004
0.026529662 0.0050000004 0.0085938219
0.02050768 0.043111611 0
0.064045675 0.053997811 0.0050000004
0.067145035 0.0049999999 0.0061840513
0.0043885503 0.033209193 0.0050000004
0.013897063 0.045125324 0
0.064114772 0 0.0040451856
0.02791252 0.0050000004 0.014951834
0.0052670357 0.059106302 0.0050000004
0.035175689 0.0096283155 0.0050000004
0.035417769 0.005374853 0.0050000004
0.055820934 0.013167711 0
0.014723022 0.02730641 0.0050000004
0.0084689697 0.028470811 0.0050000004
0.059092574 0.022132408 0.0050000004
0.021555191 0 0.0020021484
0.0014407912 0.038276531 0.0050000004
0.033889841 0.0050000004 0.010328687
0.031776972 0.0094041135 0.0050000004
0.0010496936 0.0068132742 0.0050000004
0.015327346 0.046817522 0
0.022814285 0 0.0058831931
0.0019748898 0.0050000004 0.010152991
0.0013750539 0.02175539 0.0050000004
0.0010912168 0.010473084 0
0.003165425 0.0037030494 0
0.042347383 0.044762637 0.0014061236
0.064573154 0.03450175 0.0050000004
0.066321328 0.054300513 0
0.039795164 0.0050000004 0.019923246
0 0.0406712 0.0034489152
0.062093761 0.013473229 0
0.055776183 0.0050000004 0.0068760971
0.062516853 0.055514507 0
0.033865616 0.0028902546 0
0.059787739 0.053252991 0.0050000004
0.00080780266 0.019800674 0
0.002345884 0.0050000004 0.017572153
0.06471239 0.050543819 0
0.037741233 0.054013334 0
0.013822801 0.0046458445 0
0.049823999 0.0050000004 0.013384481
0.053820956 0.0050000004 0.0095800562
0.022060419 0.0050000004 0.012676326
0.020915573 0.034582287 0
0 0.040530279 0.0024510771
0.02554214 0.019624695 0.0028247973
0.051150911 0.020745179 0.0050000004
0.046599336 0 0.0023595924
0.027498435 0.022356834 0
0.0079142852 0.0037001779 0.013841075
0.012054822 0.0050000004 0.019321915
0.021091979 0.021895157 0
0.067063592 0.059979659 0.0038002487
0.036161125 0.029336136 0
0.010197661 0 0.014651774
0.016327206 0.057255056 0
0.053800635 0.0050000004 0.019637344
0.029564992 0.037534073 0.0017864147
0.066841759 0.056201752 0
0.066443376 0.049586408 0
0.028350608 0.059243321 0.0049999999
0.07 0.00019093331 0.013031903
0.014987291 0.01489407 0.0050000004
0.023391932 0.0050000004 0.019523351
0.041365433 0.036783319 0
0.011399561 0.054385241 0
0.05926571 0.0050000004 0.0063191457
0.058229815 0 0.017462334
0.035057176 0.0050000004 0.0064052246
0.0113655 0.039892871 0.0050000004
0.066674598 0.046140611 0.0050000004
0.039180782 0.021083022 0.0050000004
0.063631728 0.055900577 0.0050000004
0.059060931 0.024198225 0
0.036579642 0.027577745 0.0050000004
0.035951175 0 0.014754174
0.045790449 0.046820235 0
0.040538222 0.018984292 0
0.040280815 0.050420906 0.0050000004
0.0068158228 0 0.004876304
0.055739738 0 0.012784698
0.019929338 0.0060438835 0
0.056528468 0.034729104 0
0.04934543 0.0024672968 0.020000001
0.025382359 0.025429646 0.0050000004
0.066409886 0.008465087 0.0050000004
0.069698125 0.046098962 0.0050000004
0.021063332 0.042763039 0.0050000004
0.035856221 0.00039559128 0.020000001
0.037981026 0.024869634 0
0.025381258 0.011382069 0
0.0052019823 0.012373049 0
0.0072065014 0 0.0065837805
0.026919501 0.059219703 0
0.022557789 0.031457689 0.0050000004
0.021332031 0.0078138737 0
0.027195262 0.022159243 0
0.033668179 0.015583497 0
0.046653926 0 0.00012495508
0.015321717 0.0067064427 0.0050000004
0.062127315 0.012095678 0
0.013304551 0.026002251 0.0050000004
0.065908149 0.059999999 0.0047770808
0.030920858 0.058827076 0
0.042671006 0.016864629 0.0049999999
0.0029174055 0.035992075 0.0050000004
0.010213589 0.01601737 0.0050000004
0.020608051 0.0066109621 0.0050000004
0.060382403 0.032124195 0.0050000004
0.06679561 0.051872 0.0050000004
0.020438524 0.026852146 0.0050000004
0.063851111 0.0056938031 0
0.07 0.0097506139 0.0049890396
0.034359276 0.0046329009 0.020000001
0.051043123 0.028216332 0
0.0022587674 0.022802979 0
0.018593322 0.018437237 0.0050000004
0.0037522614 0.0050000004 0.012629854
0.0082231015 0.0077668023 0.0050000004
0.07 0.027911052 0.0028817619
0.0076156245 0.0045758113 0.020000003
0 0.020379288 0.0037537371
0.014954812 0.0050000004 0.010185373
0.035740498 0.05077048 0.0050000004
0 0.0013515216 0.0045775399
0.07 0.01466133 0.0045377836
0.0055198055 0.02274986 0
0.07 0.054653067 0.00025605556
0.065435223 0.03339678 0
0.0083111022 0.024375208 0
0.042284038 0.030448437 0
0.057802878 0.03268991 0
0.061045989 0 0.01939632
0.035183817 0.053647719 0.0050000004
0.025907949 0.033630997 0.0050000004
0.04533948 0.011229139 0
0.061165463 0.028199159 0
0.0096091768 0.0050000004 0.019080861
0.010438907 0.018410278 0.0050000004
0.049377412 0.001841431 0.020000001
0.067776784 0.024501797 0.0050000004
0.013179104 0.027644796 0
0.034000937 0.017999481 0.0050000004
0.016536549 0.047835894 0.0050000004
0.024055 0.010225264 0.0050000004
0.011843444 0 0.018163279
0.062259924 0.015928058 0
0.018513182 0.0050000004 0.019081505
0.050752729 0.060000002 0.0037701547
0.023806065 0.026984824 0.0050000004
0.00031212668 0.057219636 0.00052667916
0.07 0.039694991 0.0019174344
0.014217877 0.0050000004 0.007778862
0.0065083336 0.034252293 0.0050000004
0.046187554 0.0050000004 0.0088067269
0.034426302 0.0024582481 0
0.037084762 0.034379341 0.00089174387
0.0094207441 0 0.010580381
0.040695552 0.041778956 0.0043716831
0.015515239 0.0046259617 0
0.01891173 0.015086669 0
0.04218572 0.059409834 0
0.0055297529 0.015151161 0
0.0022790169 0.01736033 0.0050000004
0.011915011 0.022189656 0
0.011531944 0.028895628 0.0050000004
0.010462125 0.0072875074 0
0.054871216 0 0.015447477
0.07 0.0030420504 0.018085543
0.029493831 0.012363802 0
0.02428261 0.03023576 0
0.063799225 0.012383642 0
0.046494078 0.05883906 0
0.004934222 0.050441157 0
0.059518069 0.036182001 0
0.040311988 0.047173239 0
0.053849295 0 0.014583549
0.053310137 0.042846601 0.0050000004
0.047352098 0 0.0077054822
0.062294602 0.002644669 0.013556704
0.04880482 0.032943394 0.0046975003
0.028374642 0 0.00026826217
0.04544159 0 0.0097552836
0.02166874 0.02631416 0
0.014879351 0.0017601588 0.020000001
0.021701729 0.0098434929 0
0.066840798 0.04136489 0
0.012113435 0.010394842 0
0.042218674 0.058454104 0.0050000004
0.019377295 0.047776196 0
0.046502836 0.018321048 0.0050000004
0.0044249212 0.048278514 0
0.032566827 0.019267779 0
0.0023036029 0.0050000004 0.0060273013
0.066024177 0.0038357452 0.014050445
0.060115099 0.044798147 0
0.068352044 0.0050000004 0.017992696
0.02043316 0 0.0029254153
0 0.024466515 0.0033227974
0.0041260524 0.047588348 0
0.063568823 0.039379634 0
0.043889593 0.058347039 0
0.047618225 0.020490199 0.0050000004
0.063806452 0.04644008 0
0.010975419 0.0016121088 0
0.005629498 0.0047121197 0
0.055278882 0.03404424 0.0050000004
0.052537661 0.0050000004 0.0083050216
0.028337702 0.032286528 0
0.012562905 0.0045089973 0.020000001
0.0086864168 0.039702948 0
0.023851931 0.060000002 0.0049255737
0.015533539 0.01066421 0.0050000004
0.015351624 0.058400903 0.0050000004
0.027024817 0.043543939 0.0050000004
0.060681805 0.052615941 0.0050000004
0.017351316 0.0070054848 0.0050000004
0.0071551441 0.030725153 0.0050000004
0 0.049390804 0.0012516222
0.015759027 0.040568091 0
0.010051164 0.035024598 0
0.02967496 0.031424459 0.0050000004
0.047085304 0.0050000004 0.014445744
0.052342042 0.011227473 0.0050000004
0.055827893 0.02770609 0.0050000004
0.052692316 0.045974895 0.0050000004
0.068676822 0.054517888 0.0050000004
0.03312099 0.0091379723 0.0050000004
0.030037809 0 0.0023169015
0.0099018598 0.020597888 0
0.066037618 0 0.0099561429
0.061810199 0.048507754 0.0050000004
0.039115317 0.0010785405 0
0.040934816 0.054958392 0.0050000004
0.021068206 0.0050000004 0.017248999
0.036821816 0 0.0026505389
0.044877566 0.01214318 0
0.04958022 0.060000002 0.0020596634
0.061212264 0 0.018897299
0.066366889 0.028530717 0
0.00016387089 0.04084222 0
0 0.0046773804 0.015565
0.05884264 0.039611146 0.0050000004
0.0073106796 0.050762966 0
0.042615335 0.0050000004 0.017245239
0.063863009 0.0098079182 0.0050000004
0.044091869 0.0050000004 0.013020617
0.046007335 0.025295682 0
0.0259507 0.0020218662 0.020000001
0.016622081 0.042955905 0
0.041302778 0.045078564 0.0050000004
0.043476984 0.040319696 0.0050000004
0.048540525 0.0050000004 0.0069715339
0 0.0034793555 0.018975899
0.069180295 0.01822263 0
0.055681918 0.018903332 0.0050000004
0.034077767 0.010092498 0
0.06124058 0.040097747 0
0.048148293 0.057517588 0.0050000004
0.063749142 0.044871438 0.0050000004
0.04792713 0.036443498 0
0.041985996 0.0084497081 0
0.067273632 0.054437518 0.0050000004
0.03792261 0.024752116 0
0.045404948 0.01908152 0
0.024836512 0.0050000004 0.013170634
0.056738701 0.0019524667 0
0.043406188 0 0.0056333649
0.020393418 0.0098749716 0
0.01445859 0.050948177 0.0050000004
0.046838339 0.001955067 0.020000001
0.017212169 0.0050000004 0.0099994186
0.019270768 0.011357401 0
0.026593164 0.028557535 0.0050000004
0.032939784 0.0038574412 0
0.04217045 0 0.014750711
0.061521616 0.00076080445 0.020000001
0.016446697 0.039171431 0
0.012783938 0.013497159 0.0050000004
0.015516601 0.042330522 0
0.024687985 0.0049999999 0.0053411392
0.049380157 0.043882884 0
0.038800981 0 0.013084237
0.0090935556 0.044981029 0.0050000004
0.037405528 0.059319455 0
0.07 0.0038443676 0.011887051
0.019758254 0 0.013751906
0.048866879 0.0050000004 0.0075885956
0.067099012 0.022189897 0.0050000004
0.054804981 0.020352485 0
0.038478814 0.0050000004 0.012189477
0.07 0.020144479 0.0037547133
0.053011063 0.047003943 0.0050000004
0.035481036 0.018376114 0.0050000004
0.014904419 0.044333816 0
0.0077555506 0.020886041 0
0.047343697 0.055359885 0.0050000004
0.068084836 0.00010413468 0.020000001
0.042704385 0.0050000004 0.010450716
0.050114706 0.047049344 0.0050000004
0.0012330523 0 0.011332339
0.021877488 0.040102854 0.0050000004
0.021299088 0.053867567 0.0050000004
0.042058393 0 0.015527419
0.0029167391 0.032394018 0
0.018774504 0.051010177 0.0050000004
0.057088815 0.021197738 0.0050000004
0.019967292 0.060000002 0.0041186865
0.049230658 0.0014234165 0
0.067340888 0.00176432 0.020000001
0.027522113 0 0.01686289
0.047766522 0.031232685 0.0050000004
0.0072377445 0.025978142 0.0050000004
0.040390633 0.036143046 0
0.07 0.012551414 0.0027668136
0.016741944 0.035060339 0
0.031106368 0.048802983 0.0050000004
0.053489227 0.010297179 0.0050000004
0.038742002 0.017866654 0
0.040526528 0.0098658074 0.0050000004
0.028893694 0.019225698 0.0025506392
0.0092234956 0.0050000004 0.011149778
0.062828958 0.0031656816 0.01690571
0.0031060523 0 0.019175524
0 0.024331268 0.0019556452
0.00064442871 0.03620505 0
0.0063801105 0.048314679 0
0.0022988543 0.037477139 0
0.037616406 0.02354593 0
0.030949533 0.024665285 0
0.015027612 0.044043336 0.0050000004
0.015300046 0.02161858 0.0050000004
0.026591768 0.024465689 0
0.02552768 0.029636823 0.0050000004
0.039030306 0.054533474 0.0050000004
0.052176241 0.0050306786 0
0.05053924 0.060000002 0.0038365801
0.016056119 0.0031800016 0
0.030417506 0.045799419 0.0050000004
0.060831569 0.025909845 0
0.05435117 0.060000002 0.00016183198
0.044610702 0 0.0085483277
0.04523151 0.014280423 0.0050000004
0.032363601 0.0081207221 0
0.0096552437 0.0050000004 0.014220804
0.01633082 0.022356117 0.0050000004
0.037275422 0.050728351 0.0050000004
0.020364981 0 0.0098473588
0.07 0.0027447767 0.014226105
0.0064192316 0.060000002 0.0011708644
0.0024603878 0.054331668 0
0.069073513 0.03927388 0
0.043431994 0.053760681 0.0050000004
0.018981282 0.0050000004 0.015470972
0.043971602 0.020944184 0.0024751304
0.029282242 0.011794711 0.0050000004
0.047426887 0 0.00020502019
0.041621368 0.0263169 0
0.07 0.028206429 0.0018515462
0.068445727 0.017278936 0.0050000004
0.010732611 0.0088337352 0.0050000004
0.018978463 0.016683193 0.0050000004
0.019392034 0.0049999999 0.0053939126
0.026332643 0.041680939 0.0050000004
0.054009825 0 0.019431567
0.0396231 0.032124143 0
0.051807895 0.028662577 0.0050000004
0.0045842454 0.04620504 0.0050000004
0.039517712 0.016450861 0.0050000004
0.022730967 0.0050000004 0.0095338235
0.05072495 0.058431718 0.0050000004
0.044421528 0.024094174 0.0050000004
0.058419421 0.052474547 0
0.062030941 3.6563459e-05 0
0.021963401 0 0.0094965901
0.02395591 0.021329219 0
0.045965362 0 0.011816246
0.043877382 0.048818883 0
0.026450559 0.021966638 0
0.055795029 0.039429378 0
0.030606292 0 0.019703465
0.056923334 0.009456642 0
0.02574379 0.036103144 0.0050000004
0.0060972311 0.019863112 0.0050000004
0.017385915 0.056958921 0.0050000004
0.05194854 0.03385523 0.0033847806
0.067830905 0.017224107 0
0.0055019716 0.058407452 0
0.021733897 0 0.00061464711
0.043383881 0.002303709 0.020000001
0.051876664 0.0098565882 0
0 0.041056965 0.002704575
0.03312837 0 0.014419861
0.037722241 0.024229659 0
0.046536885 0.052518878 0.0050000004
0.060866795 0 0.0053865663
0.068024725 0.054184787 0
0.018202715 0 0.011335538
0.063781105 0.059084982 0.0050000004
0.036692243 0.0050000004 0.0099120708
0.053255353 0.014459224 0
0.069898032 0.03906256 0
0.046790503 0.039872747 0.0050000004
0.054142494 0.0087865703 0.0050000004
0.010873486 0.036418982 0
0.061507288 0.024374733 0.0050000004
0.066470087 0 0.0060414714
0.021309186 0.024860578 0
0.066022523 0.029694311 0
0.01268399 0.018180884 0.0050000004
0.015162288 0.044603307 0
0.042126942 0.0050000004 0.010061222
0.05139206 0.019113479 0
0.060291655 0.053679857 0.0050000004
0.037427548 0 0.013460067
0.054233249 0.048565723 0.0050000004
0.014763177 0.048553806 0
0.042488053 0.033028476 0.0049999999
0.01962468 0 0.0074781589
0.060975213 0.0081869988 0.0050000004
0 0.037993211 0.00097507529
0.06231771 0.0055921311 0
0.034006272 5.3164367e-06 0.020000001
0.048670404 0.058533918 0
0.07 0.00014115607 0.014005418
0.051361583 0.050321378 0
0.02054375 0.031670067 0.00042663538
0.051189058 0.047175288 0.0050000004
0.017209642 0.04089364 0.0050000004
0.018929182 0.031402584 6.8884765e-05
0.015501391 0.034058206 0.0050000004
0.0062478241 0.014561204 0
0.025606222 0.019104421 0.00012360084
0.050136842 0.0022758935 0.020000001
0.0067086462 0.047545817 0
0.038767852 0 0.00070242275
0.047887877 0.060000002 0.00062146579
0.0083508091 0.021750171 0
0.031470601 0.034070686 0
0.014057396 0.018024808 0
0.056097973 0 0.01995297
0.05666041 0.0035284364 0.020000001
0.047846477 0.0050000004 0.016075399
0.066704661 0.031937178 0.0050000004
0.014454677 0.012829897 0
0.011485148 0.017143387 0
0.0066352296 0.0038125762 0
0.06054467 0.060000002 0.0037271068
0.027954657 0.016140297 0
0.0052035451 0.043944966 0.0050000004
0.06549529 0.0038232829 0.020000001
0.023319077 0.020645602 0
0.010768577 0.010855584 0.0050000004
0.035757031 0.0050000004 0.013645814
0.017624665 0.031923849 0.0050000004
0.033290796 0.026230376 0
0.0054546632 0.012660788 0.0050000004
0.025726086 0.045712862 0.00080423628
0.035130348 0.032154858 0.0050000004
0.047693703 0 0.00067627645
0.026250448 0.0050000004 0.0056599476
0.041948367 0.033686772 0.0050000004
0.022459462 0.001169267 0
0.054473795 0.039059058 0.0050000004
0.058882106 0.036624569 0
0.020783421 0.010931204 0
0.0037095211 0.0080895135 0.0050000004
0.031001573 0.044460636 0.0050000004
0.0014124591 0.00043550981 0
0.059860766 0.044966616 0
0.011521035 0.0029718254 0
0.059006624 0.010429957 0.0050000004
0.010402201 0.016041884 0.0050000004
0.028129909 0.047970768 0
0.048432253 0.024076927 0
0.038129795 0.0069183824 0
0.062105786 0 0.0057314495
0.0071439231 0.055561505 0
0.029867331 0.043049213 0.0026354238
0.040780399 0.03844478 0.002496111
0.0015236982 0.039875545 0.0050000004
0.036802102 0.010508122 0.0050000004
0.07 4.1627874e-05 0.0012805257
0.05443339 0.012451236 0
0.012743568 0.049688298 0
0.057305489 0.016245816 0
0.061619133 0.032271396 0.0050000004
0.021472326 0 0.006601878
0.060197476 0.032983746 0.0050000004
0.062385011 0.052313235 0
0.015996134 0.0050000004 0.019056153
0.036521167 0.034240428 0.00087304885
0.032544736 0.006842616 0.0050000004
0.015989857 0.0054784175 0
0.056522053 0.054598898 0
0.014044187 0.060000002 0.0011583389
0.040729456 0.0042981086 0.020000001
0.023544326 0.028680088 0
0.054894436 0 0.013980642
0.069770031 0.053736892 0
0.058143467 0.056883637 0
0.060906515 0.012200196 0.0050000004
0.030543193 0.059563618 0
0.015369685 0.044063866 0
0.056602761 0 0.00075003697
0.0580034 0.028265107 0
0.017992888 0 0.011014729
0.023369301 0.0093580317 0
0.04875084 0.044340733 0
0.01871011 0.043317031 0.0050000004
0.067131422 0.0050000004 0.016626168
0.052990798 0.0047565512 0.020000001
0.057108436 0.048096996 0.0050000004
0.04201939 0.05365916 0.0050000004
0.052247789 0.044127788 0
0.036323193 0.023031848 0
0.047259744 0 0.010863797
0.0077630216 0.0050000004 0.017460527
0.058077287 0.0050000004 0.0051240893
0.011026231 0.013736157 0.0050000004
0.010695836 0.0065837419 0
0.059832126 0.043028574 0.0050000004
0 0.0032213097 0.0042469581
0.065470912 0.02208595 0
0.066901378 0.0024596006 0
0.055285413 0.0050000004 0.016216138
0.019105248 0.030518839 0.0050000004
0.067927085 0.014269693 0
0.065052249 0.016399238 0
0.045183409 0.053655181 0
0.051713824 0.055586901 0.0050000004
0.049954005 0.04457105 0.0050000004
0.051287886 0.049332742 0.0050000004
0.027331082 0 0.017732954
0.050415736 0.041411966 0.0050000004
0.054363627 0.043613892 0.0050000004
