# .PCD v0.7 - Point Cloud Data file format
VERSION 0.7
FIELDS x y z
SIZE 4 4 4
TYPE F F F
COUNT 1 1 1
WIDTH 1000
HEIGHT 1
VIEWPOINT 0 0 0 1 0 0 0
POINTS 1000
DATA ascii
0.069999993 -0.0031399971 0.031154983
0 -0.0047348537 0.0038308993
0.049569316 -9.6474606e-11 0.0022070818
0.020192865 -0.0050000013 0.012280291
0.0071038269 -0.0014174026 0.060000002
0.0034189578 -0.010396703 -4.5445434e-10
0.00022667814 -1.8605736e-09 0.042564962
0.016152604 -2.4677558e-09 0.056455672
0.033521369 -7.1707701e-10 0.016404811
0.003893659 -2.1891804e-09 0.050082605
0.0099893054 -0.0050000013 0.024911979
0.035167936 -1.574139e-10 0.0036012102
0.052026898 -0.0050000008 0.015371793
0.014166328 -0.017924558 0.0049999994
0.062244508 -0.013613247 0.0016164983
0.060240261 -0.00087019638 0.060000002
0.023066686 -1.1185785e-09 0.025590092
0.053003144 -6.7862743e-10 0.015525186
0.037824787 -0.015049183 -6.5782069e-10
0.01699537 -2.1278244e-09 0.048678942
0.02774496 -9.9434361e-10 0.022747926
0.069999993 -0.0011883328 0.028494725
0.069007181 -0.00064039044 0.059157059
0.024057267 -0.0050000018 0.032668848
0.0052710851 -0.0050000004 0.0058595412
0.00052507955 -0.013358429 0.0049999999
0.03908851 -0.0050000027 0.055130459
0.053599522 -1.5293777e-09 0.034988083
0.0040034079 -0.016002104 0.00065799628
0.039920323 -0.014949257 -6.5345274e-10
0.069093063 -0.013391901 -5.8537863e-10
0.069999993 -0.00025203833 0.019280951
0.048980583 -0.0019119714 0.032230265
0.040125754 -0.019140227 -8.3664592e-10
0.066390574 -0.0024289074 -1.0617092e-10
0.013952742 -0.020000001 0.0032707273
0.054539837 -0.0050000027 0.053417306
0.050327223 -2.5884853e-10 0.0059217638
0.061531894 -1.2509331e-09 0.028618013
0.059186976 -0.0050000008 0.010406609
0.0031400262 -6.8133554e-10 0.015587139
0.063397564 -0.017387753 0.0049999994
0.02659284 -0.0050000022 0.041072849
0.030593487 -0.002288175 0.060000002
0.062541045 -0.0050000022 0.042747464
0.068429478 -0.018795744 0.0049999994
0.039551634 -2.0841968e-09 0.047680866
0.020922806 -0.011855713 -5.1822968e-10
0.060896121 -9.7079011e-10 0.022209089
0.067047603 -0.015471867 0.0049999994
0.014721165 -0.0050000031 0.059030589
0.0010071592 -1.6787254e-09 0.038404759
0.024310594 -1.0096242e-09 0.023097508
0 -0.0040746573 0.026394539
0.010163477 -3.3272385e-10 0.007611834
0.068989269 -2.116874e-09 0.048428435
0.0098225577 -0.015393658 -6.7287814e-10
0.038717426 -1.4961743e-09 0.034228478
0.063673526 -0.0050000022 0.044553094
0.028759655 -0.0010838086 0.045609858
0.050686125 -0.0028465707 0.060000002
0.043740723 -0.0050000008 0.0146066
0.0047135404 -0.0050000008 0.018903242
0.01150176 -0.0088766571 -3.8801098e-10
0.014697761 -0.0052335942 0.0050000004
0.012431191 -0.012024411 0.0049999999
0.00618712 -0.020000001 0.00053567678
0.010472118 -0.012774194 0.0049999999
0.024870522 -0.0050000018 0.031784292
0.069999993 -0.019142613 0.0046370309
0.042897053 -0.0050000027 0.056270059
0.063808851 -2.487696e-09 0.056911852
0.053267915 -4.0533094e-10 0.0092728902
0.044315688 -0.0050000027 0.056336336
0.0049131154 -0.0050000004 0.013447016
0.030624112 -0.0050000013 0.018732708
0.022828912 -0.0050000013 0.021714047
0.033163361 -0.0050000004 0.0061368248
0.067605942 -0.0050000008 0.005479217
0.057552103 -0.0050000013 0.029055659
0.034576327 -0.0050000013 0.02472071
0.054933224 -1.2196501e-10 0.0027902343
0.064148337 -0.0050000031 0.058140978
0.01427971 -0.0050000022 0.042678919
0.023472089 -1.6503993e-09 0.037756734
0.028039193 -0.0050000013 0.034919739
0.041624922 -0.0084437393 0.0050000004
0.023141313 -0.0050000022 0.037714567
0.0013727228 -0.0050000022 0.042357009
0.012017138 -0.020000001 0.0046117618
0.0061898646 -1.1060288e-09 0.025302989
0.059664208 -0.0050000013 0.030696049
0.055466045 -0.010322239 0.0050000004
0.069859892 -2.4511808e-09 0.056076486
0.007958658 -0.016074384 0.00054177572
0.0048419302 -0.0050000004 0.0060214992
0.057865232 -0.019714834 0.0049999994
0.026728148 -0.0050000022 0.041151673
0.061144739 -0.011555817 -5.0512089e-10
0.068052165 -1.1491558e-09 0.02628962
0.0080908304 -3.8055132e-11 0.00087059994
0.020594483 -0.020000001 0.0029666109
0.029524876 -8.9752245e-10 0.020532917
0.061474279 -0.0050000008 0.014957375
0.050237026 -0.0050000013 0.023583343
0.022069192 -0.0050000013 0.036764298
0.067978166 -0.0050000013 0.023528907
0.039230574 -0.015624885 0.0049999994
0.050299644 -0.0050000018 0.026630517
0.040029727 -0.0023444814 0.060000002
0.010390301 -0.019405195 -8.482281e-10
0 -0.00265802 0.043203548
0.026143871 -0.00158732 0.045153268
0.02780238 -2.6080118e-09 0.059664354
0.0052211615 -1.6476044e-09 0.037692796
0.025387716 -1.641274e-09 0.037547968
0.019468119 -0.0050000004 0.010180634
0.030776683 -2.3011411e-09 0.052643973
0.057638098 -0.0050000013 0.021706624
0.067981735 -0.0050000031 0.058632087
0.046768542 -0.0050000018 0.038794685
0.026143895 -0.0041942694 0.045153253
0.018545875 -0.016679233 0.0049999994
0.059532873 -4.1087963e-11 0.00093998306
0.025092497 -0.0050000013 0.017233981
0.062683754 -0.0093260743 0.0050000004
0.013483697 -0.020000001 0.00075439614
0.012824896 -0.0050000004 0.0087334653
0.051004354 -1.7561331e-09 0.040175647
0.04901018 -8.4750496e-10 0.019388653
0.018894047 -1.4791535e-10 0.0033839087
0.00021641365 -5.3375199e-10 0.012210822
0.017772628 -0.0050000013 0.017003899
0.051870167 -0.0050000004 0.0068226275
0.051397245 -0.0050000022 0.049256504
0.038905073 -0.0025488115 0.060000002
0.04571449 -0.0050000013 0.0299179
0.0083488831 -0.0050000013 0.02879717
0.030383714 -1.4829776e-09 0.033926576
0.054220997 -1.1346595e-09 0.025957983
0.022370713 -0.0050000013 0.027195686
0.04508388 -7.2607798e-10 0.016610729
0.05223085 -5.6490113e-10 0.012923432
0.0053393547 -2.469561e-09 0.056496974
0.06752485 -0.0050000031 0.059154477
0.050776582 -1.9608604e-09 0.044859264
0.011468347 -1.3453215e-09 0.030777369
0.052153274 -0.015125823 0.0049999994
0.049987894 -2.665129e-10 0.0060971039
0.042856704 -0.0030851027 0.01787198
0.040146954 -0.0050000013 0.019401198
0.044558391 -0.00072559231 0.01917218
0.03718172 -2.3911675e-09 0.05470353
0.0026131861 -0.012960503 -5.6652155e-10
0.017972343 -0.0050000022 0.0437782
0.037473381 -0.0019195591 0.045428637
0.047794521 -0.0050000022 0.050407588
0.065647624 -0.013491492 0.0041540815
0 -0.0095385211 0.0043706917
0.0052297674 -2.2187163e-09 0.050758306
0.066193417 -8.8562269e-10 0.020260686
0.069144674 -0.0050000027 0.056124453
0.033135675 -3.816093e-10 0.0087302029
0.069999993 -0.0014016991 0.033833176
0.025607776 -0.0050000013 0.025678484
0.056108743 -4.6277995e-11 0.001058717
0.013136332 -3.2180597e-10 0.0073620626
0.031128991 -0.0050000013 0.021325782
0.026603946 -0.0013493142 0.044855781
0.0075681088 -0.0050000008 0.0075540459
0.025217522 -1.5001629e-09 0.034319732
0.048533022 -0.0091265878 -3.9893577e-10
0.057934079 -0.011102723 -4.8531545e-10
0.069932178 -0.0050000008 0.01484991
0.039370265 -0.012362382 -5.4037685e-10
0.066578738 -0.0050000013 0.020743139
0.054542523 -0.0078499708 0.0050000004
0.059828192 -0.0050000018 0.03715191
0 -0.0019885194 0.00059051393
0.047351211 -0.0050000027 0.052352164
0.063400351 -0.0050000018 0.025488274
0.037884548 -7.6161477e-10 0.017423715
0.018270789 -0.0050000022 0.040247839
0.0029262353 -0.0050000022 0.042821534
0.0031922825 -0.0050000022 0.049010247
0.041064337 -0.0031948257 0.019661207
0.054779138 -1.1785096e-09 0.026961161
0.021157129 -0.00018656187 0.032646917
0.050654575 -0.0050000022 0.041075356
0.021778267 -0.0050000004 0.0050429921
0.006281828 -2.8147337e-10 0.0064393594
0.063447639 -0.0050000022 0.042483963
0.023331856 -0.0050000022 0.051562816
0.020643964 -0.0050000013 0.022190832
0.061820678 -0.012006872 -5.2483701e-10
0.03649528 -0.018314339 0.0049999994
0.049945474 -1.6986281e-09 0.038860083
0.024332104 -0.0050000013 0.019837186
0.064230822 -8.2735485e-10 0.018927675
0.064981975 -0.019310189 0.0049999994
0.066580988 -0.019082937 0.0049999994
0.065999128 -0.015997278 0.0033317301
0.062172167 -0.0050000022 0.056250706
0.054701906 -0.0012943712 0.060000002
0.05185958 -1.7202237e-09 0.039354131
0.0021710028 -1.3502558e-09 0.030890251
0.030848563 -0.0050000022 0.053803127
0.068103626 -0.0050000022 0.046959821
0.057487283 -0.0050000022 0.051394038
0.044469573 -8.068296e-10 0.018458109
0.068237282 -0.0050000008 0.014055582
0.032099742 -0.010257928 -4.4838827e-10
0.059819296 -0.0050000008 0.012494331
0.020373268 -0.0015371235 -6.7189802e-11
0.027649825 -0.020000001 0.0022792085
0.023125703 -0.0065658991 0.0050000004
0.02708588 -0.012690287 -5.5471006e-10
0.067824997 -0.0050000027 0.056384835
0.06163406 -1.7595224e-09 0.040253185
0.066274479 -1.9060045e-09 0.043604299
0.0080626765 -7.0440997e-10 0.016115021
0.032939948 -0.0017645514 0.034373246
0.022428922 -0.0050000013 0.020915981
0.0048554186 -2.1487254e-09 0.049157109
0.025579326 -0.0034619602 0.046535075
0.024568303 -3.9520526e-10 0.0090412423
0.058954813 -0.0050000022 0.05188619
0.016319564 -0.0050000004 0.0078632738
0.066402033 -0.0048218514 0.060000002
0.0052805827 -0.0050000022 0.040892988
0.020366753 -0.0050000022 0.040842112
0.031205511 -0.0050000031 0.059651215
0.05864539 -0.018236876 0.0049999994
0.023476284 -0.0050000022 0.035913542
0.035101548 -0.0086737843 0.0050000004
0.065873884 -2.1253554e-09 0.04862247
0.012469145 -1.7324572e-09 0.039634001
0.00079532427 -1.8016237e-09 0.041216344
0.060294315 -0.015299899 -6.6877975e-10
0.04898347 -0.0065396642 -2.8585778e-10
0.066961661 -0.0050000022 0.040094327
0.043036822 -0.0050000013 0.023276363
0.0099069336 -0.0050000018 0.032431278
0.05689941 -2.2920259e-09 0.052435443
0.0021395672 -0.0050000027 0.051913761
0.022506181 -1.7295866e-09 0.039568331
0.065293036 -0.013178498 0.0018841071
0.029564023 -0.0050000027 0.057868861
0.013108753 -0.0050000022 0.048818376
0.033292554 -0.019022256 0.0049999994
0.0017410329 -0.0010818709 0.059096485
0.066648915 -0.0050000013 0.032552805
0.0041013155 -0.0050000013 0.015408047
0.016205387 -2.5502902e-09 0.058343839
0.027863996 -0.015152924 -6.6235534e-10
0 -0.0037110306 0.018926533
0.059121281 -3.5303899e-10 0.0080765896
0.0015773566 -2.3591562e-09 0.053971201
0.017338993 -1.2373756e-10 0.0028307855
0.00095241319 -0.0050000013 0.022312257
0.064563937 -5.6518018e-10 0.012929816
0.0074435971 -2.421511e-10 0.0055397712
0.067918867 -0.0073508504 0.0050000004
0.05552683 -0.0020599186 -9.0041904e-11
0.044517431 -0.0050000013 0.022446835
0.033490028 -0.0010023243 0.045762338
0.0034583071 -0.0057700207 0.0049999999
0.063625477 -0.0060467664 0.0050000004
0.037076738 -2.1507363e-09 0.049203113
0.054973714 -9.7715491e-10 0.022354698
0.069435172 -6.1660821e-10 0.014106353
0.066918463 -2.1960909e-10 0.0050240704
0.03880357 -1.3111058e-10 0.0029994603
0.036662471 -0.0050000008 0.012035721
0.064104214 -0.0050000022 0.047179043
0.028683687 -0.00062935625 0.020440495
0.0097564496 -1.720789e-09 0.039367065
0.057326455 -1.9704951e-09 0.045079671
0.016984398 -2.2498309e-11 0.00051470136
0.0017979463 -3.716237e-10 0.0085017588
0.061766405 -0.015021718 0.0010410091
0.044001028 -1.7600151e-09 0.04026445
0.038618326 -0.0044912687 0.044751916
0.01893748 -0.0050000018 0.0271808
0.021628212 -0.012698124 0.0049999999
0.053302508 -0.020000001 0.0037482611
0.0069511211 -0.0050000022 0.044890765
0.0066286176 -1.1337882e-09 0.025938049
0.025170265 -0.0050000031 0.054629289
0.020275604 -0.0019149708 0.034498848
0.013373506 -0.016024018 -7.0043205e-10
0.039280221 -0.0019101499 0.060000002
0 -0.00232535 0.023095967
0.059356134 -0.011247661 -4.9165089e-10
0.019077219 -0.014418784 0.0049999999
0.061332438 -0.0050000027 0.054610193
0.031991377 -0.0050000018 0.032122213
0.064318903 -0.0050000022 0.046208192
0.067888565 -5.073128e-10 0.011605965
0.042114038 -0.007378377 0.0050000004
0.031274911 -5.2729371e-10 0.012063074
0.0033421221 -1.4818516e-09 0.033900812
0.061725207 -1.1133864e-09 0.025471313
0.03514928 -0.010222802 -4.4685286e-10
0.061161466 -0.0064126127 0.0050000004
0.029322594 -1.9605007e-10 0.0044851024
0.036221962 -0.020000001 0.0033738376
0.027049869 -0.0050000027 0.051174261
0.0050006546 -0.019511815 0.0049999994
0.054372128 -0.0050000018 0.036374252
0.031836003 -9.2253677e-10 0.02110518
0.059702113 -1.4900275e-09 0.034087859
0.036156166 -0.0050000004 0.0077915038
0.016769415 -1.5534061e-09 0.035537791
0.068884231 -0.0050000022 0.04160786
0.027531283 -0.0069261761 0.0050000004
0.025880918 -0.0034357768 0.045448896
0.017007627 -1.3458706e-09 0.03078993
0.012495541 -0.020000001 0.0031078905
0.011610394 -0.0050000013 0.018983897
0.042758767 -2.5037392e-09 0.057278872
0.0074195038 -1.6741379e-09 0.03829981
0.044794481 -0.0050000018 0.034618031
0.0017838693 -1.2038371e-09 0.027540581
0.040453304 -0.0033751952 0.037582308
0 -0.0027725571 0.013413404
0.055925634 -1.1438208e-09 0.026167572
0.046931714 -0.012928092 0.0049999999
0.069948114 -1.1457452e-09 0.026211595
0.028005155 -0.0050000013 0.026920823
0.035076227 -0.014646501 -6.4021893e-10
0.068490222 -2.0302691e-09 0.046447143
0.032554571 -0.0050000013 0.031588644
0.0077076401 -0.0050000018 0.03331463
0.025456026 -0.014927884 0.0049999999
0.036988124 -0.0020950849 0.045644488
0.011447601 -0.0050000022 0.048891176
0.041365016 -0.0050000031 0.058054369
0.003992883 -0.0050000013 0.028630842
0.0074446448 -2.8906616e-10 0.0066130627
0.0004690444 -0.020000001 0.002411159
0.032038193 -1.0623733e-09 0.024304269
0.017784707 -0.0050000008 0.0087683517
0.061712284 -0.0088726496 0.0049999999
0.052961528 -0.0050000004 0.0066535305
0.0051806513 -0.0038248228 -1.6718829e-10
0.039869886 -8.7777957e-10 0.020081256
0.051921625 -0.0015784608 0.033894219
0.0081310933 -0.01285252 0.0049999999
0.045729868 -9.1159225e-10 0.020854801
0.059675846 -0.013352083 -5.8363808e-10
0.054227453 -0.0050000008 0.0093043037
0.064787947 -0.0072364789 0.0050000004
0.014192189 -0.0050000008 0.018874265
0.062895097 -0.0050000013 0.020591564
0.068147756 -8.7206764e-10 0.019950582
0.045867518 -1.1876412e-09 0.027170064
0.041175812 -0.0022142911 0.020196589
0.0011278441 -0.017684814 -7.7302775e-10
0.039345764 -0.020000001 0.0029825023
0.024366863 -0.012601866 -5.5084504e-10
0.049720354 -4.4893441e-05 -1.9623543e-12
0.061716106 -1.1535276e-09 0.026389638
0.056951463 -2.606261e-09 0.059624299
0.00028535645 -0.011856566 0.0049999999
0.036359146 -1.0424394e-09 0.023848234
0.069181688 -0.013059825 -5.7086313e-10
0.063535921 -0.0050000004 0.0050047161
0.05825749 -0.00019006635 0.060000002
0.049852662 -2.4872109e-09 0.056900751
0.067398012 -1.5132503e-09 0.034619134
0.033233009 -0.0004615823 0.045698993
0.029657234 -0.0041682217 0.037290838
0.050805643 -0.0050000031 0.055761196
0.032206215 -0.0050000013 0.02155702
0.027651371 -0.0050000008 0.013668952
0.050225891 -2.0291482e-09 0.046421498
0.042139038 -0.020000001 0.0013061381
0.069999993 -0.0029246167 0.0055398638
0.067729652 -0.0098421173 -4.3021267e-10
0.020418011 -2.3363598e-09 0.053449679
0.037602514 -0.0050000022 0.055563089
0.0054977601 -0.0050000018 0.03287483
0.023751456 -0.0050000022 0.04577003
0.047662597 -0.0050000022 0.049718574
0.016597185 -0.013881219 -6.0676736e-10
0.025257356 -0.015721859 0.0049999999
0.062329099 -1.5492845e-09 0.0354435
0.042577062 -0.0050000031 0.058763932
0.0084095309 -2.1831379e-09 0.049944375
0.051366281 -1.8352139e-09 0.041984797
0.00029681271 -2.5952288e-10 0.0059371912
0.021870827 -0.0081724226 0.0050000004
0.024119429 -2.4891498e-09 0.056945108
0.057702981 -0.013864765 -6.060481e-10
0.046922442 -0.0050000013 0.016112221
0.061152231 -3.2511993e-10 0.0074378769
0.013995693 -0.020000001 0.0039342376
0.053546321 -2.0319031e-09 0.046484523
0.016577723 -0.0050000013 0.021668701
0.019772923 -0.020000001 0.0015134575
0.03488788 -0.0050000022 0.050591972
0 -0.0090274494 0.0015121044
0.023115037 -1.5785227e-10 0.0036112394
0.048740949 -0.020000001 0.0013472206
0.057146508 -9.3141617e-10 0.02130832
0.065829448 -0.0050000027 0.052397791
0.0073115351 -0.0050000008 0.018436125
0.048872039 -0.012402681 0.0049999999
0.067243367 -2.6208056e-09 0.059957042
0 -0.0033587068 0.037023798
0.061453257 -0.010849843 0.0049999999
0.036226001 -0.0097710518 0.0050000004
0.04948147 -3.921394e-10 0.0089711044
0.0068492172 -2.1505242e-09 0.049198255
0.06736362 -0.0050000018 0.036925007
0.058189794 -0.010023789 -4.3815376e-10
0.042707108 -0.016184002 0.0049999999
0.02195641 -5.974744e-10 0.013668621
0.045409817 -0.020000001 0.0021596882
0.066168644 -0.020000001 0.0031172063
0.041788522 -0.00026070006 0.045008108
0.048224758 -0.0050000022 0.036647089
1.8933577e-05 -1.542147e-11 0.0003528021
0.044123203 -6.421228e-10 0.014690057
0.011697202 -2.2894397e-09 0.05237627
0.020534173 -0.013932418 0.0049999999
0.040955722 -0.0050000004 0.0080785872
0.041906834 -1.5644662e-09 0.03579082
0.069436908 -0.020000001 0.0021380677
0.029938931 -2.5933511e-09 0.059328958
0.0050293715 -2.1393058e-09 0.048941609
0.052570913 -6.4679584e-10 0.014796964
0.011103234 -0.0051867799 -2.2672132e-10
0.062851124 -5.6325383e-10 0.012885747
0.03935637 -0.0050000013 0.029999418
0.037095968 -0.015032008 -6.5706995e-10
0.027654877 -5.4513377e-10 0.012471207
0.012166343 -0.01694119 0.0049999994
0.025605842 -0.0043951352 0.046076339
0.026280807 -0.0033511457 0.020973081
0.0032977171 -0.0050000022 0.050176542
0.061222445 -0.0050000022 0.052654285
0.044158261 -5.1944721e-10 0.011883565
0.0080333576 -7.7719386e-10 0.017780121
0.030511672 -0.019486053 -8.5176244e-10
0.050940096 -0.0020098174 0.060000002
0.028035657 -0.0019153163 0.044913583
0.025083844 -0.007084501 0.0050000004
0.041777126 -0.0050000022 0.040079389
0.013611279 -0.0050000022 0.050385684
0.025899077 -7.5118572e-10 0.017185125
0.032351043 -0.001226388 -5.3607119e-11
0.015642747 -2.2340807e-09 0.051109806
0.057866365 -0.0026860614 0.060000002
0.047964275 -2.5364042e-09 0.058026165
0.0669792 -0.0052989824 0.0050000004
0.0053694174 -0.0050000013 0.032097545
0.053398833 -5.7281346e-10 0.013104446
0.019446954 -0.0050000013 0.018791802
0.011073897 -0.0050000022 0.04098253
0.0084673055 -0.0050000018 0.035183001
0.058785431 -0.0050000022 0.041204989
0.026529659 -0.0085938219 0.0050000004
0.020507677 -1.8844686e-09 0.043111611
0.064045675 -0.0050000027 0.053997811
0.067145027 -0.0061840513 0.0049999999
0.0043885494 -0.0050000018 0.033209193
0.013897063 -1.9724906e-09 0.045125324
0.064114764 -0.0040451856 -1.7682068e-10
0.027912518 -0.014951834 0.0049999999
0.0052670352 -0.0050000031 0.059106302
0.035175685 -0.0050000008 0.0096283155
0.035417765 -0.0050000004 0.005374853
0.055820931 -5.7557892e-10 0.013167711
0.014723022 -0.0050000018 0.02730641
0.0084689688 -0.0050000013 0.028470811
0.05909257 -0.0050000008 0.022132408
0.021555191 -0.0020021484 -8.7516688e-11
0.0014407911 -0.0050000018 0.038276531
0.033889838 -0.010328687 0.0050000004
0.031776968 -0.0050000008 0.0094041135
0.0010496934 -0.0050000004 0.0068132742
0.015327344 -2.0464588e-09 0.046817522
0.022814285 -0.0058831931 -2.5716254e-10
0.0019748895 -0.010152991 0.0049999999
0.0013750538 -0.0050000008 0.02175539
0.0010912167 -4.5779305e-10 0.010473084
0.003165425 -1.6186542e-10 0.0037030494
0.042347383 -0.0014061255 0.044762637
0.064573146 -0.0050000022 0.03450175
0.066321321 -2.3735507e-09 0.054300513
0.03979516 -0.019923246 0.0049999994
0 -0.0034489171 0.0406712
0.06209375 -5.8893351e-10 0.013473229
0.055776179 -0.0068760971 0.0050000004
0.062516853 -2.426616e-09 0.055514507
0.033865612 -1.2633705e-10 0.0028902546
0.059787732 -0.0050000027 0.053252991
0.00080780254 -8.6551499e-10 0.019800674
0.002345884 -0.017572153 0.0049999994
0.064712383 -2.2093403e-09 0.050543819
0.037741229 -2.3609974e-09 0.054013334
0.0138228 -2.0307632e-10 0.0046458445
0.049823999 -0.013384481 0.0049999999
0.053820949 -0.0095800562 0.0050000004
0.022060419 -0.012676326 0.0049999999
0.020915572 -1.5116398e-09 0.034582287
0 -0.002451079 0.040530279
0.025542136 -0.0028247978 0.019624695
0.051150907 -0.0050000013 0.020745179
0.046599332 -0.0023595924 -1.0314107e-10
0.027498433 -9.7724839e-10 0.022356834
0.0079142842 -0.013841075 0.0037001774
0.012054821 -0.019321915 0.004999999
0.021091977 -9.5706765e-10 0.021895157
0.067063585 -0.0038002511 0.059979659
0.036161121 -1.2823231e-09 0.029336136
0.01019766 -0.014651774 -6.4044942e-10
0.016327206 -2.502698e-09 0.057255056
0.053800631 -0.019637344 0.0049999994
0.029564988 -0.0017864165 0.037534073
0.066841751 -2.4566564e-09 0.056201752
0.066443361 -2.1674906e-09 0.049586408
0.028350607 -0.0050000031 0.059243321
0.069999993 -0.013031903 0.00019093274
0.01498729 -0.0050000008 0.01489407
0.023391932 -0.019523351 0.0049999994
0.041365426 -1.6078501e-09 0.036783319
0.01139956 -2.3772546e-09 0.054385241
0.059265703 -0.0063191457 0.0050000004
0.058229815 -0.017462334 -7.6330292e-10
0.035057172 -0.0064052246 0.0050000004
0.011365499 -0.0050000018 0.039892871
0.066674598 -0.0050000022 0.046140611
0.039180778 -0.0050000013 0.021083022
0.063631721 -0.0050000027 0.055900577
0.059060927 -1.057738e-09 0.024198225
0.036579639 -0.0050000013 0.027577745
0.035951171 -0.014754174 -6.4492534e-10
0.045790445 -2.0465776e-09 0.046820235
0.040538214 -8.298297e-10 0.018984292
0.040280808 -0.0050000027 0.050420906
0.0068158228 -0.004876304 -2.1315001e-10
0.055739738 -0.012784698 -5.5883692e-10
0.019929336 -2.6418653e-10 0.0060438835
0.056528464 -1.5180572e-09 0.034729104
0.049345423 -0.020000001 0.0024672961
0.025382355 -0.0050000013 0.025429646
0.066409878 -0.0050000004 0.008465087
0.06969811 -0.0050000022 0.046098962
0.02106333 -0.0050000022 0.042763039
0.035856217 -0.020000001 0.00039559038
0.037981018 -1.0870862e-09 0.024869634
0.025381256 -4.9752596e-10 0.011382069
0.0052019819 -5.4084309e-10 0.012373049
0.007206501 -0.0065837805 -2.8778618e-10
0.026919495 -2.5885754e-09 0.059219703
0.022557788 -0.0050000018 0.031457689
0.021332029 -3.4155526e-10 0.0078138737
0.02719526 -9.686113e-10 0.022159243
0.033668175 -6.8117634e-10 0.015583497
0.046653923 -0.00012495508 -5.4619599e-12
0.015321715 -0.0050000004 0.0067064427
0.062127307 -5.2871885e-10 0.012095678
0.013304549 -0.0050000013 0.026002251
0.065908134 -0.0047770841 0.059999999
0.030920856 -2.5714131e-09 0.058827076
0.042671002 -0.0050000008 0.016864629
0.0029174052 -0.0050000022 0.035992075
0.010213588 -0.0050000008 0.01601737
0.020608047 -0.0050000004 0.0066109621
0.060382396 -0.0050000013 0.032124195
0.066795602 -0.0050000022 0.051872
0.020438522 -0.0050000013 0.026852146
0.063851103 -2.4888402e-10 0.0056938031
0.069999993 -0.0049890396 0.0097506139
0.034359273 -0.020000001 0.0046329
0.051043119 -1.2333752e-09 0.028216332
0.0022587669 -9.9675002e-10 0.022802979
0.018593321 -0.0050000013 0.018437237
0.0037522607 -0.012629854 0.0050000004
0.0082231015 -0.0050000004 0.0077668023
0.069999993 -0.0028817628 0.027911052
0.007615624 -0.020000003 0.0045758104
0 -0.003753738 0.020379288
0.014954811 -0.010185373 0.0050000004
0.035740495 -0.0050000027 0.05077048
0 -0.0045775399 0.0013515215
0.069999993 -0.004537784 0.01466133
0.005519805 -9.9442787e-10 0.02274986
0.069999993 -0.00025605797 0.054653067
0.065435216 -1.4598196e-09 0.03339678
0.0083111012 -1.0654743e-09 0.024375208
0.04228403 -1.3309434e-09 0.030448437
0.057802875 -1.4289212e-09 0.03268991
0.061045982 -0.01939632 -8.4784002e-10
0.035183813 -0.0050000027 0.053647719
0.025907945 -0.0050000018 0.033630997
0.04533948 -4.9084126e-10 0.011229139
0.061165456 -1.2326243e-09 0.028199159
0.0096091758 -0.019080861 0.0049999994
0.010438906 -0.0050000013 0.018410278
0.049377412 -0.020000001 0.0018414302
0.067776777 -0.0050000013 0.024501797
0.013179103 -1.2083924e-09 0.027644796
0.034000933 -0.0050000013 0.017999481
0.016536547 -0.0050000022 0.047835894
0.024054999 -0.0050000004 0.010225264
0.011843442 -0.018163279 -7.9394219e-10
0.06225992 -6.9623751e-10 0.015928058
0.018513182 -0.019081505 0.0049999994
0.050752725 -0.0037701575 0.060000002
0.023806063 -0.0050000013 0.026984824
0.00031212665 -0.0005266816 0.057219636
0.069999993 -0.0019174363 0.039694991
0.014217875 -0.007778862 0.0050000004
0.0065083331 -0.0050000018 0.034252293
0.04618755 -0.0088067269 0.0050000004
0.034426302 -1.0745343e-10 0.0024582481
0.037084758 -0.00089174538 0.034379341
0.0094207432 -0.010580381 -4.6248311e-10
0.040695548 -0.0043716854 0.041778956
0.015515236 -2.0220721e-10 0.0046259617
0.018911729 -6.5945921e-10 0.015086669
0.042185716 -2.5968863e-09 0.059409834
0.0055297525 -6.6227834e-10 0.015151161
0.0022790169 -0.0050000008 0.01736033
0.01191501 -9.6994057e-10 0.022189656
0.011531943 -0.0050000013 0.028895628
0.010462125 -3.1854708e-10 0.0072875074
0.054871209 -0.015447477 -6.7523065e-10
0.069999993 -0.018085543 0.0030420495
0.029493829 -5.4043897e-10 0.012363802
0.024282608 -1.3216469e-09 0.03023576
0.063799217 -5.4130622e-10 0.012383642
0.046494074 -2.5719371e-09 0.05883906
0.0049342215 -2.2048532e-09 0.050441157
0.059518062 -1.5815654e-09 0.036182001
0.040311985 -2.0620077e-09 0.047173239
0.053849291 -0.014583549 -6.3746713e-10
0.053310134 -0.0050000018 0.042846601
0.04735209 -0.0077054822 -3.3681735e-10
0.062294602 -0.013556704 0.0026446688
0.048804816 -0.0046975017 0.032943394
0.028374638 -0.00026826217 -1.1726111e-11
0.045441587 -0.0097552836 -4.2641701e-10
0.02166874 -1.1502285e-09 0.02631416
0.01487935 -0.020000001 0.0017601579
0.021701727 -4.3027271e-10 0.0098434929
0.06684079 -1.8081165e-09 0.04136489
0.012113433 -4.5437301e-10 0.010394842
0.04221867 -0.0050000031 0.058454104
0.019377293 -2.0883639e-09 0.047776196
0.046502832 -0.0050000013 0.018321048
0.0044249208 -2.1103208e-09 0.048278514
0.032566827 -8.4222135e-10 0.019267779
0.0023036026 -0.0060273013 0.0050000004
0.066024177 -0.014050445 0.0038357445
0.060115095 -1.9581889e-09 0.044798147
0.068352036 -0.017992696 0.0049999994
0.020433158 -0.0029254153 -1.2787395e-10
0 -0.0033227985 0.024466515
0.0041260519 -2.0801527e-09 0.047588348
0.063568816 -1.7213385e-09 0.039379634
0.04388959 -2.5504299e-09 0.058347039
0.047618225 -0.0050000013 0.020490199
0.063806452 -2.0299602e-09 0.04644008
0.010975418 -7.0467521e-11 0.0016121088
0.0056294976 -2.0597329e-10 0.0047121197
0.055278879 -0.0050000022 0.03404424
0.052537654 -0.0083050216 0.0050000004
0.028337702 -1.4112889e-09 0.032286528
0.012562904 -0.020000001 0.0045089964
0.0086864159 -1.7354709e-09 0.039702948
0.023851929 -0.0049255765 0.060000002
0.015533539 -0.0050000008 0.01066421
0.015351622 -0.0050000027 0.058400903
0.027024813 -0.0050000022 0.043543939
0.060681794 -0.0050000027 0.052615941
0.017351313 -0.0050000004 0.0070054848
0.0071551432 -0.0050000018 0.030725153
0 -0.0012516244 0.049390804
0.015759025 -1.7732876e-09 0.040568091
0.010051163 -1.5309741e-09 0.035024598
0.029674958 -0.0050000018 0.031424459
0.047085304 -0.014445744 0.0049999999
0.052342035 -0.0050000004 0.011227473
0.05582789 -0.0050000013 0.02770609
0.052692305 -0.0050000022 0.045974895
0.068676814 -0.0050000022 0.054517888
0.033120986 -0.0050000004 0.0091379723
0.030037805 -0.0023169015 -1.0127497e-10
0.0099018579 -9.0036223e-10 0.020597888
0.06603761 -0.0099561429 -4.3519682e-10
0.061810192 -0.0050000022 0.048507754
0.039115313 -4.7144507e-11 0.0010785405
0.040934812 -0.0050000027 0.054958392
0.021068206 -0.017248999 0.0049999994
0.036821812 -0.0026505389 -1.1585873e-10
0.044877559 -5.3079524e-10 0.01214318
0.049580216 -0.0020596662 0.060000002
0.06121226 -0.018897299 -8.2602714e-10
0.066366881 -1.2471172e-09 0.028530717
0.00016387089 -1.78527e-09 0.04084222
0 -0.015565 0.00467738
0.058842633 -0.0050000022 0.039611146
0.0073106787 -2.2189197e-09 0.050762966
0.042615332 -0.017245239 0.0049999994
0.063863002 -0.0050000004 0.0098079182
0.044091865 -0.013020617 0.0049999999
0.046007331 -1.1057095e-09 0.025295682
0.025950696 -0.020000001 0.0020218652
0.01662208 -1.8776622e-09 0.042955905
0.041302774 -0.0050000022 0.045078564
0.04347698 -0.0050000022 0.040319696
0.048540521 -0.0069715339 0.0050000004
0 -0.018975899 0.0034793545
0.069180287 -7.9653639e-10 0.01822263
0.055681918 -0.0050000013 0.018903332
0.034077764 -4.4115708e-10 0.010092498
0.061240576 -1.7527281e-09 0.040097747
0.048148289 -0.0050000031 0.057517588
0.063749142 -0.0050000022 0.044871438
0.047927126 -1.5929958e-09 0.036443498
0.041985992 -3.693485e-10 0.0084497081
0.067273624 -0.0050000027 0.054437518
0.037922606 -1.0819495e-09 0.024752116
0.045404945 -8.3407964e-10 0.01908152
0.024836512 -0.013170634 0.0050000004
0.056738697 -8.534503e-11 0.0019524667
0.043406185 -0.0056333649 -2.4624219e-10
0.020393416 -4.3164874e-10 0.0098749716
0.014458589 -0.0050000022 0.050948177
0.046838336 -0.020000001 0.0019550661
0.017212167 -0.0099994186 0.0050000004
0.019270768 -4.9644783e-10 0.011357401
0.02659316 -0.0050000013 0.028557535
0.032939781 -1.6861409e-10 0.0038574412
0.042170446 -0.014750711 -6.4477401e-10
0.061521612 -0.020000001 0.00076080364
0.016446695 -1.7122377e-09 0.039171431
0.012783937 -0.0050000008 0.013497159
0.015516599 -1.8503259e-09 0.042330522
0.024687981 -0.0053411392 0.0049999999
0.049380153 -1.9181816e-09 0.043882884
0.038800981 -0.013084237 -5.7193023e-10
0.0090935547 -0.0050000022 0.044981029
0.037405524 -2.5929359e-09 0.059319455
0.069999993 -0.011887051 0.0038443671
0.019758252 -0.013751906 -6.0111494e-10
0.048866875 -0.0075885956 0.0050000004
0.067098998 -0.0050000013 0.022189897
0.054804973 -8.8963537e-10 0.020352485
0.038478807 -0.012189477 0.0049999999
0.069999993 -0.0037547143 0.020144479
0.053011056 -0.0050000022 0.047003943
0.035481028 -0.0050000013 0.018376114
0.014904416 -1.9378925e-09 0.044333816
0.0077555496 -9.1295788e-10 0.020886041
0.047343694 -0.0050000027 0.055359885
0.068084836 -0.020000001 0.0001041338
0.042704385 -0.010450716 0.0050000004
0.050114702 -0.0050000022 0.047049344
0.0012330523 -0.011332339 -4.9535226e-10
0.021877486 -0.0050000018 0.040102854
0.021299088 -0.0050000027 0.053867567
0.042058393 -0.015527419 -6.7872508e-10
0.0029167386 -1.4159875e-09 0.032394018
0.018774502 -0.0050000027 0.051010177
0.057088811 -0.0050000013 0.021197738
0.01996729 -0.0041186893 0.060000002
0.04923065 -6.2219507e-11 0.0014234165
0.067340881 -0.020000001 0.001764319
0.027522109 -0.01686289 -7.3710038e-10
0.047766518 -0.0050000018 0.031232685
0.0072377441 -0.0050000013 0.025978142
0.040390629 -1.5798628e-09 0.036143046
0.069999993 -0.0027668141 0.012551414
0.016741941 -1.5325361e-09 0.035060339
0.031106368 -0.0050000022 0.048802983
0.053489223 -0.0050000008 0.010297179
0.038741998 -7.8097628e-10 0.017866654
0.040526528 -0.0050000013 0.0098658074
0.028893689 -0.0025506401 0.019225698
0.0092234956 -0.011149778 0.0049999999
0.062828958 -0.01690571 0.0031656804
0.0031060521 -0.019175524 -8.381888e-10
0 -0.0019556461 0.024331268
0.0006444286 -1.5825732e-09 0.03620505
0.00638011 -2.1119018e-09 0.048314679
0.0022988541 -1.638178e-09 0.037477139
0.037616402 -1.0292253e-09 0.02354593
0.030949531 -1.0781539e-09 0.024665285
0.015027612 -0.0050000022 0.044043336
0.015300045 -0.0050000013 0.02161858
0.026591767 -1.0694294e-09 0.024465689
0.025527678 -0.0050000013 0.029636823
0.039030302 -0.0050000027 0.054533474
0.052176233 -2.1989795e-10 0.0050306786
0.050539237 -0.0038365829 0.060000002
0.016056117 -1.3900228e-10 0.0031800016
0.0304175 -0.0050000022 0.045799419
0.060831562 -1.1325553e-09 0.025909845
0.054351162 -0.0001618346 0.060000002
0.044610694 -0.0085483277 -3.7365927e-10
0.045231506 -0.0050000013 0.014280423
0.032363597 -3.54968e-10 0.0081207221
0.0096552428 -0.014220804 0.0049999999
0.016330818 -0.0050000013 0.022356117
0.037275415 -0.0050000027 0.050728351
0.020364981 -0.0098473588 -4.3044174e-10
0.069999993 -0.014226105 0.0027447762
0.0064192307 -0.0011708671 0.060000002
0.0024603878 -2.3749129e-09 0.054331668
0.069073506 -1.7167159e-09 0.03927388
0.04343199 -0.0050000027 0.053760681
0.018981282 -0.015470972 0.0049999999
0.043971594 -0.0024751313 0.020944184
0.02928224 -0.0050000008 0.011794711
0.047426879 -0.00020502019 -8.9617159e-12
0.041621361 -1.1503482e-09 0.0263169
0.069999993 -0.0018515474 0.028206429
0.068445727 -0.0050000004 0.017278936
0.010732609 -0.0050000008 0.0088337352
0.018978462 -0.0050000008 0.016683193
0.019392032 -0.0053939126 0.0049999999
0.026332639 -0.0050000022 0.041680939
0.054009821 -0.019431567 -8.4938079e-10
0.039623097 -1.4041909e-09 0.032124143
0.051807888 -0.0050000018 0.028662577
0.0045842449 -0.0050000022 0.04620504
0.039517708 -0.0050000013 0.016450861
0.022730965 -0.0095338235 0.0050000004
0.050724942 -0.0050000027 0.058431718
0.04442152 -0.0050000013 0.024094174
0.058419414 -2.293735e-09 0.052474547
0.062030934 -1.5982396e-12 3.6563459e-05
0.021963399 -0.0094965901 -4.1510911e-10
0.023955908 -9.3232977e-10 0.021329219
0.045965359 -0.011816246 -5.1650445e-10
0.043877378 -2.1339415e-09 0.048818883
0.026450556 -9.6019215e-10 0.021966638
0.055795025 -1.7235128e-09 0.039429378
0.030606288 -0.019703465 -8.6126584e-10
0.05692333 -4.1336295e-10 0.009456642
0.02574379 -0.0050000022 0.036103144
0.0060972301 -0.0050000004 0.019863112
0.017385913 -0.0050000031 0.056958921
0.051948532 -0.0033847822 0.03385523
0.067830898 -7.5288964e-10 0.017224107
0.0055019711 -2.5530709e-09 0.058407452
0.021733895 -0.00061464711 -2.6867078e-11
0.043383874 -0.020000001 0.0023037081
0.051876664 -4.3084514e-10 0.0098565882
0 -0.0027045768 0.041056965
0.033128366 -0.014419861 -6.3031214e-10
0.037722241 -1.059112e-09 0.024229659
0.046536881 -0.0050000027 0.052518878
0.060866784 -0.0053865663 -2.3545429e-10
0.068024717 -2.3684921e-09 0.054184787
0.018202715 -0.011335538 -4.9549204e-10
0.063781098 -0.0050000027 0.059084982
0.036692239 -0.0099120708 0.0050000004
0.053255349 -6.3203276e-10 0.014459224
0.069898024 -1.7074785e-09 0.03906256
0.046790499 -0.0050000022 0.039872747
0.05414249 -0.0050000013 0.0087865703
0.010873485 -1.5919244e-09 0.036418982
0.061507277 -0.0050000013 0.024374733
0.066470079 -0.0060414714 -2.6408109e-10
0.021309182 -1.0866904e-09 0.024860578
0.066022508 -1.2979795e-09 0.029694311
0.012683989 -0.0050000008 0.018180884
0.015162285 -1.9496724e-09 0.044603307
0.042126939 -0.010061222 0.0050000004
0.051392052 -8.3547669e-10 0.019113479
0.060291648 -0.0050000027 0.053679857
0.037427548 -0.013460067 -5.8835825e-10
0.054233246 -0.0050000022 0.048565723
0.014763176 -2.1223543e-09 0.048553806
0.04248805 -0.0050000018 0.033028476
0.019624678 -0.0074781589 -3.2688072e-10
0.060975201 -0.0050000008 0.0081869988
0 -0.00097507692 0.037993211
0.062317703 -2.4443986e-10 0.0055921311
0.034006268 -0.020000001 5.3155627e-06
0.0486704 -2.5585991e-09 0.058533918
0.069999993 -0.014005418 0.00014115545
0.051361576 -2.1996174e-09 0.050321378
0.020543749 -0.00042663678 0.031670067
0.05118905 -0.0050000022 0.047175288
0.01720964 -0.0050000022 0.04089364
0.01892918 -6.888614e-05 0.031402584
0.01550139 -0.0050000018 0.034058206
0.0062478231 -6.3649047e-10 0.014561204
0.025606221 -0.00012360168 0.019104421
0.050136838 -0.020000001 0.0022758925
0.0067086457 -2.0782938e-09 0.047545817
0.038767848 -0.00070242275 -3.0703873e-11
0.047887865 -0.00062146847 0.060000002
0.0083508082 -9.5073016e-10 0.021750171
0.031470597 -1.4892768e-09 0.034070686
0.014057396 -7.8788942e-10 0.018024808
0.056097969 -0.01995297 -8.72172e-10
0.056660403 -0.020000001 0.0035284355
0.04784647 -0.016075399 0.0049999999
0.066704661 -0.0050000018 0.031937178
0.014454675 -5.6081262e-10 0.012829897
0.011485148 -7.4936124e-10 0.017143387
0.0066352286 -1.66653e-10 0.0038125762
0.060544662 -0.0037271094 0.060000002
0.027954655 -7.0551481e-10 0.016140297
0.0052035437 -0.0050000022 0.043944966
0.065495282 -0.020000001 0.003823282
0.023319075 -9.0244795e-10 0.020645602
0.010768575 -0.0050000008 0.010855584
0.035757031 -0.013645814 0.0049999994
0.017624665 -0.0050000018 0.031923849
0.033290792 -1.1465662e-09 0.026230376
0.0054546627 -0.0050000004 0.012660788
0.025726084 -0.00080423825 0.045712862
0.035130344 -0.0050000013 0.032154858
0.0476937 -0.00067627645 -2.9560982e-11
0.026250444 -0.0056599476 0.0050000004
0.041948363 -0.0050000018 0.033686772
0.02245946 -5.1110283e-11 0.001169267
0.054473788 -0.0050000018 0.039059058
0.058882099 -1.6009106e-09 0.036624569
0.020783421 -4.7781806e-10 0.010931204
0.0037095209 -0.0050000008 0.0080895135
0.031001573 -0.0050000022 0.044460636
0.001412459 -1.9036737e-11 0.00043550981
0.059860758 -1.9655531e-09 0.044966616
0.011521034 -1.2990262e-10 0.0029718254
0.059006624 -0.0050000004 0.010429957
0.010402201 -0.0050000008 0.016041884
0.028129907 -2.0968687e-09 0.047970768
0.048432246 -1.0524359e-09 0.024076927
0.038129792 -3.0241212e-10 0.0069183824
0.062105786 -0.0057314495 -2.505296e-10
0.0071439222 -2.4286706e-09 0.055561505
0.029867327 -0.0026354257 0.043049213
0.040780395 -0.0024961126 0.03844478
0.001523698 -0.0050000018 0.039875545
0.036802094 -0.0050000013 0.010508122
0.069999993 -0.0012805257 4.162782e-05
0.054433383 -5.442608e-10 0.012451236
0.012743567 -2.1719448e-09 0.049688298
0.057305485 -7.1012712e-10 0.016245816
0.061619122 -0.0050000013 0.032271396
0.021472324 -0.006601878 -2.8857725e-10
0.060197461 -0.0050000018 0.032983746
0.062385004 -2.286684e-09 0.052313235
0.015996134 -0.019056153 0.0049999994
0.036521159 -0.00087305019 0.034240428
0.032544736 -0.0050000004 0.006842616
0.015989855 -2.3946925e-10 0.0054784175
0.056522049 -2.3865938e-09 0.054598898
0.014044185 -0.0011583415 0.060000002
0.040729452 -0.020000001 0.0042981077
0.023544325 -1.2536464e-09 0.028680088
0.054894436 -0.013980642 -6.1111333e-10
0.069770023 -2.3489142e-09 0.053736892
0.058143459 -2.4864626e-09 0.056883637
0.060906507 -0.0050000013 0.012200196
0.030543189 -2.6036084e-09 0.059563618
0.015369685 -1.9260931e-09 0.044063866
0.056602754 -0.00075003697 -3.2785157e-11
0.058003388 -1.2355071e-09 0.028265107
0.017992886 -0.011014729 -4.8146909e-10
0.023369299 -4.0905257e-10 0.0093580317
0.048750833 -1.9381952e-09 0.044340733
0.01871011 -0.0050000022 0.043317031
0.067131415 -0.016626168 0.0049999999
0.05299079 -0.020000001 0.0047565498
0.057108428 -0.0050000022 0.048096996
0.042019382 -0.0050000027 0.05365916
0.052247789 -1.9288868e-09 0.044127788
0.03632319 -1.006754e-09 0.023031848
0.047259741 -0.010863797 -4.7487159e-10
0.0077630207 -0.017460527 0.0049999994
0.058077279 -0.0051240893 0.0050000004
0.011026229 -0.0050000008 0.013736157
0.010695835 -2.8778449e-10 0.0065837419
0.059832122 -0.0050000022 0.043028574
0 -0.0042469581 0.0032213097
0.065470904 -9.6540742e-10 0.02208595
0.066901371 -1.0751255e-10 0.0024596006
0.055285409 -0.016216138 0.0049999999
0.019105246 -0.0050000013 0.030518839
0.067927077 -6.2374805e-10 0.014269693
0.065052241 -7.1683343e-10 0.016399238
0.045183402 -2.3453424e-09 0.053655181
0.051713817 -0.0050000031 0.055586901
0.049954005 -0.0050000022 0.04457105
0.051287878 -0.0050000022 0.049332742
0.02733108 -0.017732954 -7.7513196e-10
0.050415728 -0.0050000022 0.041411966
0.05436362 -0.0050000022 0.043613892
