# .PCD v0.7 - Point Cloud Data file format
VERSION 0.7
FIELDS x y z
SIZE 4 4 4
TYPE F F F
COUNT 1 1 1
WIDTH 1000
HEIGHT 1
VIEWPOINT 0 0 0 1 0 0 0
POINTS 1000
DATA ascii
0.052747089 0.074169695 0.0050000004
0.059219047 0.035283614 0.0050000004
0.050552018 0.010137927 5.2335639e-18
0.092000008 0.072307177 0.0015453039
0.047465175 0.055164665 4.8462883e-18
0.07734824 0.08588513 0.0050000004
0.10237883 0.0088549443 1.1532991e-17
0.020514354 0.081634633 1.4900772e-18
0.032708049 0.061767604 3.1849465e-18
0.098730125 0.03689529 1.148192e-17
0.116 0.001774169 0.015804091
0.0835381 0.061381519 9.0200414e-18
0.035056807 0.0035574629 0.024999999
0.10034706 0.022194223 0.0050000004
0.0080837337 0.0050000004 0.0077506267
0.030410688 0.014721715 2.7526999e-18
0.0092194229 0.015389365 1.0637266e-19
0.061094813 0.013227065 6.5472293e-18
0.0045026117 0.063547894 0.0050000004
0.04381191 0.090000004 0.003382683
0.040750995 0.06600228 4.0734952e-18
0.055997934 0.078842819 0.0050000004
0 0.050997499 0.0043596122
0.077946782 0 0.016735693
0.0042665722 0.0050000004 0.024136659
0.010664809 0.021875864 0.0050000004
0.065882333 0 0.005528695
0.099432059 0.062882438 1.1278886e-17
0.046358936 0.083154798 0.0050000004
0.0044889636 0.034120187 0.0050000004
0.059363291 0.05747769 0.0050000004
0.032187838 0.064778551 0.0050000004
0.015256015 0.0050000004 0.011082875
0.05070366 0.088921368 0.0050000004
0.057670888 0.051167261 0.0050000004
0.013818465 0.068720795 0.0050000004
0.015467562 0 0.0071612569
0.072965994 0.048714481 7.7434023e-18
0.0025643685 0.049650654 -8.5140294e-19
0.11030046 0.0050000004 0.012468321
0.074961856 0.033396959 8.0076667e-18
0.11212228 0.0074948473 0.0050000004
0.10764576 0.038277399 0.0050000004
0.0030324701 0.089767948 0.0029180257
0.054133434 0 0.021434799
0.0082498379 0.029238222 0.0050000004
0.11237918 0.082064249 1.2876018e-17
0.087395839 0.07311675 0.0050000004
0.0065498552 0.064467892 -4.7140296e-20
0.061271861 0.023682004 0.0050000004
0.10048372 0 0.001100632
0.085302696 0.042156726 9.6446679e-18
0.01119994 0.028602591 6.4317103e-19
0.043877732 0.073105656 0.0050000004
0.10881493 0.070810944 1.2582317e-17
0.021024652 0.054540988 1.6104267e-18
0.081360079 0.073962741 0.0050000004
0.011194323 0.036034588 8.4932021e-19
0.046538807 0 0.021976097
0.11204638 0.0041385721 0.015935695
0.06154808 0.061229274 6.4821041e-18
0.10069041 0.0050000004 0.018648986
0.041381288 0.056790914 0.0030271036
0.058710665 0.058910064 0.0050000004
0.040805385 0.018310457 0.0050000004
0.10452677 0.0076403562 0.0050000004
0.030111011 0.065735936 0.0050000004
0.11131785 0.0062305913 0.0050000004
0.066112258 0 0.017475758
0.012245276 0.087645255 0.0050000004
0.055367541 0 0.0042348346
0.0633232 0.078489125 7.0163221e-18
0.019835752 0.0071330341 1.3957852e-18
0.052496701 0 0.0041595851
0.116 0.0036199114 0.024712594
0.014925458 0.040521942 0.0037601211
0.029912829 0.0050000004 0.0069588237
0.058294244 0.0050000004 0.024248436
0.10245421 0.0050000008 0.016658856
0.10052231 0 0.019050201
0.041327301 0 0.019341512
0.080226943 0.048702419 8.5762375e-18
0.013471027 0 0.0027306264
0.10657769 0.05235374 0.0050000004
0.013193532 0.0084974626 5.7187685e-19
0.064334378 0 0.011546982
0.074933283 0.017062329 0.0050000004
0.11225759 0.062376238 0.0050000004
0.038787782 0.057556018 0.0046144039
0.0054752198 0.076859362 0.0050000004
0.087459095 0.027431434 9.6991203e-18
0.090251103 0 0.020059738
0.085084245 0.03665803 0.0050000004
0.010874602 0.040211197 -1.2656212e-20
0.045558028 0.083770119 0.0050000004
0.0028693439 0.0050000004 0.024146862
0.07012964 0.036659546 0.0050000004
0.1073655 0.037774023 0.0050000004
0.086450189 0.051274348 0.0050000004
0.019194433 0.055499304 1.3781717e-18
0.089954324 0.052575327 9.7570321e-18
0.014984563 0.077495441 0.0050000004
0.099275745 0.066779658 1.1259605e-17
0.10406831 0.0021096603 0.025
0.064709738 0.0045133196 0.025
0.11386499 0.069085836 0.0050000004
0.016789556 0 0.0094789192
0.015050994 0.031089211 0.0050000004
0.081190191 0.0047593117 0.025
0.04928435 0.053882509 5.0676095e-18
0.086095273 0.085251108 0.0050000004
0.076456189 0.045582004 0.0050000004
0.024168683 0.0050000004 0.010807002
0.01504037 0.080095373 7.8746111e-19
0.093461484 0.031723909 1.0635593e-17
0.074182853 0.06566678 7.9454627e-18
0.0066779102 0.0050000004 0.021291658
0.080482729 0.085551485 9.103628e-18
0.069997251 0.00023192407 0.025
0.062884867 0 0.0097193113
0.092000008 0.060414821 0.0022909152
0.056011058 0.0050000004 0.010673562
0.10158271 0.0098733334 0.0050000004
0.04380054 0.013108077 4.4093628e-18
0.10224185 0.0050000004 0.013921544
0.078304254 0.040484626 0.0050000004
0.003407697 0.077729791 0.0050000004
0.032214452 0.0050000004 0.022531772
0.019027703 0.065684393 1.3264446e-18
0.048054423 0.016507659 4.9379035e-18
0.084048703 0.054629676 9.078691e-18
0.066807605 0.040035471 6.9516234e-18
0.042970911 0.0050000004 0.022684963
0.091307677 0.0050000004 0.023795046
0.037353758 0 0.013832927
0.010686758 0.014662384 2.7735102e-19
0.082343005 0.0050000004 0.010001902
0.050694838 0.048715066 0.0015883989
0.081296697 0.081545934 9.3455014e-18
0.057454403 0.021529131 6.0923279e-18
0.060916379 0.00041130037 0.025
0.075106382 0.052155014 8.0515428e-18
0.079867408 0.0049278075 8.8532645e-18
0.1088574 0.061331235 1.2586694e-17
0.070678554 0 0.012351517
0.02850355 0.081497177 2.5223326e-18
0.10178089 0.015349544 1.1546593e-17
0.013842802 0.028407404 0.0050000004
0.035507657 0.008113509 3.3509333e-18
0 0.023517858 0.00056471315
0.092000008 0.07775493 0.0043962756
0 0.040063422 0.0020375953
0.070708148 0.044279438 7.2856753e-18
0.082855664 0.085174359 0.0050000004
0.10950659 0.037055936 0.0050000004
0.03361566 0.090000004 0.0030804432
0.0449843 0 0.010829086
0.046436049 0.0050000004 0.012068564
0.01464248 0.043013535 0.0050000004
0.11287311 0.07209029 1.3000478e-17
0.0025936326 0.027558574 -8.4844934e-19
0.011282546 0 0.016060606
0.060135774 0.047166578 6.1938602e-18
0.059865274 0.081602499 0.0050000004
0.035687823 0 0.021703241
0.047306377 0.012259965 4.8410448e-18
0.06306237 0.040690675 6.3313202e-18
0.083695769 0 0.018038131
0.022870207 0.0050000004 0.012570905
0.011553637 0.041371129 0.00099205296
0.059191082 0.0726711 6.4703714e-18
0.078790255 0.05888433 0.0050000004
0.085021481 0.053161796 0.0050000004
0.094009571 0 0.024967583
0.08899349 0.062904559 0.0050000004
0.09116371 0 0.023364721
0.07581196 0.031708132 0.0050000004
0.062777512 0 0.0092661576
0.055584032 0.029294493 0.0050000004
0.029723996 0 0.019836031
0.090360805 0 0.021845527
0.10051158 0.0099233212 1.1293512e-17
0.10521198 0.041609447 0.0050000004
0.116 0.015376986 0.00082197628
0.116 0.0041032918 0.0094045298
0 0.018929793 0.0018051754
0.08484894 0.018477406 9.3011497e-18
0.094738558 0.0050000004 0.013190524
0.098002546 0 0.01528289
0.036215931 0.0050000004 0.024971578
0.043505624 0.063279636 4.3410645e-18
0.051905636 0 0.02186813
0.00092966872 0 0.021506494
0.048066881 0.0050000004 0.0078736534
0.087872468 0.050769687 0.0050000004
0.091293953 0.031834699 0.0050000004
0.028199768 0.072571188 2.4648001e-18
0.010027912 0.0050000004 0.0055072312
0.001636154 0.033422861 -9.4508704e-19
0.074315555 0.030839005 0.0050000004
0.077880397 0.027862007 0.0050000004
0.030372236 0.0050000004 0.010669256
0.026309848 0 0.0059038913
0.050986558 0.05425005 5.266915e-18
0.021525372 0.063146286 1.6463008e-18
0.082840763 0.038141575 9.2214847e-18
0.08530847 0 0.0070356978
0.027325641 0 0.02409358
0.098000005 0.064497679 0.0049534258
0.010462542 0.00011640865 1.9216288e-19
0.10107519 0 0.024157472
0.082357638 0.067504041 0.0050000004
0.012556138 0.0016095813 0.025
0.034743685 0.011673776 0.0050000004
0.023920259 0.057027228 0.0050000004
0.054576386 0.017419945 0.0050000004
0.090027444 0.069504268 0.0050000004
0.012906637 0 0.011451275
0.0048673698 0.057538707 -6.189624e-19
0.017564539 0.059373066 1.1631673e-18
0.085368715 0.021420339 9.2946993e-18
0.073591538 0.090000004 0.0020051461
0.029008901 0.0050000004 0.0066563077
0.048190624 0.022665085 4.9499878e-18
0.10845315 0.0030151489 0.01339733
0.070755444 0.051263966 7.5517785e-18
0.092038073 0.049686473 0.0049241963
0.012294804 0.0050000004 0.022274697
0.090459689 0.07890024 9.8150687e-18
0.05263868 0.043381751 0.00075804518
0.10683728 0.032973804 0.0050000004
0.067561433 0 0.00039600456
0.098183617 0.018469417 0.0050000004
0.11064374 0.070656039 0.0050000004
0.089957841 0.046460956 0.0050000004
0.0080052596 0.048758883 -3.0225715e-19
0.047199056 0.017904526 4.8314408e-18
0.086681135 0.043111235 9.8591864e-18
0.00030394012 0.079398677 0.0050000004
0.064673334 0.048495069 0.0050000004
0.046354659 0 0.02354775
0.018244386 0.0050000004 0.0058246139
0.050316699 0.049388833 0.0022171538
0.03152708 0.079982214 2.9099968e-18
0.048598953 0.02823827 4.4183555e-05
0.013673332 0.009241173 6.3433586e-19
0.051163252 0.0050000004 0.011998607
0.075862899 0 0.0024196163
0.11377208 0.046825372 0.0050000004
0.095901512 0.031171307 0.0050000004
0.096618012 0.090000004 0.0045965281
0.064326525 0 0.023398263
0.049641911 0.05041106 0.0034522917
0.0080138063 0.085746415 -1.0849378e-19
0.002398795 0.041968413 0.0050000004
0.028975483 0.07098192 0.0050000004
0.023272175 0.0091863656 1.8342931e-18
0.098564684 0.047458217 1.1525945e-17
0.085348397 0.054530062 9.2279798e-18
0.116 0.059697479 0.0018489396
0.00058613211 0.028018281 -1.0510651e-18
0.11471329 0.063810401 1.3190091e-17
0.049373027 0.066104725 0.0050000004
0.02036323 0.0057558571 0.0050000004
0.036518767 0.0050000004 0.0061041703
0.030369416 0.090000004 0.0028010074
0.044256572 0.015968112 0.0050000004
0.058905132 0.036630418 0.0050000004
0.050096165 0.087149873 5.2538732e-18
0.061798856 0.018607322 6.6298758e-18
0.013211163 0.044676725 1.0064852e-18
0.10459618 0.0041681612 1.1914331e-17
0.060005952 0.0072429851 6.3944089e-18
0.024889996 0.0050000004 0.018721215
0.039279472 0 0.022181956
0 0.074930318 0.001850379
0.10381486 0.020873774 1.193447e-17
0.024372302 0.063964508 2.0009338e-18
0.094479069 0.0036052947 1.0664223e-17
0.067651883 0.035586741 6.9957626e-18
0.060089003 0.0050000004 0.011366001
0.1036588 0.07434722 1.1800288e-17
0.025554102 0.090000004 0.00050873315
0.084293365 0.0050000004 0.011039421
0.062001556 0.026358217 0.0050000004
0.014610761 0.057357624 0.0050000004
0.023295451 0.026385307 0.00015179621
0.088765539 0.026455065 9.8698281e-18
0.093612976 0 0.0060977032
0.014082807 0.0050000004 0.010249472
0.094138965 0.087326087 0.0050000004
0 0.040382057 0.0030898533
0.10479766 0.067936145 0.0050000004
0.085478507 0.052342635 0.0050000004
0.051111415 0.063282974 0.0050000004
0.035468724 0 0.0095744887
0.01085548 0 0.017596239
0.040799532 0 0.022284573
0.0015102841 0.0155467 -9.5779098e-19
0.087233007 0.015158925 0.0050000004
0.034763813 0.00058056449 3.2182382e-18
0.056446783 0.018348666 5.9705967e-18
0.013568228 0.068965554 6.3434997e-19
0.082246885 0.065851726 0.0050000004
0.0675513 0.034318551 0.0050000004
0.081461184 0.057970576 8.7814801e-18
0.013394457 0.080409229 0.0050000004
0.00062988146 0 0.021104807
0.093685023 0.04240407 0.0050000004
0.026516 0 0.011805103
0.061644495 0.050948001 6.5052606e-18
0.0070341746 0.068598576 -1.1125122e-19
0.068112023 0.0050000004 0.023154512
0.076693825 0.0091076586 8.4724653e-18
0.0087736603 0 0.0043598372
0.058604516 0.017467435 0.0050000004
0.054197151 0.0050000004 0.011730893
0.011005953 0.018752526 3.5271677e-19
0.014059964 0.068335563 0.0050000004
0.098399498 0.0050000004 0.0089071197
0.058595575 0.079772413 6.4079436e-18
0.098348163 0.026432948 1.1245707e-17
0.065107092 0.00030960009 0.025
0.079890728 0.038570922 8.8052417e-18
0.01039646 0.090000004 0.0013702564
0.10148247 0.064332008 0.0050000004
0.0025725109 0.075891942 -6.663142e-19
0.098670565 0.034583341 0.0050000004
0.029679578 0.059293769 2.6786559e-18
0.015097636 0 0.021303289
0.0017188028 0.050613146 0.0050000004
0.0085117025 0.038141318 -2.5114217e-19
0.043529704 0 0.01817305
0.037805434 0.057737466 0.0028349329
0.057330821 0.065644734 0.0050000004
0.056055155 0.090000004 0.00049665559
0.1131648 0.052799594 0.0050000004
0.053049639 0 0.0022089931
0.116 0.037559628 0.0011215964
0.11150415 0.071144998 1.2859418e-17
0.011817575 0.068206377 0.0050000004
0.067832723 0.058119304 7.2160639e-18
0.0067898771 0.0050000004 0.017365625
0.079327293 0.025007781 0.0050000004
0.07447581 0.0050000004 0.018134546
0.056915093 0.012374588 0.0050000004
0.10907546 0.074659161 1.2468478e-17
0.037941772 0.0050000004 0.010822076
0.11172164 0.0057936884 0.0050000004
0.038461864 0.017834499 3.7549066e-18
0.00056726136 0.079665884 0.0050000004
0.065175444 0.0050000004 0.015875999
0.069310285 0.038513396 0.0050000004
0.11490064 0.0050000004 0.015151081
0.10297049 0 0.021604026
0.020763882 0.056776561 1.5712019e-18
0.010163726 0.01678546 2.259738e-19
0 0.036910865 0.0027857099
0.10268509 0.087917261 0.0050000004
0.019453723 0.051287003 0.0050000004
0.081424728 0.047942881 0.0050000004
0.010495386 0.0081580272 0.0050000004
0.0021957476 0.047432985 -8.8860767e-19
0.096178927 0.089772798 1.0686561e-17
0.0087738466 0.018211825 0.0050000004
0.081228524 0.057225589 8.7547555e-18
0.058370989 0.056842025 0.0050000004
0.098303467 0.0050000004 0.017276466
0.085845321 0.076564558 9.2808895e-18
0.095424883 0.08812575 1.0726602e-17
0.0058191284 0.033551287 -5.2290207e-19
0.022434715 0.090000004 0.0037160278
0.028839132 0.090000004 0.0047072927
0.041927531 0 0.0048125819
0.073680967 0 0.018681427
0.011022895 0.03981144 0.0033677951
0.025810272 0.084552094 2.1805019e-18
0.023327 0.074309438 0.0050000004
0.020388825 0.0799933 0.0050000004
0.07393416 0.068157718 0.0050000004
0.026257718 0.075216703 2.2192218e-18
0.028081613 0 0.0081845224
0.116 0.027605634 0.0015443147
0.11443023 0.012680091 0.0050000004
0.046600569 0 0.011250546
0.0055952598 0.035565358 0.0050000004
0.0078608468 0.018156026 0.0050000004
0.0095905112 0.062998198 2.4269184e-19
0.048690643 0 0.0014033878
0.098717056 0.039760645 1.1502908e-17
0.017506985 0.067958944 1.1297439e-18
0.062929615 0.038866546 6.3744015e-18
0.069548324 0.014798258 0.0050000004
0.031945221 0.081550784 2.9672491e-18
0.00089368114 0.064039439 0.0050000004
0.022121495 0.0050000004 0.015296224
0.087841317 0.0063695833 9.8481361e-18
0.01058017 0.072731942 0.0050000004
0.037781991 0.081492238 3.7214827e-18
0.076829195 0.0050000004 0.023064988
0.019322347 0.050160412 0.0050000004
0.087060086 0 0.010681519
0.077265017 0.023154197 0.0050000004
0.075815156 0.0033202004 8.3405101e-18
0.010265265 0.056742802 0.0050000004
0.068202078 0.017668175 7.4195901e-18
0.028747862 0 0.014037526
0.116 0.048849955 0.0020538021
0.095843136 0.035170056 0.0050000004
0.072463267 0.083699621 8.2082638e-18
0.069055699 0.043891679 0.0050000004
0.094911009 0.016383823 0.0050000004
0.090650544 0.020956058 0.0050000004
0.070920244 0.062012911 7.5707077e-18
0.11159464 0.068536974 1.2868742e-17
0.018424504 0 0.006216397
0.081619352 0.053347856 0.0050000004
0.081159487 0.077052496 0.0050000004
0.071787365 0.029341726 7.4906713e-18
0.024203489 0.073099032 0.0050000004
0.015852449 0.048484948 0.0050000004
0.0062307399 0.0047393017 0.017229151
0.092000008 0.054746211 0.0011826186
0.058763072 0.038682036 5.7728009e-18
0.055873074 0.049546987 5.8227547e-18
0.10903016 0.035590928 1.2604495e-17
0.05123559 0.065370522 0.0050000004
0.049445804 0.0050000004 0.019224575
0.078484334 0.014710618 8.6888069e-18
0.014949557 0.045057952 0.0050000004
0.040528644 0.08544112 4.0845471e-18
0.047372386 0.022722894 4.8491222e-18
0.055294123 0.02684561 5.8222861e-18
0.022532435 0.022446817 0.0050000004
0.061908737 0.027630227 6.5189773e-18
0.030407825 0.0050000004 0.013763728
0.0048509049 0.063566945 0.0050000004
0.08794722 0.047259249 1.0083634e-17
0.098377638 0.01058416 0.0050000004
0.10927827 0.0014440751 0.012880511
0 0.033861589 0.0048450064
0.116 0.021017406 0.0049252375
0.040710874 0 0.016201971
0.02057272 0.0036259561 1.4687902e-18
0.086381659 0.021750133 9.4458955e-18
0.099920183 0.083214454 0.0050000004
0.05587884 0.054948993 5.8399121e-18
0.0038459846 0.0030846859 0.014226609
0.059747569 0.016894024 0.0050000004
0.092000008 0.052491389 0.0046907016
0.11594567 0.042475503 0.0050000004
0.11528205 0.014416996 1.3248698e-17
0.026740573 0.010018498 0.0050000004
0.11194913 0.028382394 1.290527e-17
0.065462269 0.063387305 6.9344155e-18
0.066113755 0.080551289 7.381199e-18
0.048901711 0.025298569 0.0050000004
0.047084771 0.026714539 0.0016266103
0.051203564 0.028571673 5.3169375e-18
0.040351637 0.0050000004 0.023364019
0.04901278 0.051225804 3.3062945e-05
0.038197927 0.022335036 0.00093517936
0.071979411 0 0.013512012
0.074189149 0.014786809 0.0050000004
0.10970767 0.025826806 1.2674305e-17
0.030752867 0 0.016150707
0.064260177 0.038515557 0.0049999999
0.020395579 0.050460793 0.001636676
0.081215754 0.090000004 0.0032160997
0.062767394 0.051920649 0.0050000004
0.060200978 0.066094056 0.0050000004
0.11444498 0.07925719 0.0050000004
0.033486146 0.0050000004 0.01952561
0.11221498 0.0050000004 0.013941178
0.070055224 0.011207568 7.6528608e-18
0.028857244 0.0050000004 0.0056153131
0.116 0.06876187 0.0033938077
0.034112282 0.063776344 0.0030634587
0.037100572 0.011144284 0.0050000004
0.024363045 0.054503154 0.0014942718
0.057660975 0.031247422 0.0050000004
0.06558983 0.0050000004 0.022088399
0.03449747 0.022017669 0.0046889354
0.11218138 0.039507717 1.2929199e-17
0.061103351 0.0080792867 0.0050000004
0.0062873517 0.022579344 0.0050000004
0.022662697 0.026911886 0.0031545109
0.067476854 0.037623346 7.0059278e-18
0.1147474 0.076135293 1.3193606e-17
0.0044741142 0.0035938765 0.016684055
0.035220582 0 0.0080038588
0.08043357 0.081987299 9.2348536e-18
0.075266391 0.041410889 0.0050000004
0.049183737 0.079281837 0.0050000004
0.053502779 0.033586074 5.3947396e-18
0.098852277 0.037660751 0.0050000004
0.050326839 0.077099234 5.3338066e-18
0.066111475 0.0061727609 7.148365e-18
0.044972125 0 0.011721117
0.043434273 0.01908171 4.3666501e-18
0.044152346 0.065431155 0.0050000004
0.030933082 0.061543636 2.829735e-18
0.086717419 0.086379595 9.8005964e-18
0.082662441 0.00063035695 9.1781248e-18
0.066053137 0.03081486 0.0050000004
0.07554891 0.025475755 0.0050000004
0.095752887 0.0079445448 0.0050000004
0.052065633 0.046926044 5.3612442e-18
0.031510014 0.080829434 0.0050000004
0 0.050932128 0.0043044453
0.056685548 0.0041387849 0.025
0.026760371 0.006939318 0.0050000004
0.03812829 0.065644778 3.7338011e-18
0.055781353 0.079574175 0.0050000004
0.088200785 0.043877359 0.0050000004
0.10559854 0.035205305 1.2250896e-17
0 0.0406803 0.0039697331
0.09005563 0.069511563 9.7686689e-18
0.0016086621 0.013081961 0.0050000004
0.099240959 0.081480011 1.1479034e-17
0.073679067 0.03620559 0.0050000004
0.098397449 0.090000004 0.0038080455
0.043617789 0.0698651 4.4519105e-18
0.11173814 0.082690775 1.2796942e-17
0.074140221 0 0.00085910241
0.0527776 0.070661783 0.0050000004
0.11403377 0.0050000004 0.011937504
0.09126842 0.038511626 0.0050000004
0.048493341 0.025662083 4.984999e-18
0.11297816 0.04912857 1.3011303e-17
0.10450582 0.0089398026 0.0050000004
0.029284444 0.064391978 0.0050000004
0.054768 0.019282708 0.0050000004
0.035291903 0.057953294 0.00010598854
0.03802067 0 0.013559472
0.098383039 0.047070883 0.0050000004
0.024550956 0 0.0084033366
0.00082479895 0.05509185 -1.0269767e-18
0.10300264 0.0304642 0.0050000004
0.0053045517 0.059556384 0.0050000004
0.0096010705 0.089421712 9.5566341e-20
0.10309043 0.0064761429 1.1703644e-17
0.090698339 0 0.004648733
0.027578732 0.020352609 0.0050000004
0.090325154 0.053850938 0.0050000004
0.070384309 0.0012654829 7.653846e-18
0.0042461311 0.075653508 -5.2120035e-19
0.012034217 0.057973161 0.0050000004
0.037133615 0 0.021829376
0.010346435 0.00038139816 0.025
0.028777231 0 0.013594431
0.1095352 0.027346721 0.0050000004
0.020040713 0.076624535 0.0050000004
0.08831612 0.059561264 9.5688634e-18
0.085419841 0.015305533 9.4889337e-18
0.077107519 0.02784808 8.2196416e-18
0.028625337 0.019619826 0.0050000004
0.040126525 0.086969465 4.034159e-18
0.08921317 0 0.017276948
0.062140498 0.00062170182 6.624708e-18
0.035408393 0.06567996 3.3823486e-18
0.065778479 0.033648357 6.6961069e-18
0.012547505 0.0085814195 0.0050000004
0.03040053 0.0050000004 0.023871856
0.087350957 0.01005609 9.7849006e-18
0.116 0.084882013 0.0037446076
0.089733444 0.078406125 9.7315508e-18
0.054650042 0.089290686 5.6394895e-18
0.012330633 0.0049999999 0.016739903
0.04399389 0.055561617 0.0015402148
0.11538363 0.0050000004 0.013126271
0.024599968 0.0050000004 0.022077898
0.084796757 0 0.020403014
0.019555598 0 0.0025276099
0.071816385 0.0050000004 0.010410353
0.096086413 0.0048470492 1.0865249e-17
0.033066858 0.066264503 0.0050000004
0.0053993142 0.057038307 0.0050000004
0.047611617 0.023485914 4.8780177e-18
0.077809222 0.036673624 8.4734066e-18
0.045045961 0.0050000004 0.0065020942
0.074208118 0.073362298 0.0050000004
0.058539119 0.041265264 0.0010746996
0.059214998 0.072108947 0.0050000004
0.0011967408 0.073317215 0.0050000008
0.099050008 0.059519242 0.0050000004
0.087543443 0.010788868 0.0050000004
0.084929824 0 0.01047885
0.062851883 0.028264366 0.0050000004
0.038056552 0.068034843 0.0050000004
0.084443748 0.028677234 9.2876476e-18
0.089341342 0.081479907 0.0049999999
0.0048831366 0.039494667 -6.1737111e-19
0.091199167 0.022091562 1.0143708e-17
0.050279871 0.067839928 5.3082409e-18
0.10277642 0.082506873 1.1650338e-17
0.0062680934 0.079349324 0.0050000004
0.077580377 0 0.0072121406
0.033444624 0 0.0073062452
0.062023539 0.049071301 6.505108e-18
0.012866867 0.06995903 5.4360893e-19
0.093258701 0.038301539 0.0050000004
0.10418484 0.0050000004 0.021055114
0.011108444 0.057056669 0.0050000004
0.078962952 0 0.023937352
0.10326087 0.010673587 1.1678095e-17
0.014340422 0.038535025 0.00088320032
0.11398322 0.035828959 0.0050000004
0.055204388 0.0050000004 0.021545529
0.095440663 0.088277839 0.0050000004
0.00035104828 0.038135309 -1.074792e-18
0.083864249 0.044127878 0.0050000004
0.021516155 0.01615669 1.639771e-18
0.041007355 0.00087438035 0.025
0.099834412 0.090000004 0.00066181162
0.069108248 0.076547004 0.0050000004
0.083643124 0.028847184 0.0050000004
0.116 0.023424475 0.0018281834
0.08289434 0.026941692 0.0050000004
0.067081757 0.0065364954 7.2710268e-18
0.095330864 0.090000004 0.0048473668
0.097664282 0.0067171473 0.0050000004
0.084112421 0.090000011 0.00062831712
0.080784373 0.0010284028 8.9465754e-18
0.044982929 0.058512338 4.5366005e-18
0.071618937 0.089643098 7.6892534e-18
0.079567872 0.027475597 8.5665438e-18
0.116 0.059839122 0.00064017327
0.097160824 0.012924908 1.0841027e-17
0.116 0.023386704 0.0032393101
0.1051387 0.038639933 1.2203516e-17
0.0014257616 0.052391555 0.0050000004
0.028225558 0.078745373 0.0050000004
0.035692874 9.1683087e-06 3.3307885e-18
0.027070601 0.082732394 2.3396634e-18
0.10965244 0.083357513 1.2535448e-17
0.064108409 0.082328133 7.1256614e-18
0.10605253 0.090000004 0.0012425836
0.0071434914 0.069268674 -1.1909638e-19
0.11213108 0.082649633 1.2845414e-17
0.0016262892 0.020410245 0.0050000004
0.093797997 0.047267485 0.0026182833
0.074309178 0.059957016 0.0050000004
0.016335661 0.0050000004 0.0095001562
0.098247692 0.0050000004 0.013194757
0.022660473 0.011351973 0.0050000004
0.080772683 0.06038041 0.0050000004
0.0084209563 0.019981485 1.6573644e-19
0.019797018 0.05778442 0.0050000004
0.079683729 0.017930526 8.7797174e-18
0.021599736 0.060875922 1.6622424e-18
0.1084144 0.063675582 1.2541045e-17
0.050271567 0 0.0017551554
0.096225113 0.044678271 1.1234754e-17
0.00036167863 0.0046152766 0.025
0.098654084 0.035314415 1.1443596e-17
0.014387059 0.043955415 1.1368756e-18
0.046517842 0.015418955 0.0050000004
0.014207797 0.0050000004 0.011526884
0.06228058 0.072505407 6.8693251e-18
0.053804263 0.025301259 0.0050000004
0.043526348 0.010638843 0.0050000004
0.098970018 0.061949357 0.0050000004
0.097598188 0.035939585 1.1302785e-17
0.011231191 0.060773484 4.3525122e-19
0.060333196 0.081708074 6.6364783e-18
0.028726194 0.0046458123 0.025
0.0072192834 0.055912349 1.5764544e-19
0.060854867 0.043245006 6.0817044e-18
0.11238697 0.075485915 1.2950384e-17
0.1157821 0 0.021550231
0.063759834 0.031697948 0.0050000004
0.06239425 0.081269644 6.9019557e-18
0.0019741703 0.069067806 0.0050000004
0.10184308 0.02354694 1.1697622e-17
0.059816301 0.061443977 6.2766535e-18
0.057806883 0.041818772 0.0021997544
0.10113224 0 0.0018155577
0.11092959 0.018128544 0.0050000004
0.043692615 0 0.015198243
0.034641877 0.0050000004 0.023674157
0.116 0.028243273 0.0020098719
0.020567525 0.08596205 0.0050000004
0.094513237 0.090000004 0.0039563272
0.081218734 0.0072420822 9.0314441e-18
0.014267123 0 0.01858501
0.04919469 0.064037219 0.0050000004
0.10502262 0.0050000004 0.020882959
0.10893071 0 0.018226068
0.082470231 0 0.014595155
0.008082483 0 0.001056903
0.032525923 0.0050000004 0.019902375
0.014848956 0.016764717 0.0050000004
0.092018314 0.01760966 1.0183665e-17
0.1011565 0.084450155 0.0050000004
0.016985035 0 0.015219938
0.066836856 0.0083612688 7.2502803e-18
0.062900215 0 0.0057240543
0.10001861 0.015552658 0.0050000004
0.033530075 0.0082629826 0.0050000004
0.063466698 0.056789123 6.7145658e-18
0.023216138 0.01333145 1.8449012e-18
0.012308281 0.075598486 0.0050000004
0.01720907 0.058680445 1.1204352e-18
0.085148752 0.044600066 9.6649139e-18
0.010453992 0.03700548 0.0050000004
0.0028324004 0 0.0090458635
0.11375813 0.063903846 1.3091671e-17
0.077339374 0.029564185 0.0050000004
0.095014855 0.0013208395 0.025
0.10017035 0.032564037 0.0050000004
0.01124152 0.02390736 5.16188e-19
0.024532817 0.056168329 0.0050000004
0.10787015 0.041377902 1.2484965e-17
0.014950502 0.040407639 0.0044128797
0.092000008 0.058240965 0.0040295059
0.062037982 0.020246482 0.0050000004
0.091980554 0.014901157 0.0050000004
0.0032585573 0.015752818 -7.8133883e-19
0.081151679 0.003306719 0.025
0.068285264 0.054262143 7.2680448e-18
0.012324252 0.069400243 4.7780847e-19
0.041814905 0 0.0028184389
0.0038005968 0 0.016784737
0.099807471 0.058069278 1.1325196e-17
0.072145388 0.059334885 7.7114334e-18
0.092821836 0.047950957 0.0046778
0.087921426 0.059296321 9.5235281e-18
0.038770363 0.016428852 3.7939917e-18
0.069648154 0.022807186 0.0050000004
0.043234065 0.011916967 4.3325342e-18
0.014116007 0.010147299 0.0050000004
0.074514814 0.021379953 8.0969823e-18
0.10992242 0.029819665 0.0050000004
0.010847185 0.058792032 0.0050000004
0.086112618 0.01137867 0.0050000004
0.062206987 0.030669451 6.4279833e-18
0.036019765 0 0.019950692
0.063559122 0.0054337936 6.8268585e-18
0.0040266057 0.065295286 0.0050000004
0.011558882 0.047987014 0.0050000004
0.10303486 0.048886705 1.1986731e-17
0.060577068 0.0050000004 0.020926652
0.086532705 0.090000004 0.0037481359
0.073199235 0.040260255 0.0049999999
0.023896238 0.081245437 1.9263605e-18
0.091269672 0.062997222 0.0050000004
0.10727944 0.067686163 0.0050000004
0.063756384 0.089588441 6.730762e-18
0.059560888 0.079628028 0.0050000004
0.0079027507 0.047664851 0.0050000004
0.099956118 0.033856373 0.0050000004
0.022166591 0 0.010193138
0.062668473 0.017011011 6.7382464e-18
0.099179707 0.026833093 0.0050000004
0.048528295 0.069564216 0.0050000004
0.079558402 0 0.014562233
0.033078011 0.061468922 0.0017263411
0.10887798 0.045645416 1.2588815e-17
0.087814838 0.022911847 9.671868e-18
0.049632758 0 0.0052682115
0.033083059 0.064371675 0.0050000004
0.069214433 0.026691506 0.0050000004
0.11484365 0 0.022228181
0.069385976 0.087722987 0.0050000004
0.11557613 0.046230517 0.0050000004
0.04810812 0 0.012471245
0.004062607 0.029461181 0.0050000004
0.085286044 0.018124277 9.3613593e-18
0.053742509 0.064013325 0.0050000004
0.06410145 0.00052556657 0.025
0.0076577207 0.0046224189 -1.348242e-19
0.053876199 0.010487568 5.6490269e-18
0.014038232 0.045820635 0.0050000004
0.064838603 0.065377243 0.0050000004
0.097626694 0.0050000004 0.012165391
0.116 0.036162838 0.0020330742
0.092748821 0.0089401351 1.045087e-17
0.028601125 0.081469245 0.0050000004
0.08178924 0.0079474151 9.1012019e-18
0.092796512 0 0.017245207
0.058799624 0.0050000004 0.017126454
0.10139174 0.0096786777 1.1395968e-17
0.04069183 0.0050000004 0.018813729
0 0.072330385 0.0032412121
0.10288649 0.01421951 0.0050000004
0.040294398 0.0050000004 0.010386708
0.097419746 0.085034527 0.0050000004
0.10532293 0.070300281 0.0050000004
0.039251819 0.01596776 3.8536773e-18
0.11028483 0.071972765 1.2733777e-17
0.087346472 0.03884891 9.8808577e-18
0.084833354 0.056585643 9.1688198e-18
0.064882681 0.058895741 6.8772102e-18
0.10860042 0.047428776 0.0050000004
0.085904628 0.0050000004 0.022738082
0.034809973 0.070273899 3.3144112e-18
0.051229045 0 0.019034479
0.067735076 0 0.0062064896
0.075292557 0.048775293 8.013471e-18
0.070071124 0.06670849 7.4634447e-18
0.084527835 0.053622387 9.1337258e-18
0.054540575 0.0050000004 0.005189551
0.014069095 0.072024867 6.8794688e-19
0.017287862 0.024293358 1.1360888e-18
0.076966867 0.061197616 0.0050000004
0.10095341 0.0050000004 0.01613831
0.048265178 0.0029783486 4.910877e-18
0.038628638 0.063152239 0.0050000004
0.080198742 0.0050000004 0.0092676645
0.07751289 0 0.017165756
0.087500885 0.0055364417 0.0050000004
0.052630231 0.075130723 0.0050000004
0 0.0011708644 0.019739285
0.099997565 0.045611423 1.1673762e-17
0.019266257 0.052146774 1.3958153e-18
0.061684057 0 0.0070838872
0.011238232 0.030959416 0.0050000004
0 0.034997303 0.00049534248
0.01776739 0.0050000004 0.015777854
0.012666584 0.0084006432 0.0050000004
0.032553341 0.058578692 3.0310402e-18
0.050963275 0.082003437 0.0050000004
0.093161091 0 0.024257094
0.092000008 0.076145329 0.000846487
0.11336699 0.0050000004 0.013112636
0.070858881 0.039396085 0.0049999999
0.10961492 0.032898948 0.0050000004
0.030438283 0.089673452 0.0050000004
0.049688008 0.06731005 5.0762159e-18
0.096363842 0.000550394 0.025
0.116 0.00031290433 0.0067514507
0.0060200579 0.0050000004 0.017415589
0.082511038 0.012837367 0.0050000004
0.034283265 0 0.001780565
0.029729104 0.0024941023 0.025
0.026621763 0.07683672 2.2695874e-18
0.091914088 0.07654722 9.9821385e-18
0.0060390155 0.011786714 0.0050000004
0.10156935 0.040252123 1.1835723e-17
0.053844422 0.042672418 0.0050000004
0.09408132 0.083321057 1.0948251e-17
0.086741969 0.011194977 9.7089903e-18
0.10215272 0.075938381 1.1614502e-17
0.057722632 0.086637959 0.0050000004
0.021970488 0.0078709954 1.6653251e-18
0.049555514 0 0.018840799
0.035242144 0.022044884 0.0027600983
0.10150283 0 0.0034527271
0.010448248 0.0050000004 0.0077484488
0.020246137 0.057246964 1.5050511e-18
0.11325317 0.074362323 1.3039639e-17
0.028202796 0.012141087 0.0050000004
0.010780437 0.061431032 0.0050000004
0.068839595 0.062132001 7.331717e-18
0.10136669 0.082950152 0.0050000004
0.0058717555 0.027906705 0.0050000004
0.086361505 0.058120187 9.3443492e-18
0.038058251 0 0.019071657
0.066997088 0.053287081 0.0050000004
0.086641721 0.080177754 1.0033502e-17
0.085755602 0.074756935 0.0050000004
0.013109762 0 0.016669348
0.05767316 0.031812534 0.0050000004
0.062457729 0.012361335 6.715826e-18
0.0075736274 0.028026082 -3.4582157e-19
0.098000005 0.078190498 0.0022323183
0.10083953 0.0050000004 0.022496663
0.10419958 0.017680762 1.1934376e-17
0.054780263 0 0.011926971
0.069062151 0.05003405 0.0050000004
0.10751745 0.025550343 1.2448623e-17
0.0043706601 0.034834348 -6.6909513e-19
0.086763725 0.0050000004 0.0081556914
0.10932598 0.044146355 1.2634976e-17
0.065390736 0.028676735 0.0050000004
0.054501783 0.016176686 5.7325924e-18
0.041942164 0 0.011064897
0.0011329046 0.051948871 0.0050000004
0.097922765 0.04936384 0.0026738488
0.1141274 0.038596172 1.3129723e-17
0.10472559 0.0049999999 0.0080236215
0.072834037 0.0074030259 0.0050000004
0.11040192 0.0050000004 0.022893045
0.11011504 0.077514835 0.0050000004
0.053383525 0.01122046 5.5916334e-18
0.0057714242 0.063946068 0.0050000004
0.086497001 0.089113399 9.5538682e-18
0.050732538 0.069654964 0.0050000004
0.024588136 0.085568964 2.0246329e-18
0.073466271 0.0050000004 0.012782014
0.085118838 0 0.014018679
0.10557438 0.044467062 0.0050000004
0.098735198 0.0050000004 0.01339076
0.017394869 0.036329292 0.00064567686
0.080656178 0.025625227 8.6907698e-18
0 0.071031511 0.00074170477
0.01188357 0.057208776 0.0050000004
0.10368519 0.030335102 1.203876e-17
0.012435919 0.013215809 0.0050000004
0.077987023 0.072282322 8.3723706e-18
0.089588933 0.021587595 9.9037094e-18
0.034715686 0.021889767 3.29583e-18
0.11160548 0.040361129 1.286986e-17
0.023086593 0.088680051 0.0050000004
0.014852801 0.054962985 0.0050000004
0.016092194 0.042141743 0.0050000004
0.065540627 0 0.023424909
0.046691768 0.061206225 4.7263988e-18
0.06415198 0.070403948 6.746914e-18
0.054740753 0.029849201 5.6754578e-18
0.019738622 0.018015878 1.4223241e-18
0.06951458 0.029483343 7.244605e-18
0.116 0.035784621 0.0045376313
0.0095051387 0.085049443 0.0050000004
0.052629054 0.060082901 5.432311e-18
0.085340567 0.0050000004 0.014052452
0.085529491 0.018705357 0.0050000004
0.051089887 0.0050000004 0.0088585513
0.075270534 0.062470429 8.0703984e-18
0.10968199 0.0050000004 0.018971497
0.10962027 0.0041957642 0.012796218
0.0077439998 0 0.017591259
0.010784191 0.0088920631 0.0050000004
0.046479203 0.019226059 0.0050000004
0.10970648 0.0050000004 0.0077306512
0.089252532 0.058427241 9.6764225e-18
0.089771144 0 0.015925797
0.003182028 0.064515196 -7.8906294e-19
0.080710903 0.023538653 8.6670322e-18
0.10379541 0.0050000004 0.0055166264
0.052929908 0.0050000004 0.0090367086
0.09097667 0.050159037 9.8744644e-18
0.061285589 0.073020495 6.7417846e-18
0.085016988 0.051892117 9.1899121e-18
0.066371076 0.0050000004 0.015400708
0.093131796 0.0050000004 0.0077112508
0.098250195 0.074806437 1.1133093e-17
0.043458011 0.020290632 4.3686522e-18
0.046113629 0.0049528964 4.6537008e-18
0.056382988 0.047074448 0.0050000004
0.10941645 0.055615176 1.2644299e-17
0.028229263 0.090000004 0.0023645766
0.014352477 0.090000004 0.0025038891
0.050847381 0.048443254 0.0045719948
0.077158652 0.0050000004 0.021358529
0.08849021 0.080933675 0.0050000004
0.066874579 0.010697917 7.2613339e-18
0.063678257 0.090000004 0.0025911313
0.071941696 0.013604813 7.8834821e-18
0.080615744 0 0.020994144
0.066341177 0.0077595767 0.0050000004
0.06121999 0 0.010207814
0.067102 0.082516752 7.512944e-18
0.086778812 0.042065445 0.0050000004
0.092491366 0.090000004 0.0037138979
0.042023979 0.0050000004 0.020567069
0.077045843 0.00067237427 8.4795228e-18
0.058724109 0.081660748 6.4284201e-18
0 0.0011583389 0.016688021
0.0064003416 0.047586519 0.0050000004
0.018530523 0.081017561 1.2324206e-18
0.001455565 0.046525732 0.0050000004
0.11499669 0.083435647 1.3198911e-17
0.09436994 0.089100718 1.0519043e-17
0.085304908 0.0019635279 0.025
0.10303216 0.084830366 1.1853309e-17
0.10873493 0.044303332 1.2574075e-17
0.011506452 0.0065541393 0.0050000004
0.0047294754 0.071592525 -3.7843048e-19
0.027604043 0.015066816 0.0050000004
0.054009967 0.00024618959 5.611092e-18
0.021415828 0.082586341 1.6085332e-18
0.10923938 0.035088647 0.0050000004
0.069932558 0.019630892 0.0050000004
0.01665017 0.057500362 0.0050000004
0.064544618 0 0.015119725
0.064646423 0 0.0071991542
0.034149703 0.078911364 3.2467569e-18
0.079700671 0.055395983 8.5792609e-18
0.084268101 0.059054557 0.0050000004
0.11187109 0.010353415 0.0050000004
0.045978714 0.024358608 0.0050000004
0.077587835 0.0050000004 0.0062982533
0.028933965 0.058178019 2.5877942e-18
0.061931178 0 0.020139996
0.058630075 0.034120888 0.0050000004
0.0026923332 0.031358127 -8.384876e-19
0.10623369 0.0021143481 1.211767e-17
0.084899023 0.078382216 0.0050000004
0.099012546 0.0050000004 0.012760624
0.024860408 0.060660515 2.0709701e-18
0.11035795 0.084266588 1.2597641e-17
0.015285368 0.074913278 8.3263985e-19
0.040722404 0 0.0050104652
0.066822305 0 0.014390072
0.065377258 0 0.013834597
0.022512818 0.062680028 0.0050000004
0.098251797 0 0.015790123
0.095170982 0.082978129 0.0022626093
