# .PCD v0.7 - Point Cloud Data file format
VERSION 0.7
FIELDS x y z
SIZE 4 4 4
TYPE F F F
COUNT 1 1 1
WIDTH 1000
HEIGHT 1
VIEWPOINT 0 0 0 1 0 0 0
POINTS 1000
DATA ascii
0.052747089 -0.0050000036 0.074169695
0.05921904 -0.0050000022 0.035283614
0.050552011 -4.4314286e-10 0.010137927
0.092 -0.0015453069 0.072307177
0.047465168 -2.4113238e-09 0.055164665
0.077348232 -0.0050000041 0.08588513
0.10237882 -3.8706194e-10 0.0088549443
0.020514352 -3.5683632e-09 0.081634633
0.032708045 -2.6999474e-09 0.061767604
0.09873011 -1.6127444e-09 0.03689529
0.116 -0.015804091 0.0017741683
0.083538093 -2.6830713e-09 0.061381519
0.035056803 -0.024999999 0.003557462
0.10034705 -0.0050000013 0.022194223
0.0080837328 -0.0077506267 0.0049999999
0.030410685 -6.4350658e-10 0.014721715
0.009219422 -6.7269051e-10 0.015389365
0.061094809 -5.7817345e-10 0.013227065
0.0045026112 -0.0050000031 0.063547894
0.043811906 -0.0033826868 0.090000004
0.040750992 -2.8850511e-09 0.06600228
0.055997927 -0.0050000036 0.078842819
0 -0.0043596146 0.050997499
0.077946782 -0.016735693 -7.3154038e-10
0.0042665717 -0.024136659 0.0049999994
0.010664808 -0.0050000013 0.021875864
0.065882325 -0.005528695 -2.4166691e-10
0.099432059 -2.7486788e-09 0.062882438
0.046358932 -0.0050000041 0.083154798
0.0044889632 -0.0050000018 0.034120187
0.059363287 -0.0050000031 0.05747769
0.032187834 -0.0050000031 0.064778551
0.015256014 -0.011082875 0.0049999999
0.050703656 -0.0050000041 0.088921368
0.057670884 -0.0050000031 0.051167261
0.013818465 -0.0050000031 0.068720795
0.015467561 -0.0071612569 -3.1302849e-10
0.072965994 -2.1293773e-09 0.048714481
0.0025643683 -2.1702988e-09 0.049650654
0.11030045 -0.012468321 0.0049999999
0.074961856 -1.4598274e-09 0.033396959
0.11212227 -0.0050000008 0.0074948473
0.10764575 -0.0050000022 0.038277399
0.0030324699 -0.0029180294 0.089767948
0.05413343 -0.021434799 -9.3694474e-10
0.0082498379 -0.0050000022 0.029238222
0.11237917 -3.5871424e-09 0.082064249
0.087395839 -0.0050000031 0.07311675
0.0065498548 -2.817981e-09 0.064467892
0.061271854 -0.0050000018 0.023682004
0.10048372 -0.001100632 -4.8110155e-11
0.085302681 -1.8427291e-09 0.042156726
0.011199939 -1.250259e-09 0.028602591
0.043877728 -0.0050000031 0.073105656
0.10881492 -3.0952447e-09 0.070810944
0.02102465 -2.3840623e-09 0.054540988
0.081360072 -0.0050000036 0.073962741
0.011194322 -1.575122e-09 0.036034588
0.046538807 -0.021976097 -9.606056e-10
0.11204637 -0.015935695 0.0041385717
0.06154808 -2.6764166e-09 0.061229274
0.1006904 -0.018648986 0.0049999994
0.041381285 -0.0030271055 0.056790914
0.058710657 -0.0050000031 0.058910064
0.040805385 -0.0050000013 0.018310457
0.10452677 -0.0050000004 0.0076403562
0.030111007 -0.0050000031 0.065735936
0.11131784 -0.0050000004 0.0062305913
0.066112258 -0.017475758 -7.6388962e-10
0.012245275 -0.0050000041 0.087645255
0.055367537 -0.0042348346 -1.8511048e-10
0.063323185 -3.4308685e-09 0.078489125
0.019835752 -3.1179481e-10 0.0071330341
0.052496698 -0.0041595851 -1.8182124e-10
0.11599999 -0.024712594 0.0036199107
0.014925457 -0.0037601225 0.040521942
0.029912828 -0.0069588237 0.0050000004
0.058294237 -0.024248436 0.0049999994
0.1024542 -0.016658856 0.0049999999
0.1005223 -0.019050201 -8.3271079e-10
0.041327301 -0.019341512 -8.4544444e-10
0.080226943 -2.1288502e-09 0.048702419
0.013471027 -0.0027306264 -1.1935947e-10
0.10657768 -0.0050000027 0.05235374
0.013193531 -3.7143588e-10 0.0084974626
0.06433437 -0.011546982 -5.0473464e-10
0.074933276 -0.0050000008 0.017062329
0.11225756 -0.0050000031 0.062376238
0.038787778 -0.0046144063 0.057556018
0.0054752193 -0.0050000036 0.076859362
0.087459095 -1.1990661e-09 0.027431434
0.090251096 -0.020059738 -8.7683905e-10
0.085084245 -0.0050000022 0.03665803
0.010874601 -1.7576872e-09 0.040211197
0.045558024 -0.0050000041 0.083770119
0.0028693434 -0.024146862 0.0049999994
0.07012964 -0.0050000018 0.036659546
0.1073655 -0.0050000022 0.037774023
0.086450182 -0.0050000031 0.051274348
0.01919443 -2.4259514e-09 0.055499304
0.089954317 -2.2981403e-09 0.052575327
0.014984561 -0.0050000041 0.077495441
0.099275738 -2.9190315e-09 0.066779658
0.10406831 -0.025 0.0021096591
0.064709738 -0.025 0.0045133191
0.11386498 -0.0050000031 0.069085836
0.016789556 -0.0094789192 -4.1433673e-10
0.015050993 -0.0050000018 0.031089211
0.081190191 -0.025 0.0047593107
0.049284343 -2.3552795e-09 0.053882509
0.086095266 -0.0050000041 0.085251108
0.076456182 -0.0050000022 0.045582004
0.024168679 -0.010807002 0.0050000004
0.015040368 -3.5010796e-09 0.080095373
0.093461476 -1.3866961e-09 0.031723909
0.074182846 -2.8703866e-09 0.06566678
0.0066779102 -0.021291658 0.0049999994
0.080482729 -3.7395744e-09 0.085551485
0.069997251 -0.025 0.00023192298
0.06288486 -0.0097193113 -4.2484458e-10
0.092 -0.0022909178 0.060414821
0.056011055 -0.010673562 0.0050000004
0.10158271 -0.0050000004 0.0098733334
0.043800537 -5.7297217e-10 0.013108077
0.10224184 -0.013921544 0.0049999999
0.078304246 -0.0050000022 0.040484626
0.0034076967 -0.0050000041 0.077729791
0.032214448 -0.022531772 0.0049999994
0.019027703 -2.871156e-09 0.065684393
0.048054419 -7.2157269e-10 0.016507659
0.084048688 -2.387939e-09 0.054629676
0.066807605 -1.750006e-09 0.040035471
0.042970911 -0.022684963 0.0049999994
0.09130767 -0.023795046 0.0049999994
0.037353754 -0.013832927 -6.0465644e-10
0.010686757 -6.4091316e-10 0.014662384
0.082343005 -0.010001902 0.0049999999
0.050694827 -0.0015884008 0.048715066
0.08129669 -3.564486e-09 0.081545934
0.0574544 -9.4106811e-10 0.021529131
0.060916375 -0.025 0.00041129932
0.075106375 -2.2797682e-09 0.052155014
0.0798674 -2.1540129e-10 0.0049278075
0.10885739 -2.6808733e-09 0.061331235
0.070678547 -0.012351517 -5.3990196e-10
0.028503548 -3.5623549e-09 0.081497177
0.10178088 -6.7094991e-10 0.015349544
0.013842801 -0.0050000013 0.028407404
0.035507653 -3.546527e-10 0.008113509
0 -0.00056471414 0.023517858
0.092 -0.0043962789 0.07775493
0 -0.0020375971 0.040063422
0.070708141 -1.9355155e-09 0.044279438
0.082855657 -0.0050000041 0.085174359
0.10950658 -0.0050000018 0.037055936
0.033615656 -0.003080447 0.090000004
0.044984296 -0.010829086 -4.7335441e-10
0.046436045 -0.012068564 0.0049999999
0.014642479 -0.0050000022 0.043013535
0.11287311 -3.1511667e-09 0.07209029
0.0025936323 -1.2046235e-09 0.027558574
0.011282545 -0.016060606 -7.0203127e-10
0.060135767 -2.0617166e-09 0.047166578
0.059865266 -0.0050000041 0.081602499
0.035687819 -0.021703241 -9.4867869e-10
0.047306374 -5.3590005e-10 0.012259965
0.06306237 -1.7786459e-09 0.040690675
0.083695762 -0.018038131 -7.8847168e-10
0.022870205 -0.012570905 0.0049999999
0.011553637 -0.0009920547 0.041371129
0.059191078 -3.1765548e-09 0.0726711
0.078790247 -0.0050000031 0.05888433
0.085021481 -0.0050000027 0.053161796
0.094009571 -0.024967583 -1.0913678e-09
0.088993482 -0.0050000031 0.062904559
0.091163695 -0.023364721 -1.0213044e-09
0.07581196 -0.0050000013 0.031708132
0.062777512 -0.0092661576 -4.0503659e-10
0.055584025 -0.0050000013 0.029294493
0.029723996 -0.019836031 -8.6706042e-10
0.090360798 -0.021845527 -9.5489827e-10
0.10051157 -4.3376214e-10 0.0099233212
0.10521198 -0.0050000022 0.041609447
0.116 -0.00082197692 0.015376986
0.116 -0.0094045298 0.0041032918
0 -0.0018051761 0.018929793
0.084848933 -8.0767304e-10 0.018477406
0.09473855 -0.013190524 0.0049999999
0.098002538 -0.01528289 -6.6803635e-10
0.036215927 -0.024971578 0.0049999994
0.043505616 -2.766041e-09 0.063279636
0.051905628 -0.02186813 -9.5588637e-10
0.00092966866 -0.021506494 -9.4007868e-10
0.048066881 -0.0078736534 0.0050000004
0.087872468 -0.0050000027 0.050769687
0.091293953 -0.0050000018 0.031834699
0.028199768 -3.1721874e-09 0.072571188
0.010027912 -0.0055072312 0.0050000004
0.0016361539 -1.4609597e-09 0.033422861
0.074315555 -0.0050000018 0.030839005
0.07788039 -0.0050000018 0.027862007
0.030372234 -0.010669256 0.0050000004
0.026309846 -0.0059038913 -2.5806729e-10
0.050986558 -2.3713451e-09 0.05425005
0.021525372 -2.7602116e-09 0.063146286
0.082840756 -1.6672214e-09 0.038141575
0.085308462 -0.0070356978 -3.075401e-10
0.02732564 -0.02409358 -1.0531639e-09
0.097999997 -0.0049534286 0.064497679
0.010462541 -5.0883837e-12 0.00011640865
0.10107519 -0.024157472 -1.0559565e-09
0.082357638 -0.0050000031 0.067504041
0.012556138 -0.025 0.0016095802
0.034743685 -0.0050000004 0.011673776
0.023920255 -0.0050000027 0.057027228
0.054576378 -0.0050000013 0.017419945
0.090027437 -0.0050000031 0.069504268
0.012906635 -0.011451275 -5.005511e-10
0.0048673693 -2.5150968e-09 0.057538707
0.017564537 -2.5952791e-09 0.059373066
0.085368708 -9.3631281e-10 0.021420339
0.07359153 -0.0020051498 0.090000004
0.029008901 -0.0066563077 0.0050000004
0.048190616 -9.9072239e-10 0.022665085
0.10845315 -0.01339733 0.0030151487
0.070755437 -2.2408191e-09 0.051263966
0.092038058 -0.0049241991 0.049686473
0.012294803 -0.022274697 0.0049999994
0.090459682 -3.4488392e-09 0.07890024
0.052638676 -0.00075804704 0.043381751
0.10683727 -0.0050000013 0.032973804
0.067561425 -0.00039600456 -1.7309909e-11
0.09818361 -0.0050000008 0.018469417
0.11064374 -0.0050000031 0.070656039
0.089957841 -0.0050000022 0.046460956
0.0080052586 -2.1313187e-09 0.048758883
0.047199052 -7.8263157e-10 0.017904526
0.086681128 -1.8844521e-09 0.043111235
0.00030394009 -0.0050000041 0.079398677
0.064673327 -0.0050000022 0.048495069
0.046354651 -0.02354775 -1.0293048e-09
0.018244384 -0.0058246139 0.0050000004
0.050316699 -0.0022171561 0.049388833
0.031527076 -3.4961332e-09 0.079982214
0.048598945 -4.4184788e-05 0.02823827
0.013673331 -4.0394449e-10 0.009241173
0.051163249 -0.011998607 0.0050000004
0.075862885 -0.0024196163 -1.0576479e-10
0.11377208 -0.0050000022 0.046825372
0.095901497 -0.0050000013 0.031171307
0.096618004 -0.0045965319 0.090000004
0.064326517 -0.023398263 -1.0227706e-09
0.049641911 -0.0034522938 0.05041106
0.0080138054 -3.7480952e-09 0.085746415
0.0023987947 -0.0050000022 0.041968413
0.028975481 -0.0050000036 0.07098192
0.023272173 -4.0154874e-10 0.0091863656
0.098564684 -2.0744646e-09 0.047458217
0.08534839 -2.3835844e-09 0.054530062
0.116 -0.0018489423 0.059697479
0.000586132 -1.224718e-09 0.028018281
0.11471327 -2.7892411e-09 0.063810401
0.049373023 -0.0050000031 0.066104725
0.020363228 -0.0050000004 0.0057558571
0.036518764 -0.0061041703 0.0050000004
0.030369414 -0.0028010113 0.090000004
0.044256568 -0.0050000013 0.015968112
0.058905128 -0.0050000022 0.036630418
0.050096162 -3.8094421e-09 0.087149873
0.061798856 -8.1335183e-10 0.018607322
0.013211162 -1.9528816e-09 0.044676725
0.10459618 -1.8219613e-10 0.0041681612
0.060005948 -3.1660091e-10 0.0072429851
0.024889994 -0.018721215 0.0049999994
0.039279468 -0.022181956 -9.6960417e-10
0 -0.0018503825 0.074930318
0.10381484 -9.1242164e-10 0.020873774
0.024372298 -2.7959779e-09 0.063964508
0.094479062 -1.5759247e-10 0.0036052947
0.067651875 -1.5555457e-09 0.035586741
0.060089 -0.011366001 0.0049999999
0.10365879 -3.24982e-09 0.07434722
0.0255541 -0.00050873711 0.090000004
0.084293351 -0.011039421 0.0050000004
0.062001552 -0.0050000018 0.026358217
0.014610759 -0.0050000027 0.057357624
0.023295449 -0.00015179736 0.026385307
0.088765539 -1.1563877e-09 0.026455065
0.093612969 -0.0060977032 -2.665391e-10
0.014082806 -0.010249472 0.0050000004
0.094138965 -0.0050000041 0.087326087
0 -0.0030898552 0.040382057
0.10479766 -0.0050000036 0.067936145
0.0854785 -0.0050000031 0.052342635
0.051111408 -0.0050000031 0.063282974
0.03546872 -0.0095744887 -4.185142e-10
0.010855479 -0.017596239 -7.6915602e-10
0.040799528 -0.022284573 -9.7408959e-10
0.001510284 -6.795679e-10 0.0155467
0.087233 -0.0050000013 0.015158925
0.034763809 -2.5377282e-11 0.00058056449
0.05644678 -8.0204565e-10 0.018348666
0.013568226 -3.0145801e-09 0.068965554
0.082246877 -0.0050000031 0.065851726
0.0675513 -0.0050000018 0.034318551
0.081461176 -2.5339744e-09 0.057970576
0.013394456 -0.0050000041 0.080409229
0.0006298814 -0.021104807 -9.2252039e-10
0.093685016 -0.0050000022 0.04240407
0.026515998 -0.011805103 -5.160174e-10
0.061644495 -2.2270077e-09 0.050948001
0.0070341746 -2.9985388e-09 0.068598576
0.068112016 -0.023154512 0.0049999994
0.076693825 -3.9810844e-10 0.0091076586
0.0087736603 -0.0043598372 -1.9057453e-10
0.058604509 -0.0050000013 0.017467435
0.054197147 -0.011730893 0.0050000004
0.011005951 -8.1969898e-10 0.018752526
0.014059962 -0.0050000031 0.068335563
0.098399483 -0.0089071197 0.0050000004
0.058595575 -3.4869629e-09 0.079772413
0.098348156 -1.1554209e-09 0.026432948
0.065107085 -0.025 0.00030959901
0.079890721 -1.6859886e-09 0.038570922
0.010396459 -0.0013702601 0.090000004
0.10148246 -0.0050000031 0.064332008
0.0025725106 -3.317342e-09 0.075891942
0.098670557 -0.0050000013 0.034583341
0.029679574 -2.591813e-09 0.059293769
0.015097634 -0.021303289 -9.3119629e-10
0.0017188027 -0.0050000022 0.050613146
0.0085117016 -1.6672099e-09 0.038141318
0.0435297 -0.01817305 -7.9436929e-10
0.037805431 -0.0028349352 0.057737466
0.057330817 -0.0050000031 0.065644734
0.056055147 -0.00049665949 0.090000004
0.11316478 -0.0050000027 0.052799594
0.053049639 -0.0022089931 -9.6558143e-11
0.116 -0.0011215979 0.037559628
0.11150414 -3.1098468e-09 0.071144998
0.011817575 -0.0050000031 0.068206377
0.067832723 -2.5404758e-09 0.058119304
0.0067898766 -0.017365625 0.0049999994
0.079327285 -0.0050000013 0.025007781
0.07447581 -0.018134546 0.0049999994
0.056915086 -0.0050000008 0.012374588
0.10907545 -3.2634559e-09 0.074659161
0.037941769 -0.010822076 0.0050000004
0.11172163 -0.0050000004 0.0057936884
0.03846186 -7.795708e-10 0.017834499
0.00056726136 -0.0050000041 0.079665884
0.065175444 -0.015875999 0.0049999999
0.069310285 -0.0050000022 0.038513396
0.11490064 -0.015151081 0.0050000004
0.10297047 -0.021604026 -9.4434194e-10
0.020763882 -2.4817821e-09 0.056776561
0.010163725 -7.3371575e-10 0.01678546
0 -0.0027857113 0.036910865
0.10268509 -0.0050000041 0.087917261
0.019453721 -0.0050000022 0.051287003
0.081424721 -0.0050000027 0.047942881
0.010495385 -0.0050000004 0.0081580272
0.0021957473 -2.0733617e-09 0.047432985
0.096178927 -3.9240939e-09 0.089772798
0.0087738438 -0.0050000008 0.018211825
0.081228517 -2.50141e-09 0.057225589
0.058370989 -0.0050000031 0.056842025
0.09830346 -0.017276466 0.0049999994
0.085845314 -3.3467435e-09 0.076564558
0.095424876 -3.8520986e-09 0.08812575
0.0058191284 -1.4665734e-09 0.033551287
0.022434713 -0.003716032 0.090000004
0.028839132 -0.0047072964 0.090000004
0.041927528 -0.0048125819 -2.1036464e-10
0.07368096 -0.018681427 -8.1659113e-10
0.011022894 -0.003367797 0.03981144
0.02581027 -3.6958896e-09 0.084552094
0.023327 -0.0050000036 0.074309438
0.020388823 -0.0050000036 0.0799933
0.07393416 -0.0050000031 0.068157718
0.026257716 -3.2878267e-09 0.075216703
0.028081613 -0.0081845224 -3.5775682e-10
0.116 -0.0015443158 0.027605634
0.11443022 -0.0050000008 0.012680091
0.046600565 -0.011250546 -4.9177701e-10
0.0055952594 -0.0050000018 0.035565358
0.0078608459 -0.0050000013 0.018156026
0.0095905103 -2.7537386e-09 0.062998198
0.048690639 -0.0014033878 -6.134402e-11
0.098717049 -1.7379931e-09 0.039760645
0.017506983 -2.9705796e-09 0.067958944
0.062929615 -1.6989107e-09 0.038866546
0.069548316 -0.0050000008 0.014798258
0.031945221 -3.5646981e-09 0.081550784
0.00089368108 -0.0050000031 0.064039439
0.022121493 -0.015296224 0.0049999999
0.08784131 -2.7842337e-10 0.0063695833
0.01058017 -0.0050000036 0.072731942
0.037781987 -3.562139e-09 0.081492238
0.076829188 -0.023064988 0.0049999994
0.019322343 -0.0050000022 0.050160412
0.087060079 -0.010681519 -4.6690402e-10
0.077265017 -0.0050000013 0.023154197
0.075815156 -1.4513057e-10 0.0033202004
0.010265265 -0.0050000031 0.056742802
0.068202078 -7.7230045e-10 0.017668175
0.02874786 -0.014037526 -6.1359978e-10
0.11599999 -0.0020538042 0.048849955
0.095843129 -0.0050000018 0.035170056
0.072463259 -3.6586263e-09 0.083699621
0.069055691 -0.0050000022 0.043891679
0.094911009 -0.0050000008 0.016383823
0.090650529 -0.0050000013 0.020956058
0.070920244 -2.7106704e-09 0.062012911
0.11159462 -2.9958462e-09 0.068536974
0.018424504 -0.006216397 -2.7172736e-10
0.081619352 -0.0050000027 0.053347856
0.081159472 -0.0050000036 0.077052496
0.071787357 -1.2825675e-09 0.029341726
0.024203485 -0.0050000036 0.073099032
0.015852448 -0.0050000022 0.048484948
0.0062307394 -0.017229151 0.0047393008
0.092 -0.001182621 0.054746211
0.058763068 -1.6908457e-09 0.038682036
0.055873066 -2.1657678e-09 0.049546987
0.10903015 -1.555729e-09 0.035590928
0.051235583 -0.0050000031 0.065370522
0.049445804 -0.019224575 0.0049999994
0.078484334 -6.4302152e-10 0.014710618
0.014949556 -0.0050000022 0.045057952
0.04052864 -3.7347498e-09 0.08544112
0.047372382 -9.9324926e-10 0.022722894
0.055294119 -1.1734589e-09 0.02684561
0.022532433 -0.0050000013 0.022446817
0.061908733 -1.2077556e-09 0.027630227
0.030407824 -0.013763728 0.0049999999
0.004850904 -0.0050000031 0.063566945
0.087947205 -2.0657673e-09 0.047259249
0.09837763 -0.0050000004 0.01058416
0.10927826 -0.012880511 0.0014440747
0 -0.0048450078 0.033861589
0.116 -0.0049252384 0.021017406
0.040710874 -0.016201971 -7.0821071e-10
0.020572718 -1.5849558e-10 0.0036259561
0.086381651 -9.5072861e-10 0.021750133
0.099920169 -0.0050000041 0.083214454
0.055878833 -2.4018969e-09 0.054948993
0.0038459843 -0.014226609 0.0030846854
0.059747569 -0.0050000013 0.016894024
0.092 -0.0046907035 0.052491389
0.11594567 -0.0050000022 0.042475503
0.11528204 -6.301869e-10 0.014416996
0.026740571 -0.0050000004 0.010018498
0.11194913 -1.2406338e-09 0.028382394
0.065462269 -2.7707472e-09 0.063387305
0.066113748 -3.5210086e-09 0.080551289
0.048901707 -0.0050000013 0.025298569
0.047084771 -0.0016266113 0.026714539
0.051203556 -1.2489075e-09 0.028571673
0.040351633 -0.023364019 0.0049999994
0.04901278 -3.3065189e-05 0.051225804
0.038197923 -0.00093518029 0.022335036
0.071979403 -0.013512012 -5.9062877e-10
0.074189134 -0.0050000004 0.014786809
0.10970765 -1.1289256e-09 0.025826806
0.030752866 -0.016150707 -7.0596984e-10
0.064260162 -0.0050000022 0.038515557
0.020395577 -0.0016366785 0.050460793
0.081215747 -0.0032161034 0.090000004
0.062767394 -0.0050000027 0.051920649
0.060200963 -0.0050000031 0.066094056
0.11444497 -0.0050000036 0.07925719
0.033486143 -0.01952561 0.0049999994
0.11221497 -0.013941178 0.0049999999
0.070055217 -4.898984e-10 0.011207568
0.028857242 -0.0056153131 0.0050000004
0.116 -0.0033938105 0.06876187
0.034112278 -0.0030634615 0.063776344
0.037100568 -0.0050000008 0.011144284
0.024363043 -0.0014942742 0.054503154
0.057660975 -0.0050000022 0.031247422
0.06558983 -0.022088399 0.0049999994
0.034497466 -0.0046889358 0.022017669
0.11218136 -1.726937e-09 0.039507717
0.061103344 -0.0050000004 0.0080792867
0.0062873513 -0.0050000013 0.022579344
0.022662697 -0.0031545118 0.026911886
0.067476846 -1.6445686e-09 0.037623346
0.11474739 -3.3279794e-09 0.076135293
0.0044741137 -0.016684055 0.0035938758
0.035220578 -0.0080038588 -3.4985975e-10
0.080433562 -3.5837788e-09 0.081987299
0.075266384 -0.0050000022 0.041410889
0.049183734 -0.0050000041 0.079281837
0.053502776 -1.4680938e-09 0.033586074
0.098852269 -0.0050000018 0.037660751
0.050326832 -3.3701146e-09 0.077099234
0.066111468 -2.6981994e-10 0.0061727609
0.044972122 -0.011721117 -5.1234628e-10
0.043434266 -8.3408802e-10 0.01908171
0.044152342 -0.0050000031 0.065431155
0.03093308 -2.6901577e-09 0.061543636
0.086717419 -3.7757721e-09 0.086379595
0.082662441 -2.7553786e-11 0.00063035695
0.06605313 -0.0050000022 0.03081486
0.075548902 -0.0050000018 0.025475755
0.09575288 -0.0050000004 0.0079445448
0.05206563 -2.0512025e-09 0.046926044
0.031510014 -0.0050000036 0.080829434
0 -0.0043044472 0.050932128
0.056685541 -0.025 0.0041387836
0.02676037 -0.0050000004 0.006939318
0.038128287 -2.8694243e-09 0.065644778
0.055781346 -0.0050000041 0.079574175
0.088200778 -0.0050000022 0.043877359
0.10559853 -1.5388728e-09 0.035205305
0 -0.003969735 0.0406803
0.090055622 -3.038447e-09 0.069511563
0.0016086618 -0.0050000004 0.013081961
0.099240944 -3.5616043e-09 0.081480011
0.073679067 -0.0050000022 0.03620559
0.098397449 -0.0038080495 0.090000004
0.043617785 -3.0539007e-09 0.0698651
0.11173813 -3.6145287e-09 0.082690775
0.074140206 -0.00085910241 -3.7552558e-11
0.052777592 -0.0050000031 0.070661783
0.11403376 -0.011937504 0.0050000004
0.091268413 -0.0050000018 0.038511626
0.048493337 -1.1217254e-09 0.025662083
0.11297815 -2.1474778e-09 0.04912857
0.10450581 -0.0050000004 0.0089398026
0.02928444 -0.0050000031 0.064391978
0.054767996 -0.0050000013 0.019282708
0.035291899 -0.00010599107 0.057953294
0.038020667 -0.013559472 -5.9270328e-10
0.098383039 -0.0050000018 0.047070883
0.024550954 -0.0084033366 -3.6732153e-10
0.00082479895 -2.4081412e-09 0.05509185
0.10300263 -0.0050000013 0.0304642
0.0053045512 -0.0050000031 0.059556384
0.0096010687 -3.9087471e-09 0.089421712
0.10309042 -2.830812e-10 0.0064761429
0.090698332 -0.004648733 -2.0320255e-10
0.027578728 -0.0050000013 0.020352609
0.090325147 -0.0050000027 0.053850938
0.070384309 -5.5316023e-11 0.0012654829
0.0042461311 -3.3069198e-09 0.075653508
0.012034215 -0.0050000027 0.057973161
0.037133612 -0.021829376 -9.5419228e-10
0.010346435 -0.025 0.00038139705
0.028777229 -0.013594431 -5.9423133e-10
0.10953519 -0.0050000013 0.027346721
0.020040711 -0.0050000031 0.076624535
0.088316113 -2.6035056e-09 0.059561264
0.085419834 -6.6902606e-10 0.015305533
0.077107519 -1.2172783e-09 0.02784808
0.028625334 -0.0050000013 0.019619826
0.040126525 -3.801556e-09 0.086969465
0.089213163 -0.017276948 -7.551994e-10
0.062140495 -2.7175455e-11 0.00062170182
0.035408393 -2.8709624e-09 0.06567996
0.065778479 -1.4708164e-09 0.033648357
0.012547503 -0.0050000004 0.0085814195
0.03040053 -0.023871856 0.0049999994
0.087350957 -4.3956563e-10 0.01005609
0.116 -0.0037446115 0.084882013
0.089733437 -3.4272409e-09 0.078406125
0.054650038 -3.9030197e-09 0.089290686
0.012330632 -0.016739903 0.0049999994
0.043993887 -0.0015402172 0.055561617
0.11538361 -0.013126271 0.0049999999
0.024599966 -0.022077898 0.0049999994
0.084796757 -0.020403014 -8.9184404e-10
0.019555598 -0.0025276099 -1.1048534e-10
0.071816377 -0.010410353 0.0049999999
0.096086405 -2.1187126e-10 0.0048470492
0.033066854 -0.0050000031 0.066264503
0.0053993138 -0.0050000031 0.057038307
0.047611613 -1.026602e-09 0.023485914
0.077809215 -1.6030551e-09 0.036673624
0.045045961 -0.0065020942 0.0050000004
0.074208111 -0.0050000036 0.073362298
0.058539111 -0.0010747013 0.041265264
0.059214994 -0.0050000036 0.072108947
0.0011967407 -0.0050000041 0.073317215
0.09905 -0.0050000036 0.059519242
0.087543443 -0.0050000004 0.010788868
0.084929816 -0.01047885 -4.5804502e-10
0.062851883 -0.0050000013 0.028264366
0.038056549 -0.0050000031 0.068034843
0.084443741 -1.2535218e-09 0.028677234
0.089341335 -0.0050000041 0.081479907
0.0048831361 -1.7263668e-09 0.039494667
0.09119916 -9.6565289e-10 0.022091562
0.050279863 -2.9653773e-09 0.067839928
0.10277642 -3.6064896e-09 0.082506873
0.0062680934 -0.0050000041 0.079349324
0.077580377 -0.0072121406 -3.1525266e-10
0.033444624 -0.0073062452 -3.1936609e-10
0.062023532 -2.1449746e-09 0.049071301
0.012866866 -3.0580061e-09 0.06995903
0.093258701 -0.0050000018 0.038301539
0.10418483 -0.021055114 0.0049999994
0.011108443 -0.0050000027 0.057056669
0.078962944 -0.023937352 -1.0463348e-09
0.10326087 -4.665574e-10 0.010673587
0.014340422 -0.00088320207 0.038535025
0.11398322 -0.0050000018 0.035828959
0.05520438 -0.021545529 0.0049999994
0.095440656 -0.0050000041 0.088277839
0.00035104825 -1.6669472e-09 0.038135309
0.083864249 -0.0050000022 0.044127878
0.021516154 -7.0623135e-10 0.01615669
0.041007355 -0.025 0.00087437924
0.099834397 -0.00066181557 0.090000004
0.069108248 -0.0050000036 0.076547004
0.083643116 -0.0050000018 0.028847184
0.116 -0.0018281844 0.023424475
0.08289434 -0.0050000013 0.026941692
0.067081749 -2.8571931e-10 0.0065364954
0.095330857 -0.004847371 0.090000004
0.097664274 -0.0050000004 0.0067171473
0.084112421 -0.00062832102 0.090000011
0.080784366 -4.495293e-11 0.0010284028
0.044982921 -2.5576552e-09 0.058512338
0.07161893 -3.9184243e-09 0.089643098
0.079567872 -1.2009964e-09 0.027475597
0.116 -0.00064017589 0.059839122
0.097160824 -5.6496569e-10 0.012924908
0.116 -0.003239311 0.023386704
0.1051387 -1.6890052e-09 0.038639933
0.0014257615 -0.0050000022 0.052391555
0.028225556 -0.0050000036 0.078745373
0.035692874 -4.0076286e-13 9.1683087e-06
0.027070595 -3.6163479e-09 0.082732394
0.10965243 -3.6436725e-09 0.083357513
0.064108402 -3.5986769e-09 0.082328133
0.10605253 -0.0012425875 0.090000004
0.0071434909 -3.02783e-09 0.069268674
0.11213107 -3.6127301e-09 0.082649633
0.0016262891 -0.0050000013 0.020410245
0.093797989 -0.0026182854 0.047267485
0.07430917 -0.0050000031 0.059957016
0.016335659 -0.0095001562 0.0049999999
0.098247685 -0.013194757 0.0050000004
0.022660471 -0.0050000004 0.011351973
0.080772676 -0.0050000031 0.06038041
0.0084209554 -8.7341845e-10 0.019981485
0.019797018 -0.0050000031 0.05778442
0.079683729 -7.8376811e-10 0.017930526
0.021599734 -2.6609712e-09 0.060875922
0.10841439 -2.7833484e-09 0.063675582
0.050271563 -0.0017551554 -7.6720283e-11
0.096225113 -1.9529491e-09 0.044678271
0.0003616786 -0.025 0.0046152757
0.098654069 -1.543642e-09 0.035314415
0.014387057 -1.9213522e-09 0.043955415
0.046517834 -0.0050000013 0.015418955
0.014207797 -0.011526884 0.0050000004
0.062280577 -3.1693121e-09 0.072505407
0.053804263 -0.0050000013 0.025301259
0.043526348 -0.0050000004 0.010638843
0.098970011 -0.0050000031 0.061949357
0.09759818 -1.5709692e-09 0.035939585
0.01123119 -2.6564935e-09 0.060773484
0.060333196 -3.571573e-09 0.081708074
0.028726192 -0.025 0.0046458114
0.0072192824 -2.4440066e-09 0.055912349
0.060854863 -1.8902993e-09 0.043245006
0.11238696 -3.2995939e-09 0.075485915
0.1157821 -0.021550231 -9.4199049e-10
0.063759826 -0.0050000018 0.031697948
0.062394246 -3.5524093e-09 0.081269644
0.0019741703 -0.0050000036 0.069067806
0.10184308 -1.0292694e-09 0.02354694
0.059816297 -2.6858016e-09 0.061443977
0.057806879 -0.0021997562 0.041818772
0.10113224 -0.0018155577 -7.9360546e-11
0.11092958 -0.0050000013 0.018128544
0.043692611 -0.015198243 -6.6433631e-10
0.034641877 -0.023674157 0.0049999994
0.11599999 -0.002009873 0.028243273
0.020567523 -0.0050000041 0.08596205
0.094513223 -0.0039563309 0.090000004
0.081218727 -3.1656147e-10 0.0072420822
0.014267122 -0.01858501 -8.123765e-10
0.049194686 -0.0050000031 0.064037219
0.10502261 -0.020882959 0.0049999994
0.10893071 -0.018226068 -7.9668683e-10
0.082470231 -0.014595155 -6.3797451e-10
0.008082482 -0.001056903 -4.6198698e-11
0.032525923 -0.019902375 0.0049999994
0.014848954 -0.0050000004 0.016764717
0.092018314 -7.6974271e-10 0.01760966
0.1011565 -0.0050000041 0.084450155
0.016985035 -0.015219938 -6.6528461e-10
0.066836849 -3.6548264e-10 0.0083612688
0.062900208 -0.0057240543 -2.5020636e-10
0.1000186 -0.0050000008 0.015552658
0.033530071 -0.0050000004 0.0082629826
0.063466698 -2.4823315e-09 0.056789123
0.023216132 -5.8273614e-10 0.01333145
0.01230828 -0.0050000041 0.075598486
0.017209068 -2.5650038e-09 0.058680445
0.085148752 -1.9495308e-09 0.044600066
0.010453991 -0.0050000022 0.03700548
0.0028324001 -0.0090458635 -3.9540721e-10
0.11375812 -2.7933258e-09 0.063903846
0.077339366 -0.0050000013 0.029564185
0.095014848 -0.025 0.0013208383
0.10017034 -0.0050000013 0.032564037
0.011241518 -1.0450237e-09 0.02390736
0.024532817 -0.0050000027 0.056168329
0.10787015 -1.8086855e-09 0.041377902
0.014950502 -0.0044128816 0.040407639
0.092000008 -0.0040295087 0.058240965
0.062037975 -0.0050000013 0.020246482
0.091980554 -0.0050000008 0.014901157
0.0032585573 -6.8857758e-10 0.015752818
0.081151672 -0.025 0.0033067181
0.068285264 -2.3718736e-09 0.054262143
0.012324252 -3.0335812e-09 0.069400243
0.041814905 -0.0028184389 -1.2319787e-10
0.0038005963 -0.016784737 -7.3368422e-10
0.099807456 -2.5382889e-09 0.058069278
0.072145388 -2.5936102e-09 0.059334885
0.092821829 -0.0046778019 0.047950957
0.087921418 -2.5919242e-09 0.059296321
0.038770355 -7.18128e-10 0.016428852
0.069648147 -0.0050000013 0.022807186
0.043234065 -5.2090715e-10 0.011916967
0.014116006 -0.0050000008 0.010147299
0.074514806 -9.3454744e-10 0.021379953
0.10992242 -0.0050000018 0.029819665
0.010847184 -0.0050000027 0.058792032
0.086112618 -0.0050000004 0.01137867
0.062206987 -1.3406042e-09 0.030669451
0.036019761 -0.019950692 -8.7207247e-10
0.063559122 -2.3751867e-10 0.0054337936
0.0040266057 -0.0050000031 0.065295286
0.01155888 -0.0050000022 0.047987014
0.10303485 -2.1369055e-09 0.048886705
0.060577065 -0.020926652 0.0049999994
0.086532697 -0.0037481398 0.090000004
0.073199227 -0.0050000018 0.040260255
0.023896238 -3.5513505e-09 0.081245437
0.091269664 -0.0050000031 0.062997222
0.10727943 -0.0050000031 0.067686163
0.063756384 -3.9160351e-09 0.089588441
0.059560884 -0.0050000041 0.079628028
0.0079027498 -0.0050000022 0.047664851
0.099956118 -0.0050000013 0.033856373
0.022166591 -0.010193138 -4.4555626e-10
0.062668465 -7.4357492e-10 0.017011011
0.099179707 -0.0050000013 0.026833093
0.048528291 -0.0050000036 0.069564216
0.079558395 -0.014562233 -6.3653549e-10
0.033078007 -0.0017263439 0.061468922
0.10887797 -1.9952247e-09 0.045645416
0.08781483 -1.0015087e-09 0.022911847
0.049632754 -0.0052682115 -2.3028081e-10
0.033083055 -0.0050000031 0.064371675
0.069214433 -0.0050000018 0.026691506
0.11484364 -0.022228181 -9.7162456e-10
0.069385968 -0.0050000041 0.087722987
0.11557613 -0.0050000022 0.046230517
0.048108116 -0.012471245 -5.4513533e-10
0.0040626065 -0.0050000018 0.029461181
0.085286044 -7.9223728e-10 0.018124277
0.053742509 -0.0050000031 0.064013325
0.06410145 -0.025 0.00052556553
0.0076577198 -2.0205235e-10 0.0046224189
0.053876195 -4.5842607e-10 0.010487568
0.014038231 -0.0050000022 0.045820635
0.064838596 -0.0050000031 0.065377243
0.097626694 -0.012165391 0.0049999999
0.116 -0.0020330758 0.036162838
0.092748813 -3.9078574e-10 0.0089401351
0.028601121 -0.0050000036 0.081469245
0.081789233 -3.4739256e-10 0.0079474151
0.092796504 -0.017245207 -7.538119e-10
0.058799621 -0.017126454 0.0049999994
0.10139173 -4.2306847e-10 0.0096786777
0.040691826 -0.018813729 0.0049999994
0 -0.0032412149 0.072330385
0.10288649 -0.0050000013 0.01421951
0.040294394 -0.010386708 0.0050000004
0.097419731 -0.0050000041 0.085034527
0.10532293 -0.0050000036 0.070300281
0.039251819 -6.9797296e-10 0.01596776
0.11028483 -3.1460297e-09 0.071972765
0.087346464 -1.6981397e-09 0.03884891
0.084833346 -2.4734375e-09 0.056585643
0.064882673 -2.5744145e-09 0.058895741
0.10860041 -0.0050000022 0.047428776
0.085904621 -0.022738082 0.0049999994
0.034809969 -3.0717695e-09 0.070273899
0.051229045 -0.019034479 -8.3202339e-10
0.067735076 -0.0062064896 -2.7129426e-10
0.07529255 -2.1320359e-09 0.048775293
0.070071116 -2.9159206e-09 0.06670849
0.084527828 -2.3439088e-09 0.053622387
0.054540571 -0.005189551 0.0050000004
0.014069094 -3.1483069e-09 0.072024867
0.01728786 -1.0618963e-09 0.024293358
0.076966859 -0.0050000031 0.061197616
0.10095339 -0.01613831 0.0049999999
0.048265174 -1.3018775e-10 0.0029783486
0.038628634 -0.0050000036 0.063152239
0.080198735 -0.0092676645 0.0049999999
0.077512883 -0.017165756 -7.5033901e-10
0.08750087 -0.0050000004 0.0055364417
0.052630227 -0.0050000031 0.075130723
0 -0.019739285 0.0011708635
0.099997558 -1.9937387e-09 0.045611423
0.019266255 -2.2794078e-09 0.052146774
0.061684057 -0.0070838872 -3.0964656e-10
0.011238232 -0.0050000018 0.030959416
0 -0.00049534399 0.034997303
0.017767388 -0.015777854 0.0050000004
0.012666583 -0.0050000004 0.0084006432
0.032553341 -2.5605558e-09 0.058578692
0.050963271 -0.0050000041 0.082003437
0.093161091 -0.024257094 -1.0603114e-09
0.092000008 -0.00084649032 0.076145329
0.11336698 -0.013112636 0.0049999999
0.070858873 -0.0050000018 0.039396085
0.10961492 -0.0050000018 0.032898948
0.03043828 -0.0050000041 0.089673452
0.049688 -2.9422156e-09 0.06731005
0.096363835 -0.025 0.00055039296
0.116 -0.0067514507 0.00031290407
0.0060200579 -0.017415589 0.0049999994
0.08251103 -0.0050000008 0.012837367
0.034283262 -0.001780565 -7.7830964e-11
0.029729102 -0.025 0.0024941012
0.026621759 -3.3586396e-09 0.07683672
0.09191408 -3.3459855e-09 0.07654722
0.006039015 -0.0050000004 0.011786714
0.10156935 -1.7594761e-09 0.040252123
0.053844415 -0.0050000022 0.042672418
0.09408132 -3.6420791e-09 0.083321057
0.086741962 -4.8934795e-10 0.011194977
0.10215271 -3.3193721e-09 0.075938381
0.057722632 -0.0050000041 0.086637959
0.021970486 -3.4405218e-10 0.0078709954
0.049555507 -0.018840799 -8.235575e-10
0.03524214 -0.0027600995 0.022044884
0.10150283 -0.0034527271 -1.5092348e-10
0.010448248 -0.0077484488 0.0049999999
0.020246135 -2.5023443e-09 0.057246964
0.11325316 -3.2504803e-09 0.074362323
0.028202793 -0.0050000004 0.012141087
0.010780436 -0.0050000027 0.061431032
0.068839587 -2.715876e-09 0.062132001
0.10136668 -0.0050000036 0.082950152
0.0058717551 -0.0050000013 0.027906705
0.086361498 -2.5405145e-09 0.058120187
0.038058251 -0.019071657 -8.3364871e-10
0.066997074 -0.0050000031 0.053287081
0.086641714 -3.5046814e-09 0.080177754
0.085755594 -0.0050000036 0.074756935
0.013109761 -0.016669348 -7.2864037e-10
0.057673156 -0.0050000022 0.031812534
0.062457722 -5.4033111e-10 0.012361335
0.0075736269 -1.2250589e-09 0.028026082
0.097999997 -0.0022323218 0.078190498
0.10083952 -0.022496663 0.0049999994
0.10419957 -7.7285073e-10 0.017680762
0.05478026 -0.011926971 -5.2134447e-10
0.069062151 -0.0050000027 0.05003405
0.10751745 -1.1168411e-09 0.025550343
0.0043706596 -1.5226577e-09 0.034834348
0.086763725 -0.0081556914 0.0050000004
0.10932597 -1.9296984e-09 0.044146355
0.065390728 -0.0050000018 0.028676735
0.054501779 -7.0710543e-10 0.016176686
0.041942161 -0.011064897 -4.8366205e-10
0.0011329046 -0.0050000027 0.051948871
0.097922757 -0.0026738513 0.04936384
0.1141274 -1.6870922e-09 0.038596172
0.10472558 -0.0080236215 0.0049999999
0.072834015 -0.0050000004 0.0074030259
0.11040191 -0.022893045 0.0049999994
0.11011503 -0.0050000041 0.077514835
0.053383522 -4.9046189e-10 0.01122046
0.0057714237 -0.0050000031 0.063946068
0.086497001 -3.8952699e-09 0.089113399
0.050732534 -0.0050000031 0.069654964
0.024588136 -3.7403387e-09 0.085568964
0.073466264 -0.012782014 0.0050000004
0.085118823 -0.014018679 -6.1277594e-10
0.10557438 -0.0050000022 0.044467062
0.098735191 -0.01339076 0.0049999994
0.017394865 -0.00064567849 0.036329292
0.080656171 -1.1201142e-09 0.025625227
0 -0.00074170792 0.071031511
0.011883568 -0.0050000027 0.057208776
0.10368519 -1.3259893e-09 0.030335102
0.012435918 -0.0050000008 0.013215809
0.077987015 -3.1595606e-09 0.072282322
0.089588925 -9.4362385e-10 0.021587595
0.034715686 -9.5683217e-10 0.021889767
0.11160547 -1.7642409e-09 0.040361129
0.023086591 -0.0050000041 0.088680051
0.0148528 -0.0050000022 0.054962985
0.016092192 -0.0050000022 0.042141743
0.065540619 -0.023424909 -1.0239353e-09
0.046691764 -2.6754092e-09 0.061206225
0.064151973 -3.0774543e-09 0.070403948
0.054740749 -1.30475e-09 0.029849201
0.01973862 -7.8749907e-10 0.018015878
0.06951458 -1.2887579e-09 0.029483343
0.116 -0.0045376332 0.035784621
0.0095051369 -0.0050000041 0.085049443
0.05262905 -2.6263069e-09 0.060082901
0.085340567 -0.014052452 0.0049999999
0.085529484 -0.0050000008 0.018705357
0.051089887 -0.0088585513 0.0050000004
0.075270526 -2.7306692e-09 0.062470429
0.10968199 -0.018971497 0.0049999994
0.10962024 -0.012796218 0.0041957637
0.0077439994 -0.017591259 -7.689383e-10
0.01078419 -0.0050000008 0.0088920631
0.046479199 -0.0050000013 0.019226059
0.10970647 -0.0077306512 0.0050000004
0.089252524 -2.5539357e-09 0.058427241
0.089771144 -0.015925797 -6.9613876e-10
0.0031820277 -2.8200484e-09 0.064515196
0.080710895 -1.0289073e-09 0.023538653
0.1037954 -0.0055166264 0.0050000004
0.052929904 -0.0090367086 0.0050000004
0.090976663 -2.1925211e-09 0.050159037
0.061285585 -3.1918272e-09 0.073020495
0.085016981 -2.2682762e-09 0.051892117
0.066371068 -0.015400708 0.0049999994
0.093131781 -0.0077112508 0.0050000004
0.098250188 -3.2698932e-09 0.074806437
0.043458007 -8.8693164e-10 0.020290632
0.046113625 -2.1649797e-10 0.0049528964
0.056382984 -0.0050000027 0.047074448
0.10941645 -2.4310167e-09 0.055615176
0.028229263 -0.0023645805 0.090000004
0.014352475 -0.0025038929 0.090000004
0.050847378 -0.0045719971 0.048443254
0.077158645 -0.021358529 0.0049999994
0.088490203 -0.0050000041 0.080933675
0.066874571 -4.6762083e-10 0.010697917
0.06367825 -0.0025911357 0.090000004
0.071941689 -5.946853e-10 0.013604813
0.080615737 -0.020994144 -9.1768315e-10
0.066341177 -0.0050000004 0.0077595767
0.061219983 -0.010207814 -4.4619763e-10
0.067101993 -3.6069217e-09 0.082516752
0.086778812 -0.0050000022 0.042065445
0.092491366 -0.0037139016 0.090000004
0.042023975 -0.020567069 0.0049999994
0.077045836 -2.9390424e-11 0.00067237427
0.058724102 -3.5695045e-09 0.081660748
0 -0.016688021 0.0011583382
0.0064003412 -0.0050000027 0.047586519
0.018530522 -3.5413898e-09 0.081017561
0.0014555648 -0.0050000022 0.046525732
0.11499669 -3.6470884e-09 0.083435647
0.094369933 -3.8947161e-09 0.089100718
0.085304908 -0.025 0.0019635267
0.10303215 -3.7080528e-09 0.084830366
0.10873493 -1.93656e-09 0.044303332
0.011506451 -0.0050000004 0.0065541393
0.0047294754 -3.129409e-09 0.071592525
0.02760404 -0.0050000013 0.015066816
0.054009963 -1.0761295e-11 0.00024618959
0.021415826 -3.6099634e-09 0.082586341
0.10923938 -0.0050000018 0.035088647
0.069932558 -0.0050000013 0.019630892
0.016650168 -0.0050000031 0.057500362
0.064544618 -0.015119725 -6.6090416e-10
0.064646415 -0.0071991542 -3.14685e-10
0.034149699 -3.4493253e-09 0.078911364
0.079700671 -2.4214353e-09 0.055395983
0.084268086 -0.0050000031 0.059054557
0.11187109 -0.0050000008 0.010353415
0.04597871 -0.0050000018 0.024358608
0.077587828 -0.0062982533 0.0050000004
0.028933963 -2.543042e-09 0.058178019
0.061931171 -0.020139996 -8.8034724e-10
0.058630075 -0.0050000022 0.034120888
0.002692333 -1.3707071e-09 0.031358127
0.10623369 -9.2421099e-11 0.0021143481
0.084899023 -0.0050000031 0.078382216
0.099012539 -0.012760624 0.0049999999
0.024860404 -2.6515552e-09 0.060660515
0.11035793 -3.6834096e-09 0.084266588
0.015285366 -3.2745637e-09 0.074913278
0.0407224 -0.0050104652 -2.1901438e-10
0.066822305 -0.014390072 -6.2901007e-10
0.065377258 -0.013834597 -6.0472943e-10
0.022512814 -0.0050000031 0.062680028
0.09825179 -0.015790123 -6.9020817e-10
0.095170975 -0.002262613 0.082978129
