# .PCD v0.7 - Point Cloud Data file format
VERSION 0.7
FIELDS x y z
SIZE 4 4 4
TYPE F F F
COUNT 1 1 1
WIDTH 1000
HEIGHT 1
VIEWPOINT 0 0 0 1 0 0 0
POINTS 1000
DATA ascii
0.028392904 0.01759794 0.015186328
0.036407042 0.012019461 0.0055692391
0.032414265 -0.011117509 0.013498637
0.01135813 0.033475004 0.0071003572
0.021987094 -0.013121482 0.018282298
0.0025572672 0.011094737 0.00080074591
0.029150566 0.0040750005 -0.014119811
0.025646692 0.0023339856 -0.017474553
0.020983538 0.0040749991 0.01762845
0.017949354 -0.024612937 -0.0046111871
0.02660848 -0.018925002 0.0089130197
0.038203347 -0.0050412044 -0.0019946885
0.0065594134 -0.019025 -0.0068938527
0.036943071 0.029815396 -0.0035583281
0.0079739094 -0.012165806 0.013976504
0.027224362 0.0023284296 0.016881803
0.017794542 -0.036382936 -0.0049389154
0.022819147 -0.038676728 -0.0077024112
0.0042721764 0.01835781 0.0075679878
0.031074032 -0.019925002 -0.013247821
0.023448503 0.0017627126 -0.018058654
0.020461068 0.019754566 0.017385406
0.01862286 -0.016851142 0.018340642
0.010008616 0.013120333 -0.014295792
0.0015753839 -0.019092588 0.0013144343
0.025571728 0.018939206 -0.016444022
0.0037139873 0.017102912 -0.0062839668
0.0016334008 0.0021655946 -0.0018798256
0.029305674 0.02161344 0.014638373
0.0048028301 0.029266724 0.0085794209
0.0063734394 0.033777606 -0.0097413883
0.017286599 0.032937247 0.017193841
0.0075841346 -0.0027659221 0.013641447
0.0026067407 0.014144921 0.0016086593
0.035698045 0.033528 0.005466464
0.0058560357 0.021266825 0.010223043
0.0025515091 0.031405505 -0.00065784459
0.037881576 -0.0083433092 0.0039833095
0.0035925296 -0.0085389297 -0.0084531186
0.0043950519 -0.0058090133 0.0098445946
0.020746235 -0.022055428 -0.0099743716
0.035375245 0.032859396 -0.0079948381
0.014467133 0.030174552 -0.016507067
0.020042852 -0.0089417752 0.018386502
0.032470826 0.033475 0.0090288604
0.030614721 0.032602217 -0.013714699
0.0015755168 -0.016641205 -0.0013178984
0.035219774 0.034632456 0.0066910856
0.0026727139 0.0016972915 -0.0063596871
0.030051423 0.033990592 -0.014137965
0.0038768738 0.0088876598 -0.0067134653
0.018099761 -0.025925001 -0.010448012
0.017990403 -0.039001238 -0.0047380426
0.03367129 0.012286812 0.010653775
0.014370165 -0.019925002 -0.0019512408
0.0097216144 -0.018565992 -0.015302403
0.013377793 0.030008527 0.015989924
0.018084683 -0.030589946 -0.0046410994
0.030486327 0.033475004 0.010258891
0.010872363 -5.9856193e-05 0.01600847
0.024371646 -0.013764043 0.01784268
0.027105082 -0.017562101 -0.014532243
0.025977746 -0.019054776 0.010306455
0.015802776 0.027379781 0.016799107
0.033626996 0.01122176 -0.010708027
0.03300947 0.0076642763 -0.011464367
0.008808081 0.034218181 0.01337855
0.031993534 0.0065464624 -0.012533145
0.0092507387 0.017265635 -0.013726291
0.029741608 0.008928664 0.014362708
0.0053655808 0.019983204 -0.0095125129
0.018847449 -0.0096482718 -0.018357884
0.035002232 -0.0074706711 0.01054369
0.0029442988 0.02072918 -0.003741316
0.025261877 -0.018925002 0.0075090472
0.014107891 0.033475004 0.012202787
0.010574277 -0.016918557 -0.012740665
0.028874127 -0.018272122 -0.013081477
0.0017346207 0.0027106977 0.0027566093
0.029280778 0.033475004 0.012408619
0.01160348 0.024082208 -0.015267451
0.038279317 -0.012480261 0.0011915283
0.0025766981 0.028771171 -0.0012829477
0.016856035 0.010393193 -0.017115245
0.029032098 4.4000866e-05 0.015976088
0.0027029091 0.017723527 -0.0024006902
0.030966898 0.021419484 -0.013445054
0.014807664 0.016947521 -0.016620751
0.011565633 0.038913008 -0.0072395084
0.0071429238 0.010173701 0.011790264
0.015268834 -0.024397703 -0.010712777
0.010379772 0.033475004 -0.011038776
0.037238702 0.024083341 -0.0016463625
0.0057198587 -0.01973662 -0.011694122
0.031488203 0.017675458 0.012983196
0.001573576 0.0021699942 0.0012672715
0.036379166 0.012950888 -0.0056427284
0.014446438 0.030621549 -0.016500158
0.01604813 0.0040786518 0.01596285
0.0092346547 -0.017305983 -0.014959903
0.038275644 -0.018755708 -0.0012874427
0.0082981447 0.025891274 0.012926786
0.0015507336 0.0023740078 -0.00067134481
0.0059872679 -0.019832427 -0.0095655406
0.0071776821 -0.018495049 -0.0077060778
0.014926353 0.012964696 -0.016660374
0.025128054 0.033475004 0.013655359
0.028508745 0.025020204 -0.015129819
0.013345103 -0.018925002 -0.00047609431
0.02415714 0.0031434605 0.017892865
0.0029353204 0.011349712 0.0036973378
0.033158183 0.02086363 0.011282224
0.010750348 -0.015405422 0.015935933
0.030342419 -0.0052581923 -0.015151833
0.017115878 -0.02299688 -0.0057256827
0.037625991 -0.0084815724 -0.0049749166
0.0022321502 -0.019125627 0.0050045163
0.032363363 -0.015404171 -0.013547624
0.028885541 -0.015627502 0.012177119
0.0027250613 0.017846728 -0.0025831317
0.032933448 0.033475004 0.0033484104
0.010731345 -0.0077880681 0.015924636
0.028877199 0.03441529 -0.01490932
0.0312197 -0.01556852 0.01451779
0.0049243239 0.0036924863 0.010650477
0.037258103 0.020525541 -0.0014865597
0.0098716775 0.010795941 0.01419289
0.03441947 -0.013449783 -0.0014181865
0.011252226 -0.012446591 -0.016222656
0.021323027 -0.034983337 -0.009644446
0.038316645 -0.015380106 0.00021797042
0.01718872 -0.024636025 -0.012313055
0.013156248 -0.017406551 0.012663515
0.018857595 -0.031624522 -0.0046000015
0.029482597 0.033475004 0.00043694701
0.023342695 -0.0091639012 0.018076614
0.0046825092 -0.015570862 0.0017234302
0.026679598 -0.019607324 -0.0016014407
0.021820301 -0.017787518 -0.018295102
0.020149291 -0.024713339 -0.0039117844
0.013840287 -0.016774753 0.012932107
0.037948988 0.0023290459 -0.0036357571
0.028592126 -0.0033097209 0.01622545
0.012740309 -0.019925002 -0.0076297196
0.0027027284 0.015986403 -0.0023992006
0.015286004 -0.0066048815 -0.017797681
0.01948265 -0.020998029 -0.0039461949
0.026807245 0.026814427 -0.015965872
0.037063513 -0.01173604 0.0066763544
0.012057016 -0.010733492 0.016621193
0.0079379389 0.033475004 0.010760857
0.014253124 0.00059216004 0.01749032
0.031682875 -0.0045851455 -0.014135837
0.016057983 0.025265008 0.016957084
0.019842995 0.02890094 -0.0173859
0.017725201 -0.019925002 -0.01674979
0.0025361893 0.023310876 -0.00027766934
0.008153447 1.4592648e-05 0.014124566
0.035826452 0.014061274 0.0070439246
0.011978371 -0.019925002 -0.0090269241
0.0035943205 -0.014806739 -0.0084564136
0.026901012 0.033475004 -0.014701918
0.038289104 -0.00015520133 0.0009364041
0.013579355 0.0074409773 0.016201191
0.0093545364 0.0069296174 -0.01380429
0.037532948 -0.014297554 0.0053134961
0.020254018 0.0040749991 0.017809521
0.012240236 0.0065339077 -0.015601662
0.01100155 -0.016091669 0.016085269
0.014170637 0.033475004 0.0028753423
0.021236617 -0.019027116 -0.018339913
0.034376558 0.0042758198 0.0089125885
0.035349555 0.0040795924 -0.0056571891
0.026188292 0.033475004 0.0046987003
0.036657464 0.00424904 0.0026911262
0.018023647 0.033475004 -0.0072214967
0.037229028 0.01525365 -0.0017260301
0.023659322 0.033475004 0.013834922
0.037066597 0.0071510384 0.0029533075
0.0085082063 0.015700234 -0.013112883
0.029957537 0.033475004 0.010654955
0.035579819 0.0040750001 0.0050201821
0.02101692 0.031196376 -0.017354297
0.018101986 -0.018925002 0.0034573523
0.029434232 -0.018925004 0.0046768175
0.012143628 -0.0064249737 0.016664084
0.024460848 0.0040750005 -0.016495666
0.0066324091 0.00090403657 0.012719937
0.021529371 0.033475004 -0.0048732171
0.036699571 -0.014553166 0.0011988936
0.0029955951 -0.019925002 0.0043719872
0.024489762 0.033475004 0.0060768416
0.003045816 0.027295357 -0.0042165872
0.028702587 -0.016713841 -0.014823088
0.033170067 0.034647211 -0.01016176
0.036533818 0.017621633 -0.0051499074
0.014167266 0.0032427604 -0.017463148
0.026065983 -0.013425 -0.012802379
0.0043565598 0.00050520903 -0.0097851548
0.036704842 0.0065243584 -0.0045595453
0.036258489 0.005621993 -0.0059609278
0.0084076207 -0.013897534 0.014334181
0.0025696335 0.021794107 -0.0011076326
0.024445398 0.0024549479 0.017825428
0.011267374 -0.014616397 -0.016230157
0.021227213 -0.023592155 -0.0042136982
0.0048537632 0.02737941 -0.0086676367
0.022904171 0.033475004 0.0034564082
0.028749719 0.033475004 -0.0057091881
0.031071123 0.0017888894 0.014639297
0.026992982 0.033475004 0.014332771
0.0030707358 0.0042139818 0.0011070482
0.029025985 -0.015900007 0.012319452
0.017905878 0.036375001 0.0016402658
0.0064969384 0.032967929 0.011043532
0.033393517 0.014288337 -0.01099399
0.012405259 0.034713931 0.014898369
0.0027929966 0.032875061 -0.0030001986
0.0044680256 -0.0065447181 -0.0099572837
0.0095219472 -0.014915738 -0.015161968
0.025401639 -0.025773093 -0.0093263108
0.033198442 -0.019925 0.0030619195
0.028466782 -0.017075002 -0.014548158
0.022308854 -0.024627358 -0.0089513753
0.010654015 -0.012834886 0.015878664
0.037988417 -0.0077817957 -0.0034324776
0.033107579 0.033475 -0.00056861329
0.0016888597 -0.0012647555 0.0023602201
0.024849944 -0.019900626 0.017726718
0.028477449 -0.019773392 -0.0065560048
0.018513422 0.017775388 -0.01732848
0.0051981509 0.01829006 -0.0092641329
0.03653479 0.0081552807 -0.0051465663
0.014623225 0.0065336414 -0.016559178
0.034279641 0.031684667 -0.0098091662
0.004843621 -0.014377093 -0.010537291
0.022814179 -0.021723531 -0.0059425328
0.019085223 -0.025925001 -0.010673782
0.0045755855 0.0058956388 0.0081858179
0.022214511 0.034775004 0.01689386
0.016277006 0.033475004 -0.014973396
0.0058116755 -0.016831301 0.0010596133
0.019401163 -0.019161951 0.011992992
0.017361173 -0.00044489041 -0.018208524
0.011273341 0.033475004 -0.003202667
0.029002203 -0.0011213667 0.015993861
0.0080927806 -0.00018274999 0.014074536
0.0048590652 0.014999644 -0.0086768204
0.02045217 0.017639052 -0.017385902
0.035428468 0.01968601 -0.0078826649
0.016216159 -0.019925002 -0.012971797
0.027876183 0.033475004 0.012179412
0.017854273 -0.019004134 0.011748281
0.028874228 -0.0024199013 -0.016069943
0.0049617705 0.011551748 0.0088547124
0.032678735 0.027118521 0.011819785
0.030418191 -0.010323847 0.015098537
0.02210247 -0.019925004 0.015524813
0.037924144 -0.016123002 -0.0037638447
0.030316627 -0.018925004 0.0049307402
0.0049206321 -0.012615761 -0.010645635
0.037122663 -0.019925002 0.00032074619
0.023304988 0.011554972 -0.017064713
0.023794202 0.03361911 0.00033757
0.0061259205 -0.01636829 0.00035674017
0.0075045619 -0.019925002 -0.0055932109
0.03282088 0.0062479689 -0.011671791
0.037116371 0.008813519 0.0026538307
0.035046212 -0.0076659019 -0.01047578
0.020666756 -0.022914018 -0.0098895151
0.0018112763 -0.019165553 -0.0031729743
0.017872617 -0.041925002 -0.0079193888
0.030364567 -0.0067792027 0.015136252
0.0016522646 -0.01533429 0.0020432263
0.027271235 0.033475004 0.010680556
0.016761977 -0.0048068208 0.018115956
0.014377032 -0.023573907 -0.004833878
0.011621473 -0.015545285 -0.016405508
0.037746157 -0.0013278277 0.0045376201
0.022958379 -0.024751319 -0.0018347767
0.0071345423 -0.0019672539 0.013208767
0.003533273 0.0040750001 0.0072126435
0.018040838 -0.019925 -0.016659817
0.027076222 -0.017075002 -0.012166454
0.037311073 0.010199677 0.00034559384
0.01005469 0.027690496 0.014328749
0.016868645 -0.01950413 0.011787951
0.019831609 -0.023662362 -0.0039242404
0.0036930565 0.0099201705 -0.0062287762
0.0063082287 -0.017690049 0.012356175
0.022527946 0.034775004 -0.01712063
0.017899472 -0.0093103843 0.018285105
0.035611264 0.016291134 0.0074974224
0.011199634 0.004341403 -0.014671019
0.025035813 0.023321614 -0.016622929
0.0028319398 0.025908399 -0.0031909528
0.011071295 0.029675916 -0.014971604
0.028033895 0.033475004 0.010703403
0.005969292 -0.017086012 -0.011975859
0.029969476 0.022034248 -0.014199542
0.037575319 0.0032049764 0.0051593059
0.022957535 -0.022957517 -0.0064660027
0.0078827115 -0.0087988563 -0.013901295
0.015582116 0.0341626 0.016115453
0.037323177 0.010120135 4.5292421e-05
0.038152426 -0.013901102 -0.0024359282
0.00821272 0.030102868 0.012851109
0.0026102394 0.0076754056 -0.001637473
0.036838766 0.029765241 -0.0040692342
0.029082479 0.035275005 0.0056087431
0.037335489 0.0032771716 -0.0059191789
0.0019681519 -0.0060786363 -0.0039818748
0.035688642 -0.018171128 -0.0012122157
0.022414936 -0.020372076 -0.0051946212
0.022369351 0.033475004 0.0056936885
0.034153584 0.016019847 -0.0099917855
0.010881922 -0.008446224 0.016014151
0.017976798 -0.021036021 -0.0092513328
0.0058726063 0.021615807 0.010247049
0.012425584 -0.013425 -0.01261368
0.025837155 -0.014151118 -0.017414274
0.025688292 -0.020730779 -0.0085151438
0.025971113 -0.016848993 0.013758061
0.019956177 -0.025925001 -0.0026279073
0.026575685 -0.019925002 -0.0074470574
0.035664994 0.010821058 0.0073841917
0.0023066974 -0.0010008424 -0.0052757869
0.037219707 0.03339012 -0.0018027867
0.010483789 -0.019855253 -0.015777469
0.0094071981 0.014504132 -0.013843861
0.0047576353 0.019871458 0.0085011404
0.0056085824 -0.014495992 -0.01154814
0.011759643 0.023741532 -0.015349415
0.011641383 0.037105221 -0.0073477076
0.024266597 0.014630005 -0.016836109
0.010549109 -0.019925002 0.014746455
0.017609846 0.019660832 -0.017237708
0.0058845268 0.025728166 -0.010264315
0.026324015 -0.018925002 0.0061494936
0.023606846 -0.019925002 -0.013067679
0.0074100071 0.005274009 0.012068328
0.03726526 -0.0024518373 -0.0061146901
0.020670852 -0.041013055 -0.004600002
0.037273515 0.016315581 0.0012779966
0.0020811087 0.00099131081 0.0044548949
0.023252374 0.036110599 0.00046264194
0.014175666 0.0040749991 0.017248336
0.0091847554 -0.0035016059 0.014924804
0.032998476 0.033568472 -0.011477822
0.022745455 -0.038774442 -0.0080200536
0.0034648112 0.0066066058 0.0056269406
0.0029132979 -0.0039521493 0.0069994628
0.037313107 0.013062567 0.00029518612
0.026914513 -0.018940674 0.012440554
0.0065767695 0.033475004 -0.0051548146
0.0081149749 -0.0029680671 -0.014092841
0.017502317 -0.020340869 -0.0087291729
0.014993686 -0.010289663 0.017724702
0.0025413318 0.025231935 0.00040529654
0.0072925827 0.033752784 0.011946079
0.026269712 0.0047023795 -0.016119003
0.02831666 0.03399713 0.0091273924
0.0046174433 -0.0087866159 -0.010188019
0.031986136 -0.01669129 -0.013885755
0.026718725 0.017191565 -0.016003586
0.037113238 -0.0017194608 -0.0065379175
0.0032677772 0.034403045 -0.0010615584
0.0015938943 0.0040662056 0.001537613
0.022168245 -0.016720431 0.01825805
0.03291804 -0.011153087 -0.01301381
0.0037917709 -0.01642642 -0.0088195167
0.035504315 -0.019925002 -0.0092816139
0.0045658057 -0.019925002 -0.0080672167
0.00374033 0.023340303 -0.0063534258
0.012146425 0.0070718466 -0.015552425
0.0084999502 0.033475004 0.005104376
0.01621303 -0.00033887604 -0.01801456
0.011805619 0.016522178 0.015362809
0.025101488 0.0099378629 0.016612107
0.0080407029 0.03423252 -0.011715297
0.026732096 0.0028852141 -0.017080192
0.0026207694 0.016779682 -0.0017241972
0.030414216 -0.018925002 -0.0032029282
0.01770708 0.033380721 -0.017253505
0.0025344286 0.022904364 -0.00023398455
0.0041166795 0.020182205 0.0072402824
0.027958559 0.030488916 -0.015418592
0.0027682022 -0.0050395485 -0.0066255592
0.0033799661 0.022104451 -0.0053701871
0.0026397146 -0.019925 -0.0047834343
0.011788268 0.00076528825 -0.016488107
0.022895029 -0.025236661 -0.012209509
0.033497222 0.024472097 -0.01086697
0.027116204 -0.0011377512 -0.016925393
0.0035683201 0.0074879397 0.0058998722
0.0037116678 -0.01656314 0.0086722095
0.021034755 -0.041044999 -0.0097647291
0.0058555468 0.017343801 0.010222334
0.013396384 -0.0029048084 -0.017192423
0.012610058 -0.019276811 0.014586272
0.0075777811 0.034174431 0.012243003
0.0053852499 0.034416866 -0.0095410068
0.036242779 0.0257931 0.0060023521
0.035586253 -0.00090059073 0.0096418485
0.010865327 0.013077497 0.014841361
0.022486027 -0.025775803 -0.0052924585
0.020819787 0.033475004 -0.016098959
0.010146381 -0.018925 -0.0030541399
0.037274793 0.023708219 -0.0012463707
0.020621218 -0.014324408 -0.018386502
0.033544391 0.014347846 0.010809193
0.037218511 0.024198914 0.0018126245
0.03717811 0.022114776 -0.0021453896
0.037975747 -0.0055627134 -0.0034978001
0.0062100464 -0.019925002 0.00085270207
0.028647831 0.038120799 0.0075921668
0.0039989688 0.0041227448 -0.0049407282
0.027627496 0.01834611 -0.015592354
0.0046578124 0.0040750005 -0.0063091977
0.011594361 0.02025013 0.015255835
0.010421838 0.033149417 0.014560917
0.012332243 -0.01910354 0.016757486
0.035824373 0.033475004 0.0038650997
0.014727808 -0.025890287 -0.0040021697
0.037853755 0.00094549969 0.0041267476
0.030213848 -0.019925004 -0.0081108687
0.02507663 0.018095899 -0.016609304
0.0017019701 -0.0093744937 0.0024737834
0.021513661 -0.023082601 -0.0044776658
0.0095616663 0.034536093 0.013959937
0.026068708 -0.0065216878 -0.017340992
0.022654824 -0.024236659 -0.0084600309
0.022579079 -0.033626325 -0.0056326431
0.022505773 0.030037398 0.017100763
0.037446093 0.0040750001 -0.0045057815
0.0051716664 -0.0061748028 0.010974959
0.0042531569 0.018762158 0.0075279041
0.018341953 0.0040749991 0.018048923
0.028821358 0.0077559236 -0.014944633
0.0102733 -0.015896803 0.015652334
0.015501912 -0.019181032 0.017848194
0.029821372 -0.018925002 0.0037530526
0.025316766 0.033475004 -0.011298219
0.032952655 -0.0039642975 0.012980492
0.016947331 -0.020264398 -0.007769851
0.0028620493 0.010496737 0.0033384387
0.025604345 0.00048967829 0.017487958
0.011720097 -0.01623586 0.016454348
0.031367812 0.014920913 -0.01308986
0.031396817 0.033475004 0.0034010026
0.020621372 0.020823002 -0.0173859
0.028771551 -0.019925 0.012586176
0.026704976 0.034295082 0.0073390603
0.0029546474 -0.019925 -0.00071736349
0.024063379 -0.005460789 0.017914802
0.026979093 -0.015227336 -0.016980648
0.031940691 0.034446843 -0.012582308
0.018139714 0.033475 0.011775869
0.022827284 -0.033885278 -0.0063040666
0.011618584 -0.019376978 0.012310555
0.018301282 -0.019296262 0.011963516
0.0108347 0.03541892 -0.0070673297
0.028298639 0.033475004 -0.0017155902
0.034022432 0.014957408 -0.010181793
0.03219492 -0.019925002 0.0087929638
0.024888197 0.033475004 -0.012863172
0.03726311 0.0093038306 -0.0014453336
0.0097454535 0.033475004 -9.3871597e-05
0.024947541 -0.019925002 -0.0023060222
0.027162323 0.03386993 0.015046601
0.026569016 0.028205434 -0.016067374
0.021901641 0.006084491 -0.017282845
0.0026876021 -0.013113785 0.0064011402
0.021620139 -0.036065947 -0.0046000015
0.022836026 -0.038942751 -0.007625232
0.00271604 -0.016413508 0.00032485856
0.014654527 -0.018925002 0.0034779434
0.015929822 0.033475004 0.0014937785
0.0077764397 0.034749698 -0.0066359695
0.0040516877 0.033475004 0.0025405739
0.036791451 0.024106365 0.0042605824
0.019607972 -0.034031648 -0.0046000015
0.011000579 -0.019082207 -0.0068394123
0.032496281 -0.019925002 0.0094211809
0.013192553 0.034773465 -0.0070888442
0.026775533 0.0051774881 -0.015979383
0.016524294 -0.019216849 0.011551723
0.025159264 -0.024633046 -0.0040898048
0.022930393 -0.019925002 -0.012919774
0.011723756 -0.013861268 0.016456159
0.025136434 0.033475004 0.012830246
0.014837912 -0.017308969 -0.017675402
0.036202803 0.017814849 -0.0061077513
0.032256577 0.025561556 0.012259289
0.02689435 0.004075001 -0.017013866
0.035173845 0.03472336 -0.0083599575
0.019762974 -0.0141824 -0.018386502
0.031571943 -0.0051753856 0.014227311
0.019594876 0.0071422588 0.017394155
0.022205472 -0.021924159 -0.0090936506
0.027951771 0.0091118077 -0.015422155
0.012070168 -0.013246952 -0.016627705
0.032521173 -0.016371127 -0.013395749
0.037729189 0.0031303589 0.0045993663
0.036883716 0.016909901 0.0038490784
0.036690075 0.02143264 0.0046105166
0.037310652 0.010344546 0.00035609343
0.036918752 0.0028997567 -0.0070393891
0.033383526 0.011039384 0.011006221
0.015646392 -0.016586339 0.017881993
0.011293759 -0.018925002 0.0012206946
0.031932488 0.034110874 0.0074901585
0.022074265 0.0026949106 -0.018272569
0.031189939 0.027054057 0.013247451
0.036871884 0.028001687 -0.0039070132
0.034389127 -0.019925002 -0.0029762797
0.016138991 -0.0092209121 0.017997239
0.036816172 -0.018813614 -0.0072682127
0.0050902744 0.033674806 0.0090772901
0.029647063 0.001676309 -0.015610488
0.035855219 0.015416556 -0.0069832928
0.0043924027 -0.019925004 -0.0085882712
0.018083077 -0.017595468 -0.018299202
0.0017941127 -0.014242513 -0.0030844738
0.0068445476 0.015667625 -0.011469269
0.03088682 0.014572018 0.013510246
0.027317068 -0.017313942 0.014611782
0.03602238 0.024380466 -0.0065834899
0.022625614 -0.039817221 -0.0057114065
0.037493251 -0.019925002 -0.0006450924
0.0298224 0.029716348 -0.014310055
0.0034717682 0.031845339 0.0056452858
0.03231648 0.019412108 -0.012196921
0.010503681 0.036598302 -0.0057229064
0.033029567 0.033475004 -0.0024358707
0.012514074 0.030329427 -0.015740611
0.0025574181 0.016298573 -0.00080448919
0.0067435526 -0.0052165068 -0.012832488
0.013246467 0.020510422 -0.016052667
0.0045508426 0.020786947 0.0081429631
0.013696629 0.002873644 -0.017313426
0.036618412 0.0040750001 -0.00028145785
0.0070905411 0.02109829 -0.011735727
0.025708012 0.027891802 0.016269535
0.034625731 0.034723148 -0.007910491
0.034046296 -0.01180752 0.01179005
0.0024680935 -0.0018113971 -0.0057899542
0.01216475 0.0071943686 0.015558449
0.0093379291 0.0060295505 -0.01379181
0.018441843 -0.019105272 0.014325748
0.034580987 0.033475004 -0.0024171087
0.018722767 0.021811999 -0.017345387
0.011962983 0.012113266 0.015442492
0.03750027 -0.0035787947 -0.005432413
0.035102066 0.0040749996 0.0099714287
0.01957011 -0.020238549 -0.010059325
0.025952699 0.028638517 0.016179925
0.027872065 -0.0054825172 -0.016582033
0.010147966 0.010505089 -0.014387731
0.036738861 0.0031433287 0.0074406657
0.020662563 -0.018650586 -0.018383987
0.027677177 0.0040749991 0.01617036
0.018479723 0.0090789869 0.017240454
0.036609158 -0.016591016 0.0012736898
0.019946638 -0.041925002 -0.0052377814
0.026292492 -0.018925002 0.0017784524
0.024860613 -0.018637765 0.017723342
0.033082474 -0.00518134 -0.01285556
0.0020381573 -0.018750736 0.004298599
0.030115774 -0.01961696 0.0067776502
0.027147165 -0.018468 0.014551293
0.0015604469 0.0010706963 0.00092475081
0.005070461 0.033475004 -0.0056485655
0.028629214 0.039063644 0.0076187835
0.027632399 -0.017075002 -0.012012501
0.021119291 -0.04065251 -0.0097353142
0.028471449 0.0061156168 0.015146554
0.0052771331 0.019653151 0.0093843788
0.022276694 -0.024572052 -0.0088451514
0.020259153 -0.023128079 -0.0010375929
0.011044247 -0.017075002 -0.014127075
0.023246597 0.024737615 -0.017074201
0.016350059 0.033475004 0.0029991725
0.02690452 0.014351111 0.015938416
0.006186299 0.0083062006 0.01066307
0.034386456 0.0068074968 0.0096544167
0.032201219 0.0094379894 -0.012316923
0.0062066009 0.034546144 -0.010687933
0.037023935 0.0098656369 0.0031622697
0.02837415 0.0054397318 0.015199426
0.016491205 -0.024542751 -0.0021287079
0.027243903 0.0088184094 0.015783042
0.0039066803 -0.0065791169 -0.009030831
0.014498445 -0.024921468 -0.0094504338
0.016951684 -0.030178575 -0.0072111143
0.0022642328 -0.00035800412 -0.0051212627
0.0030823327 0.011443356 0.0043426561
0.0032123169 0.013863013 -0.0047914051
0.0027081408 0.026127709 -0.0024437758
0.038276728 -0.0022982978 0.0012591518
0.0079155723 -0.0080462238 -0.013928395
0.036856838 0.025349779 -0.0039807386
0.028585698 -0.018603543 0.014275794
0.010876095 0.016013101 0.01484817
0.013904442 0.033475004 -0.0017191613
0.023504788 -0.021104395 -0.011788205
0.017440522 0.033475004 0.0056119268
0.018617699 0.025201581 -0.017336901
0.034038249 -0.015593001 -0.0010595515
0.0026401316 0.03155984 0.0018836635
0.0066998117 -0.0095178206 -0.012790394
0.036901433 0.025679445 -0.0037622852
0.026466079 -0.0078867888 0.017187402
0.029027916 -0.016436704 0.014511559
0.0027206042 -0.019925002 -0.005702273
0.029010899 0.023385443 0.014824776
0.035097789 0.019969899 -0.0084916987
0.028545182 -0.018925002 -0.001890525
0.037191279 0.0076671536 -0.002036893
0.034857344 -0.0057204715 0.010740116
0.029721905 -0.019925002 -0.015186142
0.016489571 0.033802371 0.0018338123
0.0048129349 -0.019925002 0.0075080013
0.034060176 -0.013711916 0.011774472
0.018200487 -0.040779058 -0.0094329445
0.034073878 -0.010009677 -0.011759099
0.016520286 -0.025373681 -0.002111211
0.03120717 -0.018925002 -0.001654419
0.018167134 -0.02397739 -0.0044729807
0.029130422 -0.018925002 -0.0046268012
0.018987861 -0.019925002 0.00070110487
0.0048433705 0.0089245569 0.0086496379
0.029658146 0.020495847 0.014415484
0.035948154 -0.0033192984 0.0090219341
0.024254598 -6.9807058e-05 -0.017870065
0.0016382007 -0.011587541 -0.0019214029
0.027324326 -0.011271047 -0.016841516
0.032428775 -0.019925002 0.0053677741
0.0023411387 -0.0058311638 -0.0054011149
0.0015343088 -0.014766444 -0.00024285223
0.0043523931 0.0094659822 0.0077370415
0.026757058 0.033475004 -0.010754179
0.036502503 0.033907715 -0.0019062981
0.0081253471 -0.0072305892 0.014101394
0.0067662341 0.0031914467 0.012854316
0.018082563 0.036375001 -0.0024214857
0.0038247455 0.0043812231 0.0057617943
0.017257547 -0.036820557 -0.0056893094
0.0058454983 0.030632757 0.010207779
0.036369 0.0040750001 0.0060489001
0.0083686076 -0.015677188 -0.014302009
0.023306729 -0.019925 -0.012165239
0.0074425861 0.02550759 -0.012102246
0.031384848 -0.019925002 0.0054481886
0.020909937 -0.019027807 0.013880196
0.016741501 -0.021539705 -0.012080811
0.01736141 0.0040749991 0.018098252
0.033708375 0.0056596976 -0.010608356
0.0084269848 -0.0015134255 0.014350153
0.017074736 -0.019794259 -0.018164273
0.029033508 0.021871673 -0.014810477
0.017570945 0.036375001 0.0016119261
0.034321394 0.006675526 0.0097486824
0.017975627 -0.024294544 -0.0045945137
0.0019687074 -0.011277737 -0.0039847391
0.027270261 -0.0098912353 -0.016863305
0.031281549 -0.018925004 0.0017961842
0.0034178288 -0.010859635 -0.0081249103
0.038239948 -0.017759794 0.0016775585
0.026165567 -0.019925002 -0.0091487458
0.019684557 0.033475004 -0.0061053177
0.037144165 0.016878862 0.0024249244
0.021824863 -0.010364801 -0.018294754
0.0061017261 0.01332182 0.010559489
0.025805028 -0.023324115 -0.0059182993
0.024400167 -0.003286106 0.017836008
0.011962545 0.033475004 0.0052127889
0.0033680703 0.0086176554 -0.005329119
0.014709607 0.034607008 -0.016588014
0.030742105 0.033475004 -0.0054927235
0.034436457 -0.013425001 0.00067808892
0.015640371 -0.018925002 0.0081092976
0.033170938 0.0091777714 0.011266598
0.035426054 -0.019925002 0.0073144222
0.020532709 -0.025925001 -0.010411196
0.0097651165 0.024956711 -0.014112814
0.024391092 0.010628962 -0.016805422
0.018350465 -0.035731845 -0.0046000015
0.014081625 0.033475004 -0.0054057389
0.021629253 0.033475004 -0.010180524
0.02077565 0.033475004 0.0047944826
0.0025734869 -0.0036419565 0.0060834037
0.018828141 0.019493585 0.017263874
0.01825884 -0.022321953 -0.0012451253
0.01444515 0.034775004 -0.016329946
0.033909235 0.033475004 -0.0068125119
0.037189964 -0.018476425 0.0063243103
0.0065253759 0.017838029 -0.011078359
0.03690435 0.02698547 -0.0037480115
0.023559116 0.035811983 3.4319262e-05
0.038320001 -0.0013933611 -0.0001304195
0.02819469 -0.01333222 0.016422264
0.0030732567 0.016707638 0.0043113222
0.0083261197 -0.0052335402 -0.01426697
0.025408665 -0.021502132 -0.0094034504
0.036454655 0.024077337 0.005423177
0.025522765 0.033475004 0.0018040956
0.0094653014 -0.019925 -0.01420604
0.037019204 0.015556145 -0.0031854105
0.020224623 -0.018925002 0.0037753822
0.037305847 0.033720575 -0.00047544582
0.0179301 -0.037144482 -0.0047998861
0.0057195998 0.033775628 0.010025388
0.013105421 -0.019925002 -0.010315019
0.014216865 0.033475004 0.01200207
0.032560769 0.033475004 0.0053605102
0.03172975 0.031957749 -0.012769195
0.036548078 0.02371465 0.0051006852
0.0036350242 -0.018822834 -0.0085312668
0.035009988 -0.019349836 -0.0068548177
0.038223837 0.00063448277 -0.0018171672
0.0086810151 -0.0061734156 -0.014559648
0.0029721276 0.023659108 -0.0038776281
0.031351205 0.033475 -0.0022543352
0.0057460936 0.0040749996 0.0091979261
0.038313396 -0.003418697 -0.00030268793
0.027946902 0.033475004 -0.013760295
0.036015291 -0.0033673509 -0.0088984622
0.022297252 -0.041925002 -0.0085257841
0.037215754 0.034256358 0.001835357
0.037060864 -0.017302662 0.0066837152
0.023688048 0.022762084 0.016885245
0.012040771 0.004075001 -0.015842261
0.02277199 0.031201463 -0.017151304
0.010833138 0.016688099 0.014821006
0.032189298 0.010466835 -0.012329332
0.031320501 0.0040749996 0.01278176
0.010373176 0.025486518 -0.014530143
0.034790434 -0.004067983 0.010827892
0.004546368 0.017146807 0.0081352126
0.010901353 0.031177746 0.014864143
0.013827593 -0.019925004 -0.0099499933
0.0036022658 -0.018560512 -0.00093675125
0.025911458 -0.019925002 0.016669014
0.035698734 0.015419358 -0.0073130811
0.013311507 0.0014380523 -0.017158218
0.032793645 0.034752391 0.010622756
0.018547732 0.0052076131 -0.017331252
0.033124506 -0.0080765085 -0.012815109
0.030068232 0.028003098 0.014125341
0.0039549465 0.026412431 0.0068994346
0.034383517 0.034064174 -0.0096586784
0.024579931 0.033475004 0.0083282003
0.022651562 -0.030867891 -0.0082155978
0.037301913 0.03075216 0.00057312404
0.028135663 0.0079522245 0.015317273
0.020879021 0.033475004 -0.0098581733
0.0056526694 0.033475004 0.0052200584
0.032411635 -0.019925002 0.010945955
0.015480136 -0.025925003 -0.010406765
0.0032684214 0.02130124 -0.0049850969
0.012822334 0.0082936613 0.015884148
0.037168421 0.024542196 0.0022251753
0.027107675 0.033475004 -0.0028278404
0.020619713 0.03280066 0.017376354
0.015767206 0.019162193 -0.016881417
0.0026502993 0.0073544611 -0.0019674026
0.0051176706 0.016044041 0.00912474
0.030914182 0.0040750005 -0.013072488
0.023744857 0.024950616 -0.016964722
0.019789429 -0.018925145 0.014465674
0.027674537 -0.0017692721 0.016679848
0.035680063 -0.011641473 0.0094969878
0.011180012 0.015555061 0.015040353
0.013407656 0.024631232 0.016000876
0.005957868 -0.013425001 -0.00025087781
0.029185807 -0.018925002 -0.0068515511
0.021845266 -0.022561261 -0.004705146
0.015575488 0.0056447061 0.016836673
0.022802129 -0.020324688 -0.0080879116
0.0077856686 0.006827414 -0.012459436
0.0020368523 -0.005803775 0.0042938506
0.012190108 0.004075001 -0.015020259
0.0015585767 -0.011548551 0.00087595766
0.017104192 -0.011482818 0.018168824
0.03477693 0.0066376268 -0.0090474635
0.0069527333 -0.011472475 0.013033799
0.0029437577 0.013772564 0.0037386674
0.035566851 0.017157836 0.0075910278
0.016006457 -0.025925003 -0.0056570619
0.012405777 -0.019925002 -0.0090106083
0.025429845 -0.022294523 -0.0093348594
0.036512814 -0.0012028231 -0.0079449061
0.036376581 -0.0030768143 -0.0082340008
0.018650234 0.013681744 -0.017339529
0.0054695113 -0.018478004 -0.00067473046
0.022294881 0.0020448067 -0.018238487
0.010331502 0.021243069 -0.014503791
0.004626547 0.016529987 -0.0082740858
0.038278796 -0.0097050713 0.0012052574
0.02410317 -0.013706686 0.017905492
0.038277544 -0.015653972 -0.0012378691
0.0027009312 -0.01350632 -0.00020526635
0.010742648 0.00017438245 -0.015931355
0.020861289 -0.015195129 0.01836873
0.0068788389 0.033961289 0.010405367
0.0024164543 -0.01323218 0.0056461724
0.03672896 -0.00038829807 0.0074627516
0.024804221 0.0069816117 -0.016700242
0.026735693 -0.017075002 -0.014398804
0.0081032068 0.01398522 -0.012754086
0.019617751 0.0088711577 0.017376119
0.029353432 0.029903345 0.014608175
0.020267162 0.0035208322 0.018386502
0.038210452 -0.019925 -0.0015237272
0.0095976749 -0.0118995 -0.015215233
0.023805464 0.015230234 0.016961617
0.028403418 0.016340431 -0.0151851
0.014384083 -0.01018327 0.017531767
0.0030750497 -0.0085965395 0.00736028
0.028666928 0.037073664 0.0069757076
0.016989971 -0.040845554 -0.0075085508
0.020416675 0.018426279 0.017388148
0.033500995 0.033475004 0.0088859592
0.014062237 0.033475004 0.0049960841
0.027673593 -0.017227186 0.014666288
0.035740778 0.01315219 -0.0072244769
0.014612534 0.030343669 -0.016555607
0.0027630415 0.011071526 0.0028534743
0.017078321 -0.036697477 -0.0078975139
0.018758163 -0.019772653 0.014007907
0.028301727 -0.018925002 0.0051886868
0.018521773 -0.041643802 -0.004600002
0.033352144 0.029178871 -0.011044662
0.0033690801 0.02573839 -0.0053326045
0.013895527 -0.015254308 0.013679774
0.017146595 0.0021904078 -0.018175375
0.037841547 -0.017162887 -0.0041896696
0.01570208 0.016369604 0.016769839
0.026839415 -0.019925002 -0.011860022
0.0066145016 0.034775004 -0.010555655
0.03502205 -0.019680783 -0.01051309
0.020585135 -0.029222799 -0.0040959562
0.0016752454 -0.0014619583 -0.0022422899
0.0027325302 0.022081384 0.0026446471
0.030512882 -0.0086822379 0.015031937
0.010898055 0.013588651 -0.014862055
0.010627708 -0.019566765 -0.0078814309
0.0049638869 0.0082847085 -0.0088583771
0.0090514738 -0.012171949 0.014831061
0.0080706337 -0.0015633961 -0.014056273
0.019100619 -0.019925002 0.0012977717
0.011601943 0.038052827 -0.0075979731
0.010229037 0.023482163 0.014438998
0.038264092 -0.0056606834 -0.0014683724
0.033428457 0.012858012 0.010951191
0.0041656932 0.020928744 0.0073435772
0.036013968 -0.002428476 -0.0089008994
0.0086024376 0.016112586 -0.013196364
0.036576811 0.034000881 0.0011947348
0.01357269 -0.017400054 -0.017263478
0.024537621 0.034581665 0.016048979
0.0078513697 0.03249171 -0.012527836
0.036793783 0.022618426 0.0042525288
0.022908123 -0.032864578 -0.0070770239
0.0032559461 -0.019787887 -0.0077638025
0.033468943 0.033475004 0.00017657412
0.036853977 -0.016001048 -0.000986967
0.015623882 -0.025925001 -0.0097566815
0.030850103 0.035275005 0.0051254197
0.011059272 0.033478092 0.01413648
0.032327142 -0.019925002 -0.004961486
0.006311194 -0.014576945 -0.012359505
0.027960334 -0.013425 -0.014163599
0.0053695142 -0.019925002 -0.0045537194
0.036747321 0.023151116 0.0044129128
0.021451939 -0.02162198 -0.0043194485
0.0028010139 0.02424735 -0.0030394702
0.0035969683 0.018683478 0.0059754122
0.024279308 0.033475004 -0.0088351239
0.023350425 -0.019925002 -0.0018119263
0.011560682 -0.01499113 0.015048485
0.020442944 0.035112485 0.0038443124
0.028850682 -0.019219214 -0.013825534
0.034767926 0.025064796 0.0090630557
0.030271763 -0.018675901 0.01520153
0.010616038 0.0051065795 0.014683721
0.034004834 -0.011895814 -0.011836572
0.030897973 0.013348107 0.013501865
0.019478953 -0.0030498132 -0.018386502
0.0059681763 0.0020271498 0.011974605
0.020805027 0.033475004 -0.0083856126
0.018181428 0.029799143 -0.017301667
0.0041811075 0.0037443526 0.0095142163
0.010994291 -0.019018482 -0.006423105
0.020909771 -0.025581079 -0.0011272605
0.015252898 -7.8468329e-05 0.017789936
0.0095307874 0.026347348 0.013936732
0.0235123 -0.019925 0.014673116
0.025231892 0.028956423 0.016456891
0.021054558 -0.016941966 0.018353892
0.015106277 -0.022408657 -0.010505108
0.035821505 -0.00037506319 -0.009254856
0.02917829 -0.019925004 0.014441335
0.0028017408 0.0055711484 0.003043032
0.010163568 0.029115204 0.014397599
0.027908055 0.014472494 -0.0154451
0.032854192 0.033475004 0.0088290526
0.01810557 -0.039436612 -0.0093564214
0.016970456 -0.029126639 -0.0066403649
0.033807721 0.0040749996 0.011412036
0.026603257 -0.017613502 0.017132116
0.0053576375 0.0040750005 -0.010196247
0.01605968 -0.018925002 0.0019718092
0.0080509437 0.032863718 0.012707788
0.019751277 -0.037975524 -0.0099913608
0.0052336613 -0.015283735 0.011056288
0.036902796 0.029212408 0.0037556121
0.0027041161 -0.017013306 0.00023047444
0.037180852 -0.0059230761 -0.0063496805
0.0055520795 -0.017905574 -0.00052327319
0.010940111 -0.018273715 0.016048744
0.012305402 0.030612282 -0.015635865
0.014835636 0.02747173 0.016530195
0.034568127 0.018317422 -0.0093912268
0.011190441 -0.017075002 0.014835539
0.037858561 -0.002670361 -0.0041019553
0.035022676 0.033475004 -0.0053110751
0.0040497631 -0.0028676069 -0.009293953
0.026780169 0.0040749991 0.01631503
0.026370123 -0.017075002 -0.01231287
0.0029369423 -0.017075002 8.6013104e-05
0.038272604 0.0039464412 -0.0013666369
0.015725067 -0.0070550828 -0.017900402
0.037885632 0.0025522404 -0.0039623692
0.0035433909 -0.0059084115 0.0083627542
0.026231099 -0.015230787 -0.012455967
0.0015695182 -0.00046903756 -0.0011614076
0.021848287 -0.022746729 -0.0045994949
0.033467285 -0.0033473191 0.012439754
0.011787128 0.034775004 0.015023848
0.01146657 -0.019925002 -0.010614017
0.0092087369 -0.019925002 0.013964646
0.0057849046 -0.019925002 0.0060764775
0.01048266 -0.019660177 -0.0077994838
0.036329161 -0.013425002 7.5305747e-05
0.017806981 0.0079854382 0.017270578
0.021480016 -0.032865055 -0.0095439069
0.030541006 -0.019925002 -0.01297293
0.022270475 -0.033641495 -0.0088459272
0.033003539 0.033475008 0.0092514148
0.022204192 0.035042267 0.0031362346
0.028601766 0.036703214 0.0076579689
0.016315049 -0.012256065 -0.018038427
0.037079584 0.027449852 -0.002889679
0.02756113 -0.019925002 0.015210421
0.0016564151 0.00063868309 0.0020791793
0.037710808 0.0030673922 0.004666259
0.020010529 -0.012915469 -0.018386502
0.020095829 0.00054351951 0.018386502
0.0066547454 0.022355927 0.011236807
0.022912674 0.0031639198 -0.018143045
0.0036882048 0.009005026 0.0062159831
0.0017440977 -0.018587256 -0.0028265794
0.034751229 -0.016642598 -0.01087933
0.033952042 -0.018903311 -0.0077520977
0.032127116 -0.0055770311 -0.013769495
0.0093394341 -0.019925002 -0.013758866
0.031836536 0.033728968 0.005464538
0.0024362647 -0.0037945563 -0.0057013314
0.026725903 0.015946181 0.015902765
0.035339847 0.0037060643 0.010022356
0.015184254 -0.0043707364 -0.017773876
0.01530828 0.018724272 -0.016768288
0.018309645 0.0099052321 0.017324854
0.006948173 0.02900433 0.011587508
0.025828237 0.033475004 -0.0032140191
0.0072964244 0.03300523 -0.011950074
0.015331681 -0.0095337825 -0.017808367
0.0372166 -0.012894813 -0.0062501584
0.013191228 0.0044032559 0.015748911
0.036828749 0.0080532022 -0.004118334
0.032934617 0.030112116 -0.01155338
0.02605598 -0.017075002 -0.013797234
0.002806305 0.0040750001 -0.00046359355
0.0081837121 0.033475004 -0.0097256619
0.036404017 0.015640421 0.0055772113
0.0050842459 -0.013835264 -0.010860275
0.022343684 -0.041799773 -0.0087578055
0.027544489 0.027204303 -0.015635924
0.012068934 -0.013424999 -0.011695075
0.010148385 -0.017137785 -0.015578076
0.0016448959 -0.013272334 -0.0019793981
0.030464672 -0.0069364649 -0.015065848
0.0032758606 0.02362008 -0.0050107786
0.026986564 0.033475004 0.00018919611
0.027950674 0.033475004 -0.00074891129
0.0037469745 0.028990544 0.0063709491
0.030750684 0.033475004 -0.0038431336
0.030157091 0.033475004 -0.008109659
