# .PCD v0.7 - Point Cloud Data file format
VERSION 0.7
FIELDS x y z
SIZE 4 4 4
TYPE F F F
COUNT 1 1 1
WIDTH 1000
HEIGHT 1
VIEWPOINT 0 0 0 1 0 0 0
POINTS 1000
DATA ascii
0.028392909 0.015186327 -0.01759794
0.036407046 0.0055692387 -0.012019461
0.032414269 0.013498639 0.011117509
0.011358132 0.0071003563 -0.033475004
0.021987095 0.018282298 0.013121482
0.0025572672 0.00080074527 -0.011094737
0.029150566 -0.014119811 -0.0040750001
0.025646696 -0.017474553 -0.0023339847
0.020983541 0.01762845 -0.0040750001
0.017949356 -0.0046111862 0.024612937
0.026608482 0.0089130215 0.018925002
0.038203355 -0.0019946881 0.0050412044
0.0065594134 -0.0068938513 0.019025
0.036943078 -0.0035583293 -0.029815396
0.0079739103 0.013976504 0.012165806
0.027224364 0.016881803 -0.0023284305
0.017794544 -0.004938914 0.036382936
0.022819148 -0.0077024098 0.038676728
0.0042721769 0.0075679873 -0.01835781
0.031074032 -0.013247821 0.019925002
0.023448505 -0.018058654 -0.0017627117
0.020461071 0.017385406 -0.019754566
0.018622862 0.018340642 0.016851142
0.010008617 -0.014295792 -0.013120332
0.0015753841 0.0013144352 0.019092588
0.025571728 -0.016444022 -0.018939206
0.0037139875 -0.0062839673 -0.017102912
0.001633401 -0.0018798257 -0.0021655946
0.029305676 0.014638371 -0.02161344
0.0048028305 0.008579419 -0.029266724
0.0063734399 -0.0097413901 -0.033777606
0.017286599 0.017193839 -0.032937247
0.0075841355 0.013641447 0.0027659219
0.0026067407 0.0016086585 -0.014144921
0.035698049 0.0054664626 -0.033528
0.0058560357 0.010223042 -0.021266825
0.0025515091 -0.00065784599 -0.031405505
0.037881579 0.00398331 0.0083433092
0.0035925296 -0.0084531186 0.0085389297
0.0043950523 0.0098445956 0.0058090128
0.020746237 -0.0099743698 0.022055428
0.035375249 -0.0079948399 -0.032859396
0.014467134 -0.016507069 -0.030174552
0.020042852 0.018386502 0.0089417743
0.032470826 0.0090288585 -0.033475
0.030614723 -0.013714703 -0.032602217
0.001575517 -0.0013178975 0.016641205
0.035219777 0.0066910842 -0.034632456
0.0026727144 -0.0063596871 -0.0016972909
0.030051425 -0.014137967 -0.033990592
0.003876874 -0.0067134653 -0.0088876588
0.018099762 -0.010448012 0.025925001
0.017990405 -0.0047380412 0.039001238
0.033671297 0.010653775 -0.012286812
0.014370166 -0.0019512399 0.019925002
0.0097216144 -0.015302403 0.018565992
0.013377795 0.015989922 -0.030008527
0.018084684 -0.004641098 0.030589946
0.030486329 0.010258889 -0.033475004
0.010872365 0.01600847 5.9855942e-05
0.024371648 0.01784268 0.013764042
0.027105086 -0.014532243 0.017562101
0.025977746 0.010306456 0.019054776
0.015802778 0.016799105 -0.027379781
0.033627 -0.010708027 -0.01122176
0.033009473 -0.011464367 -0.0076642754
0.008808082 0.013378548 -0.034218181
0.031993534 -0.012533146 -0.006546462
0.0092507396 -0.013726292 -0.017265633
0.029741608 0.014362708 -0.008928664
0.0053655813 -0.0095125129 -0.019983204
0.018847451 -0.018357884 0.0096482737
0.035002235 0.01054369 0.0074706711
0.002944299 -0.0037413165 -0.02072918
0.025261877 0.0075090481 0.018925002
0.014107892 0.012202785 -0.033475004
0.010574278 -0.012740665 0.016918557
0.028874131 -0.013081476 0.018272122
0.0017346208 0.0027566091 -0.0027106977
0.02928078 0.012408617 -0.033475004
0.011603482 -0.015267452 -0.024082208
0.038279325 0.0011915289 0.012480261
0.0025766983 -0.0012829491 -0.028771171
0.016856039 -0.017115245 -0.010393193
0.0290321 0.015976088 -4.4001343e-05
0.0027029093 -0.0024006907 -0.017723527
0.030966902 -0.013445054 -0.021419482
0.014807666 -0.016620751 -0.016947519
0.011565633 -0.0072395103 -0.038913008
0.0071429242 0.011790264 -0.010173702
0.015268834 -0.010712776 0.024397703
0.010379774 -0.01103878 -0.033475004
0.037238702 -0.0016463635 -0.024083341
0.0057198596 -0.011694121 0.01973662
0.031488206 0.012983196 -0.017675458
0.0015735761 0.0012672715 -0.0021699942
0.03637917 -0.0056427284 -0.012950888
0.014446439 -0.01650016 -0.030621549
0.016048132 0.01596285 -0.0040786522
0.0092346556 -0.014959903 0.017305983
0.038275644 -0.0012874419 0.018755708
0.0082981456 0.012926786 -0.025891274
0.0015507337 -0.00067134487 -0.0023740078
0.0059872684 -0.0095655406 0.019832427
0.0071776831 -0.0077060768 0.018495049
0.014926355 -0.016660374 -0.012964695
0.025128057 0.013655358 -0.033475004
0.028508745 -0.01512982 -0.025020204
0.013345103 -0.0004760935 0.018925002
0.024157144 0.017892865 -0.0031434614
0.0029353206 0.0036973373 -0.011349712
0.033158191 0.011282223 -0.02086363
0.01075035 0.015935933 0.015405421
0.030342421 -0.015151833 0.0052581928
0.01711588 -0.0057256818 0.02299688
0.037625995 -0.0049749156 0.0084815724
0.0022321504 0.0050045173 0.019125627
0.03236337 -0.013547624 0.015404171
0.028885545 0.012177121 0.015627502
0.0027250615 -0.0025831326 -0.017846728
0.032933451 0.003348409 -0.033475004
0.010731347 0.015924638 0.0077880681
0.028877202 -0.014909321 -0.03441529
0.0312197 0.01451779 0.01556852
0.0049243243 0.010650477 -0.0036924866
0.037258103 -0.0014865607 -0.020525541
0.0098716784 0.01419289 -0.010795941
0.034419473 -0.0014181859 0.013449783
0.011252228 -0.016222656 0.012446591
0.021323029 -0.009644445 0.034983337
0.038316645 0.00021797109 0.015380106
0.017188722 -0.012313054 0.024636025
0.013156248 0.012663516 0.017406551
0.018857595 -0.0046000001 0.031624522
0.029482599 0.00043694559 -0.033475004
0.023342699 0.018076614 0.0091639003
0.0046825102 0.0017234309 0.015570862
0.0266796 -0.0016014399 0.019607324
0.021820301 -0.018295102 0.017787518
0.020149291 -0.003911783 0.024713339
0.013840289 0.012932108 0.016774753
0.037948992 -0.0036357571 -0.0023290459
0.028592132 0.01622545 0.0033097202
0.012740311 -0.0076297182 0.019925002
0.0027027286 -0.0023992008 -0.015986403
0.015286006 -0.017797681 0.0066048815
0.019482652 -0.003946194 0.020998029
0.026807249 -0.015965872 -0.026814427
0.037063517 0.0066763554 0.01173604
0.012057017 0.016621193 0.010733492
0.0079379398 0.010760855 -0.033475004
0.014253125 0.01749032 -0.00059216085
0.031682879 -0.014135837 0.004585146
0.016057985 0.01695708 -0.025265008
0.019842997 -0.017385902 -0.02890094
0.017725203 -0.016749788 0.019925002
0.0025361895 -0.00027767036 -0.023310876
0.008153447 0.014124566 -1.4593125e-05
0.035826452 0.0070439246 -0.014061274
0.011978372 -0.0090269232 0.019925002
0.003594321 -0.0084564127 0.014806739
0.026901014 -0.01470192 -0.033475004
0.038289104 0.00093640416 0.00015520133
0.013579356 0.016201191 -0.0074409787
0.0093545374 -0.01380429 -0.0069296169
0.037532952 0.005313497 0.014297554
0.02025402 0.017809521 -0.0040750001
0.012240237 -0.015601662 -0.0065339073
0.011001552 0.016085269 0.016091669
0.014170637 0.0028753411 -0.033475004
0.021236621 -0.018339913 0.019027116
0.034376562 0.0089125885 -0.0042758207
0.035349559 -0.0056571891 -0.0040795924
0.026188295 0.0046986984 -0.033475004
0.036657471 0.002691126 -0.00424904
0.018023649 -0.0072214981 -0.033475004
0.037229028 -0.0017260308 -0.01525365
0.023659324 0.01383492 -0.033475004
0.037066601 0.0029533075 -0.0071510384
0.0085082073 -0.013112884 -0.015700232
0.029957537 0.010654953 -0.033475004
0.035579819 0.0050201821 -0.0040750001
0.021016922 -0.017354298 -0.031196376
0.018101988 0.0034573532 0.018925002
0.029434236 0.0046768184 0.018925004
0.012143629 0.016664084 0.0064249733
0.02446085 -0.016495666 -0.0040750001
0.0066324095 0.012719937 -0.00090403704
0.021529373 -0.0048732185 -0.033475004
0.036699574 0.0011988941 0.014553166
0.0029955956 0.0043719886 0.019925002
0.024489762 0.0060768407 -0.033475004
0.0030458164 -0.0042165881 -0.027295357
0.028702589 -0.014823087 0.016713841
0.03317007 -0.010161762 -0.034647211
0.036533821 -0.0051499084 -0.017621633
0.014167266 -0.017463148 -0.0032427593
0.026065985 -0.012802378 0.013425001
0.0043565608 -0.0097851548 -0.00050520862
0.036704846 -0.0045595453 -0.0065243584
0.036258493 -0.0059609283 -0.0056219925
0.0084076216 0.014334181 0.013897534
0.0025696338 -0.0011076337 -0.021794107
0.0244454 0.017825428 -0.0024549488
0.011267374 -0.016230157 0.014616397
0.021227214 -0.0042136973 0.023592155
0.0048537636 -0.0086676376 -0.02737941
0.022904174 0.0034564068 -0.033475004
0.028749723 -0.0057091904 -0.033475004
0.031071123 0.014639297 -0.0017888899
0.026992982 0.014332769 -0.033475004
0.0030707361 0.0011070481 -0.0042139818
0.029025985 0.012319453 0.015900007
0.01790588 0.0016402641 -0.036375001
0.0064969389 0.01104353 -0.032967929
0.033393517 -0.01099399 -0.014288337
0.01240526 0.014898367 -0.034713931
0.0027929966 -0.0030002003 -0.032875061
0.0044680266 -0.0099572837 0.0065447181
0.0095219482 -0.015161968 0.014915738
0.025401639 -0.0093263099 0.025773093
0.033198446 0.0030619199 0.019925
0.028466782 -0.014548157 0.017075002
0.022308856 -0.0089513743 0.024627358
0.010654016 0.015878664 0.012834886
0.037988421 -0.0034324771 0.0077817957
0.033107582 -0.00056861475 -0.033475
0.0016888598 0.0023602201 0.0012647555
0.024849946 0.017726718 0.019900626
0.028477451 -0.0065560038 0.019773392
0.018513424 -0.01732848 -0.017775388
0.0051981509 -0.0092641339 -0.01829006
0.03653479 -0.0051465663 -0.0081552798
0.014623227 -0.016559178 -0.0065336404
0.034279644 -0.0098091681 -0.031684667
0.0048436215 -0.01053729 0.014377093
0.022814179 -0.0059425319 0.021723531
0.019085225 -0.010673781 0.025925001
0.0045755859 0.0081858179 -0.0058956393
0.022214513 0.01689386 -0.034775004
0.016277006 -0.014973398 -0.033475004
0.0058116755 0.001059614 0.016831301
0.019401165 0.011992993 0.019161951
0.017361175 -0.018208524 0.00044489111
0.011273343 -0.0032026684 -0.033475004
0.029002203 0.015993861 0.001121366
0.0080927815 0.014074536 0.00018274951
0.0048590656 -0.0086768204 -0.014999643
0.020452172 -0.017385902 -0.01763905
0.035428476 -0.0078826658 -0.01968601
0.016216161 -0.012971797 0.019925002
0.027876185 0.012179409 -0.033475004
0.017854275 0.011748282 0.019004134
0.02887423 -0.016069941 0.0024199018
0.0049617705 0.0088547124 -0.011551749
0.032678735 0.011819784 -0.027118521
0.030418195 0.015098537 0.010323846
0.022102471 0.015524815 0.019925004
0.037924152 -0.0037638443 0.016123002
0.030316629 0.0049307412 0.018925004
0.0049206326 -0.010645634 0.012615761
0.037122667 0.00032074706 0.019925002
0.023304988 -0.017064713 -0.011554971
0.023794204 0.00033756855 -0.03361911
0.0061259209 0.00035674084 0.01636829
0.0075045628 -0.0055932105 0.019925002
0.032820884 -0.011671791 -0.0062479679
0.037116379 0.0026538302 -0.008813519
0.035046212 -0.010475779 0.0076659024
0.020666756 -0.0098895151 0.022914018
0.0018112764 -0.0031729734 0.019165553
0.017872619 -0.007919387 0.041925002
0.030364571 0.015136252 0.0067792027
0.0016522646 0.0020432267 0.01533429
0.027271237 0.010680554 -0.033475004
0.016761979 0.018115956 0.0048068203
0.014377032 -0.0048338766 0.023573907
0.011621474 -0.016405508 0.015545285
0.037746161 0.0045376201 0.0013278277
0.022958381 -0.0018347756 0.024751319
0.0071345428 0.013208768 0.0019672532
0.0035332732 0.0072126435 -0.0040750001
0.01804084 -0.016659817 0.019925
0.027076226 -0.012166454 0.017075002
0.037311081 0.00034559341 -0.010199677
0.010054691 0.014328747 -0.027690496
0.016868649 0.011787953 0.01950413
0.019831609 -0.0039242394 0.023662362
0.0036930568 -0.0062287762 -0.0099201705
0.0063082287 0.012356176 0.017690049
0.022527948 -0.017120633 -0.034775004
0.017899474 0.018285105 0.0093103833
0.035611268 0.0074974215 -0.016291134
0.011199634 -0.014671019 -0.0043414026
0.025035815 -0.016622929 -0.023321614
0.0028319401 -0.0031909542 -0.025908399
0.011071295 -0.014971606 -0.029675916
0.028033899 0.0107034 -0.033475004
0.0059692929 -0.011975858 0.017086012
0.029969476 -0.014199544 -0.022034248
0.037575323 0.0051593059 -0.0032049769
0.022957537 -0.0064660013 0.022957517
0.0078827124 -0.013901293 0.0087988563
0.015582118 0.016115451 -0.0341626
0.037323181 4.5291974e-05 -0.010120135
0.03815243 -0.0024359275 0.013901102
0.008212721 0.012851107 -0.030102868
0.0026102394 -0.0016374734 -0.0076754056
0.03683877 -0.0040692356 -0.029765241
0.029082479 0.0056087421 -0.035275005
0.037335493 -0.0059191789 -0.0032771709
0.0019681521 -0.0039818743 0.0060786363
0.03568865 -0.0012122151 0.018171128
0.022414938 -0.0051946202 0.020372076
0.022369353 0.0056936867 -0.033475004
0.034153588 -0.0099917864 -0.016019847
0.010881922 0.016014151 0.008446224
0.0179768 -0.0092513319 0.021036021
0.0058726068 0.010247048 -0.021615807
0.012425585 -0.012613679 0.013425
0.025837155 -0.017414274 0.014151118
0.025688296 -0.0085151438 0.020730779
0.025971116 0.013758061 0.016848993
0.019956177 -0.0026279062 0.025925001
0.026575686 -0.0074470569 0.019925002
0.035664994 0.0073841917 -0.010821058
0.0023066974 -0.0052757869 0.0010008429
0.037219714 -0.0018027881 -0.03339012
0.010483789 -0.015777469 0.019855253
0.0094071999 -0.013843862 -0.014504132
0.0047576358 0.0085011376 -0.019871458
0.0056085829 -0.011548138 0.014495992
0.011759644 -0.015349415 -0.023741532
0.011641384 -0.007347709 -0.037105221
0.024266599 -0.016836109 -0.014630004
0.010549109 0.014746456 0.019925002
0.017609848 -0.017237708 -0.019660832
0.0058845268 -0.010264318 -0.025728164
0.026324017 0.006149495 0.018925002
0.023606848 -0.013067679 0.019925002
0.0074100075 0.012068328 -0.0052740094
0.037265263 -0.0061146892 0.0024518375
0.020670854 -0.0046000001 0.041013055
0.037273519 0.0012779959 -0.016315581
0.002081109 0.0044548949 -0.00099131092
0.023252374 0.00046264037 -0.036110599
0.014175666 0.017248336 -0.0040750001
0.0091847563 0.014924804 0.0035016052
0.03299848 -0.011477824 -0.033568472
0.022745457 -0.0080200527 0.038774442
0.0034648115 0.0056269406 -0.0066066063
0.0029132979 0.0069994633 0.0039521493
0.037313111 0.00029518554 -0.013062567
0.026914518 0.012440556 0.018940674
0.0065767705 -0.005154816 -0.033475004
0.0081149759 -0.014092841 0.0029680675
0.017502317 -0.0087291719 0.020340869
0.014993687 0.017724702 0.010289663
0.002541332 0.0004052954 -0.025231935
0.0072925836 0.011946077 -0.033752784
0.026269713 -0.016119003 -0.0047023785
0.028316662 0.0091273906 -0.03399713
0.0046174442 -0.010188019 0.0087866159
0.031986136 -0.013885755 0.01669129
0.026718728 -0.016003588 -0.017191565
0.037113246 -0.0065379166 0.0017194614
0.0032677774 -0.00106156 -0.034403045
0.0015938944 0.0015376129 -0.0040662056
0.022168247 0.01825805 0.016720431
0.03291804 -0.013013809 0.011153087
0.0037917709 -0.0088195167 0.01642642
0.035504319 -0.009281612 0.019925002
0.0045658057 -0.0080672158 0.019925002
0.00374033 -0.0063534267 -0.023340302
0.012146426 -0.015552425 -0.0070718462
0.0084999511 0.0051043746 -0.033475004
0.01621303 -0.01801456 0.0003388765
0.011805619 0.015362807 -0.016522178
0.025101488 0.016612107 -0.0099378638
0.0080407038 -0.011715299 -0.03423252
0.026732096 -0.017080192 -0.0028852131
0.0026207697 -0.001724198 -0.016779682
0.030414216 -0.0032029273 0.018925002
0.017707082 -0.017253505 -0.033380721
0.0025344288 -0.00023398556 -0.022904364
0.00411668 0.0072402814 -0.020182205
0.027958559 -0.015418593 -0.030488916
0.0027682025 -0.0066255587 0.0050395485
0.0033799664 -0.0053701876 -0.022104451
0.0026397149 -0.0047834329 0.019925
0.011788268 -0.016488107 -0.00076528772
0.022895031 -0.012209508 0.025236661
0.033497229 -0.010866971 -0.024472097
0.027116204 -0.016925393 0.0011377521
0.0035683205 0.0058998722 -0.0074879401
0.0037116685 0.0086722104 0.01656314
0.021034755 -0.0097647272 0.041044999
0.0058555468 0.010222333 -0.017343801
0.013396385 -0.017192423 0.0029048091
0.012610059 0.014586274 0.019276811
0.0075777816 0.012243001 -0.034174431
0.0053852503 -0.0095410086 -0.034416866
0.036242783 0.0060023512 -0.0257931
0.03558626 0.0096418485 0.0009005905
0.010865328 0.014841361 -0.013077497
0.022486029 -0.0052924575 0.025775803
0.020819789 -0.016098961 -0.033475004
0.010146382 -0.0030541394 0.018925
0.037274797 -0.0012463718 -0.023708219
0.020621222 -0.018386502 0.014324408
0.033544403 0.010809193 -0.014347846
0.037218515 0.0018126236 -0.024198914
0.03717811 -0.0021453903 -0.022114776
0.037975747 -0.0034977996 0.0055627134
0.0062100473 0.00085270288 0.019925002
0.028647833 0.0075921644 -0.038120799
0.0039989688 -0.0049407282 -0.0041227448
0.0276275 -0.015592354 -0.01834611
0.0046578124 -0.0063091977 -0.0040750001
0.011594363 0.015255835 -0.02025013
0.01042184 0.014560916 -0.033149417
0.012332244 0.016757486 0.019103538
0.035824377 0.0038650983 -0.033475004
0.014727809 -0.0040021688 0.025890287
0.037853759 0.0041267476 -0.00094549969
0.03021385 -0.0081108678 0.019925004
0.025076631 -0.016609304 -0.018095899
0.0017019701 0.0024737837 0.0093744937
0.021513661 -0.0044776644 0.023082601
0.0095616672 0.013959935 -0.034536093
0.026068708 -0.017340992 0.0065216883
0.022654824 -0.00846003 0.024236659
0.022579081 -0.0056326413 0.033626325
0.022505773 0.017100759 -0.030037398
0.037446097 -0.0045057815 -0.0040750001
0.0051716669 0.010974959 0.0061748028
0.0042531569 0.0075279037 -0.018762158
0.018341955 0.018048923 -0.0040750001
0.028821358 -0.014944633 -0.0077559236
0.010273301 0.015652334 0.015896803
0.015501913 0.017848194 0.019181032
0.029821374 0.0037530535 0.018925002
0.025316767 -0.011298221 -0.033475004
0.032952663 0.012980492 0.003964297
0.016947331 -0.0077698501 0.020264398
0.0028620495 0.0033384382 -0.010496737
0.025604345 0.017487958 -0.00048967905
0.011720097 0.016454348 0.016235858
0.031367812 -0.01308986 -0.014920913
0.031396817 0.0034010014 -0.033475004
0.020621372 -0.017385902 -0.020823002
0.028771553 0.012586176 0.019925
0.026704976 0.0073390594 -0.034295082
0.0029546476 -0.00071736262 0.019925
0.02406338 0.017914802 0.005460789
0.026979093 -0.016980648 0.015227336
0.031940691 -0.01258231 -0.034446843
0.018139714 0.011775866 -0.033475
0.022827286 -0.0063040652 0.033885278
0.011618584 0.012310557 0.019376978
0.018301284 0.011963517 0.019296262
0.010834701 -0.0070673306 -0.03541892
0.028298639 -0.0017155916 -0.033475004
0.034022436 -0.010181794 -0.014957408
0.032194924 0.0087929638 0.019925002
0.024888199 -0.012863173 -0.033475004
0.03726311 -0.0014453341 -0.0093038306
0.0097454544 -9.387303e-05 -0.033475004
0.024947545 -0.0023060213 0.019925002
0.027162325 0.015046599 -0.03386993
0.02656902 -0.016067376 -0.028205434
0.021901643 -0.017282845 -0.0060844901
0.0026876023 0.0064011407 0.013113784
0.021620141 -0.0046000001 0.036065947
0.022836028 -0.0076252306 0.038942751
0.00271604 0.00032485928 0.016413508
0.014654528 0.0034779441 0.018925002
0.015929824 0.0014937771 -0.033475004
0.0077764406 -0.0066359714 -0.034749698
0.0040516877 0.0025405728 -0.033475004
0.036791451 0.0042605805 -0.024106365
0.019607976 -0.0046000001 0.034031648
0.01100058 -0.0068394118 0.019082207
0.032496285 0.0094211809 0.019925002
0.013192553 -0.0070888461 -0.034773465
0.026775535 -0.015979383 -0.0051774872
0.016524296 0.011551724 0.019216849
0.025159266 -0.0040898039 0.024633046
0.022930395 -0.012919773 0.019925002
0.011723756 0.016456159 0.013861268
0.025136434 0.012830243 -0.033475004
0.014837913 -0.017675402 0.017308969
0.036202811 -0.0061077522 -0.017814849
0.032256581 0.012259288 -0.025561558
0.02689435 -0.017013866 -0.0040750001
0.035173845 -0.0083599593 -0.03472336
0.019762974 -0.018386502 0.0141824
0.031571947 0.014227312 0.0051753856
0.019594878 0.017394155 -0.0071422597
0.022205476 -0.0090936497 0.021924159
0.027951771 -0.015422155 -0.0091118077
0.012070168 -0.016627705 0.013246952
0.032521177 -0.013395749 0.016371127
0.037729196 0.0045993663 -0.0031303589
0.036883716 0.003849078 -0.016909901
0.036690079 0.0046105157 -0.02143264
0.037310656 0.00035609293 -0.010344546
0.036918756 -0.0070393891 -0.0028997562
0.03338353 0.011006221 -0.011039385
0.015646394 0.017881993 0.016586339
0.01129376 0.0012206954 0.018925002
0.031932492 0.0074901567 -0.034110874
0.022074269 -0.018272569 -0.0026949097
0.031189939 0.013247449 -0.027054057
0.036871888 -0.0039070142 -0.028001687
0.034389127 -0.0029762792 0.019925002
0.016138993 0.017997239 0.0092209112
0.036816176 -0.0072682118 0.018813614
0.0050902748 0.0090772882 -0.033674806
0.029647065 -0.015610488 -0.0016763088
0.035855222 -0.0069832928 -0.015416556
0.0043924036 -0.0085882694 0.019925004
0.018083077 -0.018299202 0.01759547
0.001794113 -0.0030844728 0.014242513
0.0068445476 -0.011469269 -0.015667625
0.03088682 0.013510245 -0.014572018
0.027317068 0.014611783 0.017313942
0.036022384 -0.0065834909 -0.024380466
0.022625616 -0.0057114051 0.039817221
0.037493259 -0.00064509158 0.019925002
0.029822402 -0.014310057 -0.029716348
0.0034717685 0.005645284 -0.031845339
0.032316484 -0.012196921 -0.019412108
0.010503681 -0.0057229078 -0.036598302
0.033029579 -0.0024358721 -0.033475004
0.012514076 -0.015740611 -0.030329427
0.0025574183 -0.00080448989 -0.016298573
0.0067435526 -0.012832488 0.0052165072
0.013246468 -0.016052669 -0.020510422
0.0045508426 0.0081429621 -0.020786947
0.01369663 -0.017313426 -0.0028736431
0.036618419 -0.00028145802 -0.0040750001
0.007090542 -0.011735728 -0.02109829
0.025708012 0.016269531 -0.027891802
0.034625731 -0.0079104919 -0.034723148
0.034046296 0.011790051 0.01180752
0.0024680938 -0.0057899542 0.0018113976
0.01216475 0.015558449 -0.0071943686
0.00933793 -0.01379181 -0.00602955
0.018441845 0.014325749 0.019105272
0.034580991 -0.0024171104 -0.033475004
0.018722767 -0.017345387 -0.021811999
0.011962984 0.015442492 -0.012113267
0.037500273 -0.0054324125 0.0035787956
0.035102069 0.0099714287 -0.0040750001
0.019570112 -0.010059324 0.020238549
0.025952702 0.016179925 -0.028638517
0.027872067 -0.016582033 0.0054825176
0.010147967 -0.014387732 -0.010505089
0.036738865 0.0074406657 -0.0031433294
0.020662565 -0.018383987 0.018650586
0.027677178 0.01617036 -0.0040750001
0.018479725 0.017240454 -0.0090789888
0.036609158 0.0012736905 0.016591016
0.01994664 -0.0052377796 0.041925002
0.026292494 0.0017784535 0.018925002
0.024860615 0.017723342 0.018637765
0.033082474 -0.012855559 0.0051813405
0.0020381575 0.0042985999 0.018750736
0.030115774 0.0067776516 0.01961696
0.027147165 0.014551293 0.018468
0.0015604469 0.00092475076 -0.0010706963
0.0050704619 -0.0056485669 -0.033475004
0.028629215 0.0076187816 -0.039063644
0.027632402 -0.012012501 0.017075002
0.021119293 -0.0097353123 0.04065251
0.028471451 0.015146554 -0.0061156177
0.0052771335 0.0093843779 -0.019653151
0.022276696 -0.0088451505 0.024572052
0.020259155 -0.001037592 0.023128079
0.011044248 -0.014127074 0.017075002
0.023246601 -0.017074201 -0.024737615
0.016350061 0.0029991709 -0.033475004
0.026904522 0.015938416 -0.014351112
0.0061862995 0.01066307 -0.0083062015
0.03438646 0.0096544167 -0.0068074972
0.032201223 -0.012316923 -0.0094379885
0.0062066014 -0.010687935 -0.034546144
0.037023939 0.0031622697 -0.0098656369
0.028374154 0.015199426 -0.0054397322
0.016491206 -0.002128707 0.024542751
0.027243905 0.015783042 -0.0088184103
0.0039066807 -0.0090308292 0.0065791174
0.014498446 -0.0094504328 0.024921468
0.016951686 -0.0072111129 0.030178575
0.0022642331 -0.0051212627 0.00035800459
0.0030823331 0.0043426561 -0.011443356
0.0032123171 -0.0047914055 -0.013863013
0.002708141 -0.0024437772 -0.026127709
0.038276732 0.001259152 0.0022982978
0.0079155732 -0.013928394 0.0080462238
0.036856841 -0.0039807395 -0.025349779
0.0285857 0.014275794 0.018603543
0.010876096 0.014848169 -0.016013101
0.013904443 -0.0017191628 -0.033475004
0.023504788 -0.011788204 0.021104395
0.017440522 0.0056119254 -0.033475004
0.018617701 -0.017336903 -0.025201581
0.034038253 -0.0010595509 0.015593001
0.0026401319 0.0018836621 -0.03155984
0.0066998121 -0.012790392 0.0095178206
0.036901437 -0.0037622864 -0.025679445
0.026466085 0.017187402 0.0078867888
0.029027922 0.014511561 0.016436704
0.0027206044 -0.0057022725 0.019925002
0.029010899 0.014824775 -0.023385443
0.035097793 -0.0084916996 -0.019969897
0.028545186 -0.0018905241 0.018925002
0.037191283 -0.0020368933 -0.0076671536
0.034857351 0.010740116 0.0057204706
0.029721906 -0.015186141 0.019925002
0.016489575 0.0018338107 -0.033802371
0.0048129349 0.0075080022 0.019925002
0.03406018 0.011774472 0.013711916
0.018200489 -0.0094329435 0.040779058
0.034073886 -0.011759099 0.010009678
0.016520288 -0.00211121 0.025373681
0.03120717 -0.0016544181 0.018925002
0.018167134 -0.0044729798 0.02397739
0.029130425 -0.0046268003 0.018925002
0.018987862 0.00070110575 0.019925002
0.0048433715 0.008649637 -0.0089245569
0.029658148 0.014415484 -0.020495847
0.035948161 0.0090219351 0.0033192979
0.024254601 -0.017870065 6.9807771e-05
0.0016382008 -0.0019214024 0.011587541
0.027324328 -0.016841516 0.011271047
0.032428779 0.0053677754 0.019925002
0.0023411389 -0.0054011149 0.0058311638
0.0015343089 -0.00024285159 0.014766444
0.0043523931 0.007737041 -0.0094659831
0.026757061 -0.01075418 -0.033475004
0.036502503 -0.0019062997 -0.033907715
0.008125348 0.014101394 0.0072305892
0.0067662345 0.012854316 -0.0031914471
0.018082565 -0.0024214874 -0.036375001
0.0038247458 0.0057617943 -0.0043812231
0.017257547 -0.0056893076 0.036820557
0.0058454983 0.010207777 -0.030632757
0.036369003 0.0060489001 -0.0040750001
0.0083686076 -0.014302009 0.015677188
0.023306729 -0.012165238 0.019925
0.0074425861 -0.012102248 -0.02550759
0.031384852 0.0054481896 0.019925002
0.020909939 0.013880197 0.019027807
0.016741503 -0.012080811 0.021539705
0.017361412 0.018098252 -0.0040750001
0.033708379 -0.010608356 -0.0056596966
0.0084269866 0.014350153 0.0015134251
0.01707474 -0.018164273 0.019794259
0.02903351 -0.014810478 -0.021871673
0.017570946 0.0016119246 -0.036375001
0.034321398 0.0097486824 -0.0066755265
0.017975628 -0.0045945123 0.024294544
0.0019687077 -0.0039847381 0.011277737
0.027270263 -0.016863305 0.0098912353
0.031281553 0.001796185 0.018925004
0.0034178293 -0.0081249094 0.010859635
0.038239952 0.0016775592 0.017759794
0.026165569 -0.0091487449 0.019925002
0.019684559 -0.0061053191 -0.033475004
0.037144169 0.0024249237 -0.016878862
0.021824865 -0.018294754 0.010364801
0.006101727 0.010559489 -0.01332182
0.025805028 -0.0059182988 0.023324115
0.024400169 0.017836008 0.0032861053
0.011962547 0.0052127871 -0.033475004
0.0033680706 -0.005329119 -0.0086176554
0.014709609 -0.016588017 -0.034607008
0.030742109 -0.0054927249 -0.033475004
0.034436461 0.00067808945 0.013425001
0.015640372 0.0081092995 0.018925002
0.033170942 0.011266598 -0.0091777723
0.035426054 0.0073144231 0.019925002
0.02053271 -0.010411195 0.025925001
0.0097651174 -0.014112816 -0.024956711
0.024391092 -0.016805422 -0.01062896
0.018350467 -0.0046000001 0.035731845
0.014081626 -0.0054057403 -0.033475004
0.021629253 -0.010180525 -0.033475004
0.020775652 0.0047944817 -0.033475004
0.0025734869 0.0060834046 0.0036419563
0.018828141 0.017263873 -0.019493585
0.01825884 -0.0012451244 0.022321953
0.014445151 -0.016329948 -0.034775004
0.033909239 -0.0068125133 -0.033475004
0.037189972 0.0063243117 0.018476425
0.0065253759 -0.011078359 -0.017838029
0.036904354 -0.0037480122 -0.02698547
0.02355912 3.431772e-05 -0.035811983
0.038320005 -0.00013041943 0.0013933611
0.02819469 0.016422264 0.01333222
0.0030732572 0.0043113218 -0.016707638
0.0083261207 -0.01426697 0.0052335407
0.025408665 -0.0094034486 0.021502132
0.036454659 0.0054231761 -0.024077337
0.025522767 0.0018040942 -0.033475004
0.0094653023 -0.014206039 0.019925
0.037019208 -0.0031854112 -0.015556145
0.020224625 0.0037753829 0.018925002
0.037305851 -0.00047544733 -0.033720575
0.017930103 -0.0047998852 0.037144482
0.0057195998 0.010025386 -0.033775628
0.013105421 -0.010315019 0.019925002
0.014216866 0.012002069 -0.033475004
0.032560777 0.0053605088 -0.033475004
0.03172975 -0.012769196 -0.031957749
0.036548082 0.0051006842 -0.02371465
0.0036350244 -0.0085312659 0.018822834
0.035009988 -0.0068548168 0.019349836
0.03822384 -0.0018171672 -0.00063448277
0.008681017 -0.014559647 0.006173416
0.0029721279 -0.0038776288 -0.023659108
0.031351209 -0.0022543366 -0.033475
0.0057460945 0.0091979261 -0.0040750001
0.0383134 -0.00030268775 0.003418697
0.027946904 -0.013760297 -0.033475004
0.036015291 -0.0088984622 0.0033673511
0.022297254 -0.0085257823 0.041925002
0.037215758 0.0018353555 -0.034256358
0.037060872 0.0066837161 0.017302662
0.02368805 0.016885243 -0.022762084
0.012040771 -0.015842261 -0.0040750001
0.022771994 -0.017151307 -0.031201463
0.010833138 0.014821004 -0.016688099
0.032189302 -0.012329332 -0.010466835
0.031320505 0.01278176 -0.0040750001
0.010373177 -0.014530145 -0.025486518
0.034790441 0.010827892 0.004067983
0.0045463685 0.0081352117 -0.017146807
0.010901354 0.014864141 -0.031177746
0.013827593 -0.0099499924 0.019925004
0.0036022661 -0.00093675044 0.018560512
0.02591146 0.016669014 0.019925002
0.035698738 -0.0073130811 -0.015419358
0.013311509 -0.017158218 -0.0014380516
0.032793649 0.010622754 -0.034752391
0.018547734 -0.017331252 -0.0052076122
0.033124506 -0.012815109 0.0080765085
0.030068232 0.014125338 -0.028003098
0.003954947 0.0068994337 -0.026412431
0.03438352 -0.0096586803 -0.034064174
0.024579935 0.0083281994 -0.033475004
0.022651562 -0.0082155969 0.030867891
0.037301917 0.00057312264 -0.03075216
0.028135667 0.015317273 -0.0079522245
0.020879023 -0.0098581742 -0.033475004
0.0056526703 0.005220057 -0.033475004
0.032411639 0.010945956 0.019925002
0.015480136 -0.010406765 0.025925003
0.0032684219 -0.0049850978 -0.02130124
0.012822335 0.015884148 -0.0082936622
0.037168425 0.0022251741 -0.024542196
0.027107675 -0.0028278416 -0.033475004
0.020619715 0.017376352 -0.03280066
0.015767207 -0.016881417 -0.019162191
0.0026502996 -0.0019674029 -0.0073544611
0.0051176711 0.0091247391 -0.016044041
0.030914186 -0.013072488 -0.0040750001
0.023744859 -0.016964722 -0.024950616
0.019789429 0.014465674 0.018925145
0.027674539 0.016679848 0.0017692714
0.035680067 0.0094969878 0.011641473
0.011180012 0.015040353 -0.015555062
0.013407656 0.016000876 -0.024631234
0.0059578684 -0.00025087723 0.013425001
0.029185807 -0.0068515507 0.018925002
0.021845268 -0.0047051455 0.022561261
0.015575491 0.016836673 -0.0056447065
0.022802129 -0.0080879098 0.020324688
0.0077856686 -0.012459436 -0.006827414
0.0020368525 0.0042938511 0.005803775
0.012190109 -0.015020259 -0.0040750001
0.0015585768 0.00087595818 0.011548551
0.017104194 0.018168824 0.011482817
0.034776933 -0.0090474635 -0.0066376268
0.0069527337 0.013033799 0.011472475
0.0029437582 0.0037386669 -0.013772564
0.035566859 0.0075910273 -0.017157838
0.016006459 -0.0056570615 0.025925003
0.012405777 -0.0090106064 0.019925002
0.025429847 -0.0093348585 0.022294523
0.036512818 -0.0079449061 0.0012028235
0.036376581 -0.0082339998 0.0030768148
0.018650236 -0.017339529 -0.013681744
0.0054695117 -0.00067472964 0.018478004
0.022294883 -0.018238487 -0.002044806
0.010331503 -0.014503793 -0.021243069
0.004626547 -0.0082740868 -0.016529985
0.038278796 0.0012052577 0.0097050713
0.024103172 0.017905492 0.013706686
0.038277548 -0.0012378684 0.015653972
0.0027009314 -0.00020526575 0.01350632
0.010742649 -0.015931355 -0.0001743821
0.02086129 0.01836873 0.015195129
0.0068788398 0.010405365 -0.033961289
0.0024164545 0.0056461729 0.01323218
0.036728967 0.0074627521 0.00038829781
0.024804223 -0.016700242 -0.0069816108
0.026735697 -0.014398804 0.017075002
0.0081032077 -0.012754087 -0.01398522
0.019617753 0.017376119 -0.0088711586
0.029353432 0.014608172 -0.029903345
0.020267166 0.018386502 -0.0035208331
0.038210455 -0.0015237264 0.019925
0.0095976768 -0.015215233 0.0118995
0.023805466 0.016961617 -0.015230235
0.028403422 -0.015185102 -0.016340431
0.014384084 0.017531767 0.01018327
0.00307505 0.00736028 0.0085965395
0.028666928 0.0069757053 -0.037073664
0.016989972 -0.0075085489 0.040845554
0.020416677 0.017388148 -0.018426279
0.033500999 0.0088859564 -0.033475004
0.014062239 0.0049960827 -0.033475004
0.027673595 0.014666289 0.017227186
0.035740782 -0.0072244774 -0.013152189
0.014612535 -0.016555609 -0.030343669
0.0027630415 0.0028534736 -0.011071526
0.017078323 -0.007897513 0.036697477
0.018758165 0.014007908 0.019772653
0.028301729 0.0051886882 0.018925002
0.018521775 -0.0046000001 0.041643802
0.033352144 -0.011044663 -0.029178871
0.0033690804 -0.0053326054 -0.02573839
0.013895527 0.013679774 0.015254307
0.017146597 -0.018175375 -0.0021904069
0.037841551 -0.0041896687 0.017162887
0.01570208 0.016769839 -0.016369604
0.026839416 -0.011860022 0.019925002
0.0066145016 -0.010555658 -0.034775004
0.035022054 -0.010513089 0.019680783
0.020585136 -0.0040959544 0.029222799
0.0016752454 -0.0022422899 0.0014619583
0.0027325305 0.0026446462 -0.022081384
0.030512884 0.015031938 0.0086822379
0.010898056 -0.014862056 -0.013588651
0.010627709 -0.00788143 0.019566765
0.0049638874 -0.008858378 -0.0082847085
0.0090514747 0.014831061 0.012171948
0.0080706347 -0.014056272 0.0015633967
0.019100621 0.0012977727 0.019925002
0.011601944 -0.007597975 -0.038052827
0.010229038 0.014438997 -0.023482163
0.0382641 -0.0014683722 0.0056606834
0.03342846 0.010951191 -0.012858012
0.0041656937 0.0073435763 -0.020928744
0.036013968 -0.0089008985 0.0024284765
0.0086024385 -0.013196366 -0.016112585
0.036576815 0.0011947334 -0.034000881
0.013572691 -0.017263478 0.017400054
0.024537625 0.016048977 -0.034581665
0.0078513697 -0.012527838 -0.03249171
0.036793787 0.0042525278 -0.022618426
0.022908127 -0.007077022 0.032864578
0.0032559466 -0.0077638016 0.019787887
0.033468947 0.00017657259 -0.033475004
0.036853977 -0.0009869663 0.016001048
0.015623883 -0.0097566815 0.025925001
0.030850107 0.0051254188 -0.035275005
0.011059274 0.014136478 -0.033478092
0.032327142 -0.0049614841 0.019925002
0.0063111945 -0.012359504 0.014576945
0.027960336 -0.014163597 0.013425
0.0053695152 -0.004553718 0.019925002
0.036747325 0.0044129118 -0.023151116
0.021451941 -0.0043194476 0.02162198
0.0028010141 -0.0030394713 -0.02424735
0.0035969687 0.0059754122 -0.01868348
0.024279309 -0.0088351257 -0.033475004
0.023350427 -0.0018119252 0.019925002
0.011560683 0.015048485 0.01499113
0.020442946 0.0038443108 -0.035112485
0.028850686 -0.013825532 0.019219214
0.034767929 0.0090630548 -0.025064796
0.030271763 0.01520153 0.018675901
0.010616039 0.014683721 -0.00510658
0.034004837 -0.011836571 0.011895815
0.030897973 0.013501865 -0.013348107
0.019478954 -0.018386502 0.0030498139
0.0059681763 0.011974605 -0.0020271502
0.020805029 -0.0083856145 -0.033475004
0.018181432 -0.017301669 -0.029799143
0.004181108 0.0095142163 -0.0037443533
0.010994292 -0.0064231046 0.019018482
0.020909771 -0.0011272593 0.025581079
0.0152529 0.017789936 7.8467609e-05
0.0095307874 0.01393673 -0.026347348
0.023512304 0.014673118 0.019925
0.025231892 0.016456889 -0.028956423
0.02105456 0.018353892 0.016941966
0.015106278 -0.010505106 0.022408657
0.035821512 -0.0092548551 0.00037506368
0.029178293 0.014441335 0.019925004
0.002801741 0.0030430318 -0.0055711484
0.010163569 0.014397597 -0.029115204
0.027908055 -0.015445101 -0.014472493
0.032854196 0.0088290507 -0.033475004
0.018105572 -0.0093564177 0.039436612
0.016970459 -0.006640364 0.029126639
0.033807725 0.011412036 -0.0040750001
0.026603257 0.017132116 0.017613502
0.0053576375 -0.010196247 -0.0040750001
0.016059682 0.0019718101 0.018925002
0.0080509447 0.012707786 -0.032863718
0.019751279 -0.009991358 0.037975524
0.0052336617 0.01105629 0.015283735
0.0369028 0.0037556111 -0.029212408
0.0027041165 0.00023047521 0.017013306
0.037180856 -0.0063496805 0.0059230761
0.00555208 -0.00052327244 0.017905574
0.010940112 0.016048744 0.018273715
0.012305402 -0.015635867 -0.030612282
0.014835637 0.016530193 -0.02747173
0.034568131 -0.0093912277 -0.018317422
0.011190442 0.014835539 0.017075002
0.037858564 -0.0041019553 0.002670361
0.03502268 -0.0053110765 -0.033475004
0.0040497635 -0.009293953 0.0028676074
0.026780169 0.01631503 -0.0040750001
0.026370125 -0.012312867 0.017075002
0.0029369425 8.6013853e-05 0.017075002
0.038272608 -0.0013666371 -0.0039464412
0.015725069 -0.017900402 0.0070550838
0.037885636 -0.0039623692 -0.0025522404
0.0035433914 0.0083627542 0.0059084115
0.026231099 -0.012455967 0.015230787
0.0015695184 -0.0011614074 0.00046903756
0.021848291 -0.0045994944 0.022746729
0.033467285 0.012439754 0.0033473189
0.011787128 0.015023847 -0.034775004
0.011466571 -0.010614017 0.019925002
0.0092087369 0.013964647 0.019925002
0.005784905 0.0060764779 0.019925002
0.010482661 -0.0077994834 0.019660177
0.036329165 7.5306387e-05 0.013425002
0.017806983 0.017270578 -0.0079854392
0.021480016 -0.009543905 0.032865055
0.03054101 -0.01297293 0.019925002
0.022270475 -0.0088459253 0.033641495
0.033003543 0.009251412 -0.033475008
0.022204194 0.003136233 -0.035042267
0.028601766 0.007657967 -0.036703214
0.01631505 -0.018038427 0.012256066
0.037079591 -0.0028896802 -0.027449852
0.027561132 0.015210422 0.019925002
0.0016564153 0.0020791793 -0.00063868309
0.037710812 0.004666259 -0.0030673924
0.020010533 -0.018386502 0.012915469
0.020095829 0.018386502 -0.00054352049
0.0066547464 0.011236806 -0.022355927
0.022912676 -0.018143045 -0.0031639189
0.0036882048 0.0062159831 -0.009005026
0.0017440979 -0.0028265784 0.018587256
0.034751233 -0.010879329 0.016642598
0.033952042 -0.0077520963 0.018903311
0.032127116 -0.013769495 0.0055770315
0.0093394341 -0.013758866 0.019925002
0.03183654 0.0054645371 -0.033728968
0.0024362649 -0.0057013314 0.0037945567
0.026725905 0.015902763 -0.015946183
0.035339847 0.010022356 -0.0037060648
0.015184255 -0.017773876 0.0043707374
0.015308281 -0.016768288 -0.01872427
0.018309647 0.017324854 -0.0099052321
0.006948174 0.011587506 -0.02900433
0.02582824 -0.003214021 -0.033475004
0.0072964244 -0.011950076 -0.03300523
0.015331683 -0.017808367 0.0095337825
0.037216604 -0.0062501575 0.012894813
0.01319123 0.015748911 -0.0044032563
0.036828749 -0.0041183345 -0.0080532022
0.032934621 -0.011553382 -0.030112116
0.026055986 -0.013797233 0.017075002
0.002806305 -0.00046359369 -0.0040750001
0.0081837131 -0.0097256638 -0.033475004
0.036404021 0.0055772108 -0.015640421
0.0050842464 -0.010860274 0.013835265
0.022343686 -0.0087578036 0.041799773
0.027544489 -0.015635926 -0.027204303
0.012068935 -0.011695074 0.013425
0.010148386 -0.015578076 0.017137785
0.0016448959 -0.0019793976 0.013272334
0.030464673 -0.015065848 0.0069364654
0.003275861 -0.0050107795 -0.02362008
0.026986564 0.00018919469 -0.033475004
0.027950676 -0.00074891286 -0.033475004
0.0037469747 0.0063709472 -0.028990544
0.030750688 -0.0038431352 -0.033475004
0.030157093 -0.0081096608 -0.033475004
