# .PCD v0.7 - Point Cloud Data file format
VERSION 0.7
FIELDS x y z
SIZE 4 4 4
TYPE F F F
COUNT 1 1 1
WIDTH 1000
HEIGHT 1
VIEWPOINT 0 0 0 1 0 0 0
POINTS 1000
DATA ascii
-0.0039260415 -0.014451006 0.0065644858
0.00012102535 -0.0090813423 0.009297533
0.0050000004 0.0038632811 0.0078743473
0.0044581178 0.010289566 -0.012099549
0.0050000004 -0.0010960462 0.0063809506
-0.0045236782 -0.013341034 -0.0086716367
-0.0050000004 -0.011875428 0.0067596012
-0.0050000004 -0.0014438698 0.014733235
-0.0050000004 -0.011041369 0.0032229773
-0.0050000004 -0.00386766 -0.012253176
0.0011911184 0.00029148097 -0.0066816127
0.0050000004 0.0086678145 -0.0028174862
0.0050000004 -0.0037667584 -0.011008171
-0.0013006149 -0.0019648448 0.013239963
0.0050000004 -0.010427258 -0.010731474
0.0050000004 0.0030018925 0.0023155499
-0.0050000004 0.0042401422 0.0011385201
-0.0050000004 0.0038092986 0.0063971952
-0.0024141488 -0.014965429 -0.0016401665
-0.0050000004 0.01213617 -0.0041005365
-0.0050000004 -0.0039600572 0.014048679
0.0026123668 -0.014222685 0.0058842604
0.0050000004 -0.014061119 0.00070526026
-0.00037738914 0.012567657 0.0034677724
0.0050000004 -0.0042749415 0.013334896
0.0024321019 0.0092099542 0.011943769
-0.0018130151 0.0099041825 0.00080463768
-0.0050000004 -0.0091153793 -0.010795746
-0.0015550776 -0.011006488 0.0080812043
0.00091912324 -0.0026536835 -0.0013658169
-0.00062988879 -0.0049837958 -0.012009407
-0.00054191658 -0.012928138 0.0011398583
0.0050000004 -0.0092671392 -0.010681183
-0.0035008464 -0.0024524929 -0.0016897355
-4.5069974e-05 -0.0012235654 -0.0084841084
0.0033080135 -0.01581144 -0.0014322175
0.0011725969 0.010898146 -0.0015996314
0.0050000004 0.0074166269 0.0049141757
-0.0050000004 -0.0068714423 0.0011763645
0.0050000004 -0.0099490061 0.011297217
-0.0050000004 0.0030737049 -0.010943453
-0.0028779628 0.00026709499 0.015949529
-0.0024468852 0.013444134 0.0070212893
0.0050000004 -0.00032333066 0.0089066932
0.0029047874 0.0027965666 -0.0010208337
0.0042514536 0.0069153928 0.014305657
-0.0050000008 -0.0084533961 0.0086296787
-0.0040618205 -0.0007866869 -0.0028935787
-0.0050000004 -0.0064915931 0.0003466077
0.0049441881 0.0048731868 0.015151561
-0.0019156204 0.01356699 0.00055690604
-0.0049999999 -0.013712927 0.003727071
-0.0050000004 0.0062542795 0.0070484658
0.0025717807 -0.0025098592 0.0016149833
-0.0050000004 0.0064670644 0.0022125456
-0.0050000004 -0.0043596118 0.010136465
-0.0026183291 -0.00076350709 -0.015434485
-0.0050000004 0.0077510606 0.013806114
-0.0041025188 0.014424505 -0.0066284696
0.0050000004 -0.011426789 0.0072679445
0.0050000004 -0.0025425798 0.0092730103
0.0050000004 -0.0048006317 -0.0078917183
-0.000809655 0.0061855605 -0.011591532
0.0044919578 -0.0037561315 -0.015505483
-0.0029461603 0.0032840515 0.015567636
-0.0046718232 0.0037800751 0.015502332
0.0039286446 -0.0029909669 -6.8632842e-05
0.0045045586 1.2106827e-05 0.0029984068
-0.0020725455 0.014293231 0.0022518265
0.0017981019 -0.010141849 0.0097698495
0.00096671708 0.0069079031 0.0007425989
-0.0050000004 0.0011188784 0.0084192716
0.0050000004 0.0061436007 -0.00085842231
-0.0026137228 0.01523968 -0.0021826774
0.0017872483 0.00086684903 -0.013911399
0.0034809711 0.0015596903 -0.0025522925
0.0050000004 0.0009534214 -0.015317271
0.0050000004 -0.005762001 0.012052955
0.0050000008 -0.0079243332 0.012249698
-0.0012896586 0.012915037 -0.0037705251
0.0035314397 0.014919464 0.0054335212
0.0050000004 0.0074055362 0.0097753536
-0.00061511679 0.012680661 -0.0032503253
0.0043713776 0.011769005 0.010720338
0.0050000004 0.0025649888 0.012259969
0.0046932208 0.015767813 -0.0017635964
-0.0022513464 0.0039934898 0.014334849
-0.0026652883 0.014483586 0.0054918532
-0.0030497685 0.0068575856 -0.014329601
-0.00087972765 -0.01284421 -0.0028404593
-0.0050000004 -0.0020590236 -0.010581972
-0.003274722 0.014784532 -0.0057592816
-0.0021477791 -0.0021321848 0.014439273
-0.0050000004 -0.0079862988 0.013644552
-0.0012384725 -0.0097452095 0.00920639
0.0050000004 -0.0045280522 -0.014715324
0.00059666182 -0.0003425887 0.013055752
-0.002447485 0.013420979 0.0070798863
0.002734177 -0.00800958 -0.013518699
-0.0050000004 -0.0045622056 -0.0028350037
0.0050000004 0.0046607987 0.013889352
-0.00093322352 -0.0029699323 -0.00022845168
-0.0050000004 -0.0095794247 -0.010680326
0.0050000004 -0.0026919034 -0.014118957
-0.0028649056 0.00070500316 -0.0029072182
-0.0018690613 0.013546492 0.0041813552
0.0022076732 0.013314498 -0.0062608556
-0.0040629809 0.0010819229 0.0027712828
-0.001801675 0.00083201757 -0.0092540672
0.0050000004 -0.0016997671 0.0078935726
-0.0026428469 -0.013696194 -0.0072920946
-0.0026407093 -0.0022622778 0.0019375976
0.0050000004 -0.009676002 -0.0083092581
0.0050000004 0.013784667 -0.0016843876
-0.0050000004 0.0031707699 -0.0034190898
0.0050000004 0.0094061326 0.0017216398
0.0050000004 -0.0058230665 -0.013835071
0.0050000004 0.011792663 -0.0063145254
0.0050000004 -0.0015845886 -0.015102939
0.003202826 0.015847085 -0.0011614793
0.0016968061 0.0088603888 -0.010639379
0.0050000004 -0.01077971 -0.00028064538
-0.0045755818 0.0049628653 0.015114417
0.0050000004 0.0039939936 0.01183647
0.0050000004 -0.011070001 0.011059009
-0.0023578559 -0.00025733153 0.015049962
0.0010797851 -0.013259294 0.00053053722
0.0050000004 -0.0041672997 0.0064768335
-0.0050000004 -0.003461472 -0.003381375
-0.0050000004 0.0028344579 -0.014056229
0.0050000004 0.0054690382 0.0096567627
-0.0050000004 -0.013825572 -0.004328554
0.0050000004 -0.0034432427 -0.0024073878
0.0050000004 -0.0066681975 0.010030424
0.0025464136 0.012654074 -0.0086067356
0.0050000004 -0.0016748037 0.0085033923
0.0050000004 0.0024345836 -0.013588713
0.0019783766 0.0029004619 -0.014044713
-0.0050000004 -0.00075353746 0.0040455712
-0.0050000004 0.00016105727 -0.013859129
0.0050000004 -0.0009562099 -0.0094487984
0.0050000004 0.0093332464 -0.010817308
0.0050000004 0.00086487189 0.0081508113
-0.0050000004 0.0096322829 0.0094857868
0.0034822456 0.015953325 -0.00035453157
-0.0050000004 0.0024322474 0.013437789
-0.0050000004 -0.0026024382 -0.0061213067
-0.0020415974 0.0088696955 0.011359614
0.0050000004 0.0054577831 0.00074984267
0.0050000004 -0.012000323 -0.0035426889
-0.0010500127 0.0067823604 -0.011424513
0.0050000004 -0.012820202 -0.0021925936
0.0050000004 0.012724454 0.006371404
0.0046670781 -0.011750427 -0.010744548
0.001554545 0.011145153 0.0078993589
-0.0050000004 0.014287902 0.0051350174
0.0017717243 0.010879152 -0.00090433093
0.0050000004 -0.0098801637 -0.0034032962
-0.00085404119 -0.0088608917 0.0097061144
-0.0050000004 0.010740831 0.0051694759
-0.0050000004 -0.0058739232 0.0088269887
0.00098381646 0.0093775569 -0.0093766404
0.0050000004 0.0067065698 0.00085277419
0.00037249629 -0.0127933 0.0019426906
-0.0019265846 0.014252299 0.0006420805
0.0050000004 0.0073238099 0.012494558
-0.0050000004 -0.0093646264 0.0062371497
0.0029906037 0.015164332 0.0048423545
0.0050000004 -0.0088942433 -0.0095561221
-0.0044196197 0.0020340867 -0.0021882297
-0.0050000004 -0.0011314924 0.0032288942
-0.003707849 -0.010329997 -0.012068524
0.0010438104 -0.0074051227 -0.010940711
-0.0032868725 0.013862491 -0.0079852967
-0.0040906593 -0.0082372744 -0.013674333
0.00055506645 0.0075856661 -0.0010895312
-0.0024910665 -0.0035708409 0.01484446
0.0020947026 0.0133304 -0.0057155387
0.0019491871 -0.0039905487 0.013774456
0.0021451963 0.014300155 0.0031548843
0.0042164959 0.015140704 -0.0048993998
-0.0050000004 -0.011230582 0.005968051
-0.0018712329 0.010693258 0.0092575382
-0.0032342002 0.0027512198 -0.015637787
0.0010918439 0.00054948084 -0.0031636513
0.0050000004 -0.011825969 0.00074664067
-0.0050000004 -0.012222178 0.00082056742
0.0050000004 -0.010875883 0.010615628
0.0030946634 0.012899662 -0.009246842
0.0050000004 -0.0053338343 0.014857497
-0.0050000004 0.0073261834 0.0060253469
0.0042221099 0.014610537 -0.006179342
0.002067938 0.014106118 -0.0036125202
0.0050000004 0.0031489185 -0.0061417855
0.0009318458 -0.0007880365 -0.0030449363
-0.0037795121 -0.0011079781 0.01585413
-0.0050000004 0.0023375105 0.0065536331
0.0050000004 0.00099935522 -0.0036372042
-0.0050000004 -0.0059623295 0.0057432544
-0.0044822339 -0.0039390144 0.015481405
-0.0017426591 -1.4300987e-05 0.0029981181
0.0050000004 -0.009937847 -0.0066866861
0.00088993268 0.012862215 -0.0027357431
0.0050000004 -0.0024271689 0.0046806615
-0.0050000004 -0.0033719912 -0.0017987896
-0.0050000004 -0.0023797869 -0.013881473
0.0001657361 0.007344225 0.0012076763
0.0047748643 0.014244191 -0.0070637856
0.00026264542 0.009236102 -0.0091917785
0.0050000004 0.0038149622 0.014353924
-0.0018464481 0.013543515 -0.0040870714
0.00088921911 -0.0082158037 -0.010219308
0.0050000004 -0.0032926183 -0.010788631
-0.0021871992 -0.0069486732 -0.012991541
0.0048714238 -0.015670154 -0.0025053758
-0.0032847219 0.0028564758 0.015623929
-0.0021359576 -0.0075054248 -0.012610717
-0.0033437356 0.015916988 -0.00063051604
-0.0050000004 -0.0076572699 0.001009479
-0.0050000004 -0.0049465271 0.0050265086
-0.0050000004 -0.014692326 -0.0055767973
-0.0050000004 0.012836703 0.0013434549
0.0050000004 -0.0033000545 0.0019535201
-0.0049999999 0.00093855005 -0.0056879963
0.0050000004 -0.010294378 -0.005411237
0.0050000004 0.0096766232 -0.011370413
0.00078458048 0.0023898801 -0.0017713233
0.0050000004 -0.0053771972 -0.012231544
0.0050000004 -0.0040925946 0.014932362
-0.002478949 7.8472833e-05 -0.015283272
-0.0023930245 0.011821421 0.0092591848
0.00018594494 0.0060516698 0.0012050152
-0.0036766143 -0.0037116138 0.015511345
0.0021324148 0.012803356 0.0071571637
0.0011881163 0.0019543024 0.013155014
-0.0050000004 -0.007841453 0.0075159031
-0.0050000004 0.0025740098 -0.010505589
-0.0050000004 -0.013743103 0.0044283001
-0.0017950014 -0.014095769 -0.00010012066
-0.0023197052 -0.011320287 -0.0097054467
-0.00094968954 0.0073338142 -0.00076478545
0.0050000004 0.0004013656 -0.01507919
-0.00022951976 0.0057683126 -0.011593821
-0.0050000004 0.0021589091 0.013267498
0.0016910791 0.0040035159 -0.013308224
0.0050000004 0.0024469374 0.012596307
0.0050000004 -0.010065028 -0.0021851754
-5.6997585e-05 0.0047246772 0.0012219948
0.0027438789 0.012566382 0.0092780283
-0.002318742 0.00066572014 0.014928448
-0.0050000004 0.011518882 0.007976234
-0.0023868033 0.013711784 -0.0061055222
-4.0958086e-05 0.005530864 -0.011665517
0.0050000004 0.01350245 -0.0032087907
-0.0026349921 -0.015233452 -0.0025096906
-0.00064195989 -0.011318861 0.0066159777
0.0050000004 0.0016770979 0.015436689
-0.0050000004 0.011198663 0.0096132839
0.0050000004 0.0085249459 -0.0092589296
0.001392038 0.0014312099 -0.010391512
-0.0050000004 -0.0053163343 -0.013320994
-0.0050000004 0.010350953 0.0059723789
-0.0045389407 0.010350144 0.012053065
0.0033587127 -0.0044058976 -0.015345118
0.0050000004 0.00053743442 -0.01341219
-0.0050000004 0.012431976 -0.006026994
-0.0040740324 0.00074583304 0.0029018365
0.0047913748 -0.0042458731 0.015411403
0.0050000004 0.010001046 0.00076295901
-0.0050000004 0.00056262797 -0.012811776
-0.0050000004 -0.0051568188 0.014157142
-0.0050000004 3.9302056e-05 -0.0051105665
0.0050000004 0.00099008996 0.010931149
0.0050000004 -0.0069889231 -0.0089743063
-0.0021483947 0.012795655 -0.0072474652
0.0050000004 -0.013235461 0.0012695661
-0.0050000004 -0.0032066181 -0.0074652256
-0.0050000004 -0.0036477235 0.0031319773
0.0050000004 0.0051209582 0.014250698
-0.0050000004 -7.3678442e-05 -0.013447322
0.0050000004 -0.010623782 0.00037654975
-0.0050000004 -0.0094739348 -0.0040131332
-0.0050000004 0.014166339 -0.0040178145
0.0050000004 -0.0038827707 0.0099852653
-0.0032514287 -0.0044277515 0.015336066
0.0025977239 -0.014976814 0.0039687194
0.0027438456 0.0013943666 -0.0026418376
-0.0050000004 -0.0021177472 -0.010209412
-0.0019888906 0.012327599 8.4439722e-05
0.0050000004 -0.008308582 0.0030057838
-0.0010411055 -0.010519854 -0.007950224
0.0050000008 -0.014467036 -0.0023978022
0.0036848451 -0.010792512 0.011713623
-0.0045060213 -0.011053772 -0.011513152
0.004185074 0.0086726919 0.013340224
-0.0035021582 0.015617564 -0.002904821
-0.000537813 0.012406 0.0039276071
-0.0015156619 0.012399336 -0.0056055058
-0.0050000004 -0.0045975745 -0.011021879
0.001686648 0.0055362168 0.01266717
0.0050000004 0.0068860357 -0.0043904004
-0.0050000004 0.00141812 -0.0068087294
-0.0050000004 -0.0059300456 -0.0090374388
-0.0022760576 -0.0082407994 -0.012349687
0.0017694531 -0.0006322671 0.013981463
0.0050000004 0.0088317245 -0.0058394903
-0.0017476766 -0.002947116 -0.0004018051
0.0017042662 0.013546888 -0.0031664665
-0.0014361636 -0.0006005317 0.013535362
0.0010890079 0.0079970164 -0.00055633078
0.0050000004 0.010395659 -0.011096887
-0.0050000004 -0.0099117793 -0.0048833066
0.0050000004 -0.005625254 0.008135356
-0.0050000004 0.0017777272 -0.0093153631
-0.0037804064 0.0029973737 -1.9945919e-05
0.0036655422 0.0031819092 0.015581084
0.0050000004 -0.010277025 -0.0012868838
-0.0050000004 0.0043359776 -0.0012901032
0.0032640228 -0.015793685 -0.0015670824
0.0050000004 0.0019017191 -0.010297266
-0.0050000004 -0.0024850119 0.0077960808
-0.0050000004 -0.014790389 0.0046328716
0.0050000004 -0.0017398482 -0.014851924
-0.0050000004 -0.013602282 0.00099442154
-0.0050000004 0.015016758 -0.0047769896
0.0010801352 -0.0081884842 0.010374456
-0.0050000004 -0.0072167451 -0.0076708919
-0.0017859426 -0.0012419993 0.013929758
-0.0050000004 -0.0041523147 -0.0011533126
-6.0569913e-05 0.011677515 0.0055085667
-0.0015805765 -0.0028509705 -0.00088955037
-0.0049999999 -0.0044675027 0.0085979793
-0.0042149522 0.014766017 0.0058039785
-0.0043157358 0.0070615872 -0.0142451
-0.0016298261 0.0087410202 0.010621909
-0.0050000004 0.014626273 -0.00056291261
-0.0039621964 0.012161929 0.010208271
0.0019637803 0.010664404 0.00027529083
-0.0033608316 0.0014369537 -0.015810817
-0.0050000004 0.0070408112 0.0049480652
-0.0029009602 -0.015740741 -0.0019692229
0.0050000004 0.0099072838 -0.0048563457
0.0050000004 -0.0044343588 0.0062824227
-0.0036865845 -0.0062029297 0.014600768
0.0050000004 -0.007255015 0.0046369471
-0.00178206 -0.0059064459 -0.012670226
-0.0050000004 -0.0083450181 0.0034601127
0.0050000004 -0.010122901 -0.0048746252
0.0048490716 3.1544543e-05 0.0029958484
-0.0050000004 0.0041324273 0.011145781
-0.0048910244 -0.015312162 -0.0044854609
0.0050000004 -0.0098930504 0.0031348583
0.001975544 -0.0010836349 0.014278994
0.0050000004 -0.0038054616 0.00023349095
-0.0021930009 0.014173908 -0.0041202279
-0.0050000004 -0.0045415414 -0.0062181666
-0.0050000004 0.0042140451 -0.00049123494
0.0050000004 -0.012334525 0.0090468917
-0.0049327086 -0.012130709 -0.010248957
-0.00062082341 -0.0029013178 -0.00074977428
-0.0001549821 -0.0085415617 -0.0097172968
0.0028829074 -0.0068902876 -0.01430882
-0.0050000004 -0.0067023016 0.0015324274
0.0050000004 0.011656299 0.0079968721
0.0022906617 0.0092317145 0.011620923
0.0050000004 0.0088500865 -0.0065132403
-0.0033306261 -0.0060854089 -0.014649445
0.0050000004 -0.0076442081 0.011143742
0.0050000004 -0.0024537994 0.0021105257
0.0050000004 0.011580685 0.0033914063
-0.0050000004 -0.006745032 0.010336408
-0.0050000004 0.014119303 0.0058882372
-0.0049999999 0.013433405 -0.0076145912
-0.0011403213 0.003110016 0.00043239305
0.0030288789 0.015043475 0.0051341313
-0.0043248436 0.0017447653 -0.0024102614
-0.0050000004 0.0028924039 0.013228355
-0.0044479733 -0.015783004 0.0016482145
0.0045368331 -0.002940221 0.00045419295
0.0006811202 -0.0047313962 -0.012136756
0.0050000004 0.015672805 -0.0020746414
0.0041671945 0.015581818 -0.0031763266
0.0043473113 0.0015923911 -0.015790353
0.0047165034 0.013634652 0.0082889879
0.0011794304 0.0096751405 -0.0015943868
0.00092304364 -0.012137015 -0.0049903509
0.00037151124 0.0012695392 0.0026935653
-0.0050000004 -0.007264995 0.0022510786
-0.0019389752 0.012026254 0.00046382486
-0.0050000004 0.010799351 0.0025098554
-0.0050000004 -0.0035901701 -0.0037305539
-0.0050000004 -0.015271427 -0.0030142912
0.00014058527 0.0020858431 0.0127439
0.0050000004 0.015741594 -0.0001638613
-0.0033439011 -0.015324939 -0.0044546118
0.0050000004 -0.0084641743 0.0010331107
-0.0050000004 0.001321981 -0.007495997
0.0033093102 -0.01588379 -0.0008826853
-0.0050000004 -0.0038713028 -0.0028114326
0.0050000004 -0.0037729379 0.0034385722
-0.00037139337 -0.012738423 -0.002358506
0.0012212381 0.0030608277 6.2744228e-05
-0.0017818813 -0.0017334643 0.0024189341
0.0050000004 0.0049209548 -0.0087237135
0.0043582199 -0.0158531 0.0011157958
-0.0050000004 0.00010297476 -0.011882288
0.0026463037 0.011383939 -0.01054377
0.0041319816 0.00016024669 -0.015978904
-0.0044446336 -0.0055789999 0.014859206
-0.0050000004 -4.7282538e-06 0.005953873
0.0018778301 -0.0024415862 0.0017039474
0.0012913719 -0.0046359673 0.012557961
-0.0022243143 -0.0037065709 0.014364578
0.0050000004 0.0096636154 -0.0014511915
-0.0050000004 0.010506605 0.0031165238
0.001730309 0.0090000005 -0.00081241957
0.0013117979 -0.0070691924 -0.011455417
0.00041614214 0.0047871768 0.012026591
-0.0050000004 -0.01053327 -0.0039217435
-0.0033448869 -0.015690293 0.0023524025
0.0024519879 -0.014880875 0.0027800603
0.0050000004 -0.01140073 0.01079498
0.001464494 0.0089738583 -0.010174019
-0.0050000004 -2.7034159e-05 -0.015980698
0.0050000004 0.0078166341 -0.0088499645
-0.0050000004 0.0086471541 0.0017382948
0.0033806807 0.010635381 0.011834196
0.0050000004 -0.0067606186 -0.0021870953
-0.0050000004 0.0053595859 0.0078279991
-0.001003332 -0.013077176 0.0014684257
-0.0050000004 -0.0013495864 0.010106276
-0.0049999999 0.0010096801 -0.0059240009
-0.0050000004 0.0065443749 0.011766862
-0.0039570238 -0.00048420971 -0.015936252
-0.0050000004 -0.011946409 -0.0071029165
0.0050000004 -0.0087484363 0.0014466569
-0.0023775874 -0.01489684 -0.0016801564
-0.0050000004 -0.010312397 0.0090143196
-0.0032371718 0.0044894307 0.015310518
0.0050000004 -0.01091283 -0.0078234812
0.0050000004 -0.013017892 -0.0085967835
0.0013312701 0.0014778493 -0.013267176
0.00083104701 0.0093815858 -0.0092683267
0.0050000004 0.0040172194 -0.0067788051
-0.0050000004 0.0033324005 -0.0084200343
-0.0021923869 -0.01403774 -0.0044462061
0.0050000004 -0.002351624 0.0068143359
0.0050000004 -0.011704549 0.0021366216
-0.0025040032 0.0055818427 0.014146538
-0.0027909065 0.0081219394 -0.013555272
0.0023443634 0.011687823 0.0092960307
-0.0050000004 0.008485781 -0.0090664923
0.0027804526 -0.006149787 -0.014425115
-0.0050000004 0.0086761909 -0.0025135588
0.0050000004 -0.0029864283 0.008738121
0.0050000004 0.015189621 0.0031601798
0.0028325266 0.0078316024 0.013825276
-0.0011347486 0.0054920134 -0.012074374
-0.0050000004 0.0065897969 0.013627236
0.0050000004 -0.0034114532 -0.00037092544
-0.00019216334 0.0033919045 -0.012572878
-0.004287275 0.0072782477 -0.014155358
-0.0028763581 0.012923014 -0.0091869542
-0.0042968518 0.00097354717 0.015871828
-0.0050000004 0.010160899 -0.0098870667
-0.0049829348 0.011912239 -0.010533673
-0.00275992 -0.0001346007 0.015762517
0.0022241373 0.0046765269 -0.014001351
-0.0050000004 0.012220885 0.0037735121
0.00054955302 -0.0012180746 -0.0027148665
-0.0024623265 0.0094312485 0.011839385
0.0046601049 0.0020465082 0.0021786969
0.0050000004 -0.0066240812 -0.0065614092
0.0050000004 -0.0060252259 0.013774045
-0.0050000004 0.0036789486 0.005005517
0.0050000004 0.00029949195 -0.013604574
0.00081772218 0.00090906169 -0.0047286134
0.00030117758 0.0075626308 -0.010492491
0.0012487567 0.0013588341 -0.0090000005
0.0012904146 0.0047132568 -0.012525157
-0.002804019 -0.0063000787 0.014406665
0.0050000004 -0.0050897812 0.004483954
-0.0030114187 0.0041536083 -0.015449619
-0.0050000004 0.0106141 -0.0041031414
-0.0002286854 -0.0019699123 -0.011726169
0.0017360847 0.0085237846 0.010963766
-0.0016952725 0.0014791039 -0.0026067521
-0.0050000004 -0.015882606 0.00038535616
-0.0050000004 0.0077327555 0.0097427713
0.0050000004 -0.011956127 0.0041130916
0.002554652 0.014009495 -0.0061399597
-0.0050000004 0.0027432577 0.0030511045
0.00071048929 -0.00035425014 0.002953375
-0.0043944074 -0.012831166 0.0093361074
-0.0050000004 -0.012397261 -0.0098917279
0.0026242863 0.0032059478 0.015123231
-0.0050000004 0.00029899532 0.0060712229
0.0050000004 0.0010214178 0.0099788448
-0.0039712046 0.015927881 -0.00054779131
-0.0050000004 0.0029005115 -0.010689045
0.0036408063 0.0011074147 0.0027607232
-0.0050000004 -0.0038448425 0.010866586
0.0050000004 0.011690219 -0.0029320533
0.0050000004 0.0052962666 0.0077712317
-0.0024266734 -0.0070307697 0.013402644
-0.0025038032 -0.0048148162 0.014463877
-0.0034242508 -0.0073153321 0.014139998
0.0050000004 0.011060772 -0.008284484
0.0029917904 -0.0023550349 0.0018167293
0.0050000004 -0.012750221 -0.0072158193
-0.00088168099 0.00085339864 -0.0047234125
-9.1719638e-05 -0.0031274864 -0.012600316
-0.0050000004 -0.0020260813 0.0025379444
0.0044506434 -0.012605874 0.0096297115
0.0016725743 -0.00080629438 0.0138163
-0.0050000004 0.0082676103 0.0041132136
0.0050000004 -0.014185756 -0.0016590797
0.0050000004 0.0081534507 0.0042882604
0.0031671436 -0.0028539714 -0.00088230614
0.0050000004 0.013269758 -0.0019448892
-0.0026334734 0.0026991672 0.015205865
-0.0050000004 0.012222164 -0.0063155168
-0.0050000004 0.00055017689 0.013446011
-0.0050000004 -0.0086602811 0.0078014843
-0.0030211988 0.015805552 0.0014769399
-0.0025175677 -0.013205471 0.0078067747
0.0050000004 -0.003540799 -0.0047330274
-0.001500156 -0.00063620036 0.0029162655
-0.0050000004 0.0075304355 0.011089507
-0.0050000004 0.0095942784 0.0028833742
0.0016779538 0.006444959 0.012278598
0.0031049652 -0.015132113 -0.0049201385
0.00017269135 0.00027044539 0.0029644051
-0.0042808973 0.0079182005 -0.013890283
-0.0027535919 0.011882252 -0.010196997
0.0013522016 0.011775337 0.0066461717
0.0009051176 0.01291078 -0.0024145429
-0.0050000004 -0.0065060416 -0.012157559
0.0017047893 0.012820445 0.0052274028
-0.004532103 -0.002753275 -0.0011253948
-0.0050000004 -0.0041333567 -0.0138027
-0.0050000004 -0.011439641 0.0069131325
-0.0045871707 0.015705861 0.002234143
0.0015491098 -0.0012384229 -0.013315295
-0.00096159155 -0.00074927876 -0.0036477626
0.0050000004 0.0034761198 -0.0040060468
-0.0050000004 -0.0077467207 -0.0069544669
0.0039295787 -0.015570097 0.0032653597
-0.0015419286 0.0026683616 0.0013303061
0.0050000004 -0.0036769032 -0.014383772
-0.0026631663 0.011513835 -0.010422055
-0.0022360859 0.011967131 0.0086266007
-0.0038020557 -0.015497936 0.0038134637
0.0050000004 0.0082907332 -0.0047954759
-0.0050000004 -0.01011047 0.0096484916
-0.0050000004 0.0034144367 -0.010897056
0.0012255169 -0.0015590152 -0.013015626
0.0050000004 0.014818271 -0.00035551575
-0.0012200364 0.0028281785 0.00094454311
0.0050000004 0.0058285231 -0.013555952
-0.0050000004 -0.0019941737 0.0028693832
-0.0050000004 -0.010889352 0.0064799548
-0.0014171832 -0.0014103132 -0.01197353
0.0050000004 -0.0046745716 0.011135262
-0.0050000004 0.00022842574 -0.0082264813
0.001000611 0.0017316312 -0.012026099
0.0050000004 -0.0040481873 0.014805322
0.0050000004 0.012625055 -0.00087776186
0.0049999999 -0.0078875721 -0.012547044
0.00035815703 0.0048592631 -0.01198856
0.0050000004 -0.0039529158 -0.0028958123
0.0050000004 -0.0054664575 -0.0088568004
-0.0023560019 0.014240544 -0.0046907677
0.0018454328 0.0090000005 -0.00049063138
0.0050000004 -0.0037544535 0.0094377417
-0.0050000004 0.00082792871 -0.0062420103
-0.0048049334 -0.013859904 0.0079915412
0.0022988808 -0.014946673 -0.00026603698
-0.0049999999 0.0040949848 -0.0095503572
-0.0050000004 -0.00091022963 -0.0095907263
0.0050000004 0.0015321922 -0.005047786
-0.0036009757 0.0087394314 0.013289014
-0.0032115702 0.0082029765 -0.013700651
0.001175475 -0.0123424 0.0049259001
0.001448786 -0.013591592 -0.00029831531
0.0020872694 -0.0075008851 0.012508814
0.0012355283 0.0006624306 0.0029128133
0.001984729 0.013279462 0.00011607033
0.0019183542 -0.0062486189 0.012781821
0.0047986442 -0.015307038 0.0044978303
-0.0050000004 -0.0018501324 -0.011166636
0.0049661589 -0.013938256 0.0078023821
-0.0050000004 -0.0068410197 0.0072492235
-0.0050000004 -0.0020419066 -0.0088203913
-0.0050000004 0.0059396238 0.0069526797
-0.0050000004 -0.010264369 -0.0070000929
0.001979694 -0.012626454 -0.0068989494
-0.0043091481 0.0029280405 0.00054673938
0.004029796 0.015613537 -0.0029353998
0.0050000004 0.0075908033 -0.0033890011
-0.0050000004 -0.0060510589 -0.0080532739
-0.0015150848 -0.00066599908 0.013629574
0.0050000004 -0.0040598651 2.2742273e-05
0.004377434 -0.015799209 0.00152511
-0.0014539058 0.01275072 -0.0045487923
-0.0050000004 -0.01417059 -0.006200124
0.0024271994 0.0018517054 -0.0023281933
-0.00067309564 0.010460768 0.0077552991
0.0050000004 -0.0045143529 0.0027500459
-0.0026064296 -0.0022870414 -0.0019053289
-0.0050000004 -0.0058144447 -0.013775248
0.001639063 -0.0010783153 0.013736826
0.0050000004 0.0027548857 0.0053768293
0.0050000004 -0.0024597493 -0.013080652
-0.0050000004 0.013519843 0.006055133
-0.0011651315 -0.0028805251 0.00081820338
0.0023111955 0.00069300173 0.014911786
0.0036904274 0.0030889541 -0.015593322
-0.0023582159 -0.0035879081 0.014612117
0.0050000004 0.0046719639 -0.002619324
-0.0050000004 0.01139132 0.0078677144
-0.0048953122 -0.0073984377 -0.014105574
-0.0050000004 0.015049356 0.0030720469
0.0050000004 0.0033686815 -0.0030084958
-0.0050000004 0.0052931826 -0.0081473943
0.0050000004 0.012238058 0.0031700933
-0.0050000004 -0.001278253 -0.011233657
0.0032576821 0.0012569971 -0.01583451
-0.0050000004 -0.0019669507 -0.0058335676
-0.004255862 0.00047668145 -0.015937243
-0.0050000004 0.0083526643 0.0054638032
-0.0021185749 -0.014607568 -0.0004696589
0.001879475 -0.010951243 0.0089445803
0.0050000004 0.0068110898 -0.014331166
-0.0050000004 -0.0014329805 0.013248125
-0.0050000004 -0.0091511607 -0.012449459
0.0050000004 0.01529883 0.0023394043
-0.0050000004 0.013224497 0.0077673923
-0.0050000004 -0.0075725741 -0.002240709
-0.0050000004 -0.0085713398 0.0083382213
0.00045137515 -0.011502776 -0.0060637612
-0.00040590152 0.010219421 -0.0079409759
-0.0005160743 -0.001105675 -0.0052688355
0.0050000004 -0.0099657858 -0.0095837498
0.0050000004 -0.011113222 0.0089578899
-0.0015487805 -0.0068125515 -0.011945672
-0.0042675198 -0.0088860607 -0.013176499
-0.0050000004 0.0054233745 0.0077520194
-0.0033359865 -0.015923962 -0.00057755766
-0.0050000004 -0.0098251533 0.0098461583
-0.0050000004 -0.0048240959 0.0043156845
-0.0050000004 0.0096766204 0.010501326
-0.003820769 0.015624923 0.0028489358
-0.0050000004 0.011148543 -0.0062740566
0.0050000004 -0.002980554 -0.0019076176
-0.0050000004 -0.0037450334 -0.01182757
-0.0050000004 -0.009183404 0.01170734
-0.0049583982 0.0035480033 0.015532885
0.0050000004 -0.0090466179 -0.011175345
-0.0050000004 0.00038652582 0.0098556736
0.0040819086 0.0076545579 0.013999485
-0.0022956892 -0.0066403048 -0.01332092
0.0021816595 -0.0075679054 0.012661696
-0.0050000004 -0.0036856381 -0.012083903
-0.0050000004 -0.0074206088 0.0041113938
0.0050000004 0.015606987 0.001834476
-0.00063283526 0.0010509584 -0.0038362974
-0.0050000004 -0.0078813992 0.004289486
0.0050000004 0.0048825685 0.012647511
-0.0050000004 0.0072291582 0.0072255903
-0.0018645107 0.011901727 -0.0076636961
0.0044436315 -0.0046587861 0.015240369
-0.0050000004 -0.0023632562 0.0067590582
0.0010743366 -0.013280568 -0.00033722084
-0.0050000004 -0.014676938 0.0053575495
0.0050000004 -0.0012516211 0.015614289
-0.0033702597 0.0086997552 -0.013319458
-0.0011982296 0.0036521517 0.00023747659
-0.0020638986 0.012631125 0.0072655184
0.0042219968 0.012950399 -0.0091807209
0.0050000004 -0.0047319271 0.010393257
-0.0043884455 0.0028630397 -0.015623065
-0.00044609854 -0.0094669135 0.0089303153
-0.0050000004 0.01184445 0.007102652
-0.0050000004 -0.011653863 -0.0040117865
-0.00017110939 0.012257605 0.004145802
-0.0012226118 0.0072332639 0.011244013
0.0050000004 -0.0058909841 -0.00022729255
0.0029043094 0.014168933 -0.0072454778
0.0012080582 0.01107988 -0.0074289804
-0.0046925787 0.0029938226 -4.6944944e-05
0.0050000004 -0.0064531937 -0.0068035079
-0.0041219331 -0.0016998758 -0.0157762
-0.0050000004 -0.00092919555 -0.0079302276
-0.0014873996 -0.010307503 -0.0088484921
0.0041368492 0.013631457 -0.0082931509
0.0050000004 0.0043740133 0.00077911414
-0.0037822768 0.015765712 0.0017795614
0.0044457633 -0.0039722063 0.015477036
-0.0023149021 -0.0048849541 -0.014083719
0.0050000004 0.0076426901 -0.004828047
0.0050000004 0.0025908749 0.0058494359
0.0020580504 -0.01391532 -0.0041389638
-0.0050000004 -0.0049265516 -0.0031409883
-0.0050000004 -0.014261872 0.0047732266
-0.0013980924 -0.0019376024 0.0022622738
0.0018659069 0.0027677151 -0.0010904589
-0.0050000004 0.010902973 0.003756552
-0.0012680286 -0.003261504 0.013044274
-0.0011773754 0.00034289534 -0.0076854168
-0.0016042396 -0.0012286307 0.0027105114
-0.0050000004 0.0052963141 0.0026626331
0.0036702144 -0.015675263 -0.0024665503
-0.0050000004 0.0098242536 -0.0073384079
0.0035167735 0.0015729556 -0.002542112
-0.0025696056 0.0083684865 -0.012887086
0.0027772686 0.0066699847 0.014203725
-0.0019587108 -0.0018899263 0.0022988615
-0.0050000004 -0.0054614469 0.013635222
0.0025267075 0.00057271653 -0.0029246197
0.0050000004 0.0068737892 -0.0013292261
-0.0050000004 -0.0060348189 -0.0014714666
-0.0024877193 0.014928857 -0.0028855763
-0.0028117041 0.012259348 -0.0098694805
-0.0050000004 -0.0085031046 -0.010687581
0.0050000004 0.0071707261 0.0010955253
0.0044000382 0.0025387688 -0.0015773124
0.0050000004 0.0093494533 0.010622976
-0.0050000004 0.0039507425 -0.015141152
0.0035479886 -0.0052811042 0.014982598
0.0050000004 0.0045627397 0.007719866
-0.0037808043 -0.0041322634 -0.015455964
-0.0050000004 -0.0098307999 0.0077765668
-0.00042035081 0.0015747558 0.0025407311
0.0037130897 -0.015606423 0.0029894365
0.0031845677 0.00016870654 0.0029777957
-0.0050000004 -0.010105063 0.00061746984
-0.0033208271 0.0027980125 0.0010173784
0.0050000004 0.0049741226 -0.0046224068
0.0013394488 -0.0027759846 -0.0010705725
0.0027469434 -0.015674803 0.00063011347
-0.0050000004 0.0089383936 -0.0095264381
0.0050000004 -0.0036320321 -0.0062384359
-0.0050000004 0.011950323 0.0052611022
-0.001779469 0.0023826871 0.013768384
-0.0050000004 -0.0037972229 -0.0074012778
-0.0022533697 -0.0010379292 -0.0027894787
-0.0028816443 0.012616792 0.0096009411
0.0050000004 0.012423554 0.0015892272
0.0026235166 -0.012086234 0.0095642498
-0.00062324398 -0.012293194 -0.0042916238
0.0014042867 0.0023375724 0.013270465
0.002129986 0.0029752112 -0.00018825479
-0.0050000004 0.0038377326 -0.0041889823
-0.00044787396 -0.0010726562 0.0027751212
0.0034131084 -0.014984438 0.0052766614
0.0015042984 0.01009335 -0.0091634467
0.00033888919 0.0077668354 -0.01034201
-0.0050000004 0.010008895 -0.0053296867
-0.0050000004 -0.012751599 0.0023479583
-0.0047416072 0.0029536358 0.00035226857
-0.0048981728 -0.015466155 0.0040548537
0.0041401819 -0.0051003504 0.015057468
0.0047746208 0.01180195 -0.010677402
0.003609274 -0.0130517 -0.0090487031
2.1353961e-05 0.002347454 0.0018266074
-0.0010317897 0.012930813 -0.0027462614
-0.0022938482 -0.014796808 -0.0013382599
-0.0050000004 -0.012189522 0.00096367294
-0.0037737547 0.01048696 0.011948083
0.0050000004 -0.0017220462 -0.014213192
0.0050000004 0.003733298 0.012098431
0.0050000004 0.0044484898 0.0049137687
-0.0012680438 -0.013296545 0.0013453099
0.0022169722 -0.0015321447 -0.014638118
0.0050000004 0.0034876221 -0.014824383
-0.002417282 0.003136131 -0.014773903
-0.0050000004 0.0051584067 0.012777696
-0.0020477369 -0.012840203 0.0066882437
-0.0050000004 0.0019767371 -0.0075770505
0.0048753135 0.015535234 0.0035301629
0.0050000004 -0.0077122482 0.00026368571
-0.0050000004 -0.011312695 0.0056098057
0.0050000004 -0.0054879286 0.0032101332
0.0050000004 -0.012610802 -0.0039951676
-0.0010860964 0.00018067537 0.013310199
0.0050000004 -0.010382724 -0.004058952
-0.0025289985 -0.014446625 -0.0049695121
0.0037465121 -0.010644195 0.011827432
-0.0050000004 -0.012145209 0.004180843
-0.0050000004 0.010266639 0.0028969767
-0.0050000004 -0.01428178 0.0027082453
0.0050000004 0.0092943059 0.0090011247
0.0050000004 0.011127559 -0.003157024
-0.0025521803 0.012309212 0.0090724342
0.0050000004 -0.006040764 0.0064503527
-0.0050000004 -0.0020734319 0.0042556315
-0.0037656461 0.0028127045 0.00098191539
0.00023782095 0.011330918 0.0019687102
0.0050000004 0.0074431491 0.0062851431
0.0050000004 -0.0027788598 0.012180654
0.0050000004 0.0052953362 0.010044946
0.0050000004 9.2260409e-05 -0.010146023
-0.0050000004 -0.0061232457 -0.0096101677
0.0050000004 -0.0013322815 0.0030812353
-0.002041443 -0.0091937548 -0.011110626
0.0050000004 -0.0077250707 -0.0082164938
0.0050000004 0.0058947876 -0.0089801224
0.0030224586 0.0080952896 0.013783283
0.0050000004 -0.0038267756 0.0043068277
0.002816576 0.015757985 0.00091443531
-0.0016492939 -0.0011078902 -0.013531953
0.0021765747 -0.011447392 0.0091360593
0.0050000004 0.00057673518 0.0059683402
-0.0050000004 0.0080783451 0.011257309
-0.0050000004 -0.0043414002 0.0052017234
-0.0022327295 0.014375057 -0.0037376715
-0.0032140727 0.0013547831 0.0026582542
0.0050000004 -0.013604498 -0.0018337962
0.0050000004 -0.0083222138 -0.0010226702
-0.0023652257 -0.00045478911 -0.0029401293
-0.0050000004 0.0053976108 0.013417738
-0.0019202457 -0.013059409 0.0055869524
0.0045634056 0.002665156 -0.0013381105
0.0047284765 0.010752699 -0.011744173
0.0050000004 -0.0033372317 -0.0029168837
-0.0017867968 0.0026625739 0.013744232
-0.0021417027 0.013514456 0.0054820883
-0.0017845086 -0.013328297 -0.0043287184
-0.0050000004 0.0070830686 0.013295001
0.0050000004 -0.00056413299 -0.01429194
0.0019781999 0.00016569553 -0.014074199
0.0050000004 -0.0042315265 -0.012085572
0.0023362436 0.00014630964 0.0029807435
-0.0042999852 0.0029689043 0.00023626033
0.0050000004 -0.0012677247 -0.0059160455
-0.0050000004 0.0018904563 0.014730292
0.0050000004 0.0080067813 0.010672189
0.0020632921 -0.0035674348 -0.014104008
-0.0050000004 0.0049212221 -0.014827472
-0.0025218874 -0.011856255 -0.0095772846
0.0050000004 0.0082376478 0.013443795
-0.0050000004 0.0055023511 0.012720478
-0.0050000004 -0.0099731591 -0.0059488118
-0.00022121939 -0.0094305957 -0.0089294184
0.0050000004 0.0019710138 0.015219471
-0.0034925595 0.014297666 0.0069346856
-0.003610658 0.0045479797 -0.015286266
-0.00028381182 0.004910293 0.0011921283
0.0050000004 -0.010505977 -0.010139337
-0.0050000004 -0.004610043 -0.0079988688
-0.0050000004 0.010607221 0.010156087
-0.00097773294 -0.0017413227 -0.011619056
0.0022641188 -0.014488918 0.0032857424
0.0050000004 0.0078350278 -0.001361517
0.0023794577 -0.0023792083 0.0017852297
0.00027629285 -0.012055287 -0.0046702414
0.0050000004 0.0093429312 0.0097873388
0.0021612279 0.014353205 0.0029627949
-0.00040528184 -0.0011515459 -0.008063742
-0.0050000004 0.0028718591 0.00090316596
0.0048956261 -0.0013737992 -0.0026503769
0.0014055674 0.013136676 0.003361319
-0.0017112119 -0.0053890534 0.012762473
-0.0050000004 0.003782545 0.0075812601
-0.0050000004 -0.0068200445 0.014186827
-0.0022476313 0.010356 -0.010665088
0.0050000004 -0.0064353379 0.0054098396
-0.0050000004 -0.012307439 0.0085840952
0.0012263135 0.0090000005 -0.0011911375
-0.002884056 -0.0098078819 -0.012463219
-0.0050000004 0.0080950446 -0.00013768123
-0.0050000004 -0.0050010006 -0.0028172231
0.0050000004 0.002315009 -0.0074349605
-0.0050000004 0.01009097 -0.0053408225
-0.0016733302 -0.0050344882 0.012856372
-0.0050000004 0.0021796951 -0.013232448
-0.0032689974 0.015648054 -0.0026732192
-0.0047823596 -0.014722416 -0.0059092399
-0.00077557296 0.010680285 -0.0075383685
-0.0050000004 0.010970627 -0.0026607108
0.0049999999 -0.00055385649 -0.0075320653
0.001232614 -0.0041783201 -0.012699145
0.0050000004 -0.0069213379 0.006648595
-0.0018844374 -0.0081345439 0.011583557
0.0050000004 0.0004075857 0.012730944
0.0039134012 -0.015999421 4.403179e-06
0.0050000004 0.011851033 0.0044439789
-0.0025651518 -0.013302158 0.0078149941
-0.0050000004 0.00014253912 0.012121966
0.0050000004 -0.01018795 0.0098128701
0.001996032 0.010504849 -0.0098551083
-0.0044648093 0.012383664 0.0099193007
0.0050000004 -0.011001489 0.01117147
-0.0018400413 0.0010000623 -0.01405526
-0.0050000004 -0.00064663863 -0.010513402
0.0049999999 -0.013479213 0.0047394652
-0.0015044073 -0.013492632 0.0016005449
-0.0050000004 0.012936169 0.0091964118
0.0018521661 -0.0007101107 -0.0092784148
0.0050000004 -0.0017470829 0.0039311694
-0.0050000004 -0.0018452476 -0.0088132657
0.0050000004 0.011095017 -0.0069503412
-0.0050000004 0.0070624277 -0.0049895342
-0.001943936 -0.013854035 -0.0037748623
0.0025469572 -0.014935735 0.0036128361
-0.00072124234 0.0044013979 0.012291265
0.0040743435 0.0027455331 -0.0011440619
-0.0050000004 0.006136016 -0.0034364897
-0.0050000004 0.0076152594 -0.0024247169
-0.0050000004 -0.008706674 0.0096603418
0.0050000004 -0.0034257427 0.011770528
-0.0050000004 -0.010991637 -0.0041091195
0.00071277207 0.0009896087 -0.0033523706
-0.0032900963 -0.0029218523 -0.0005937558
-0.0050000004 0.0049846694 -0.01402232
0.0050000004 -0.0086408239 -0.0027194289
-0.001948367 -0.0054477765 0.013169328
0.0050000004 0.0018780789 -0.015533011
0.0050000004 0.0093202917 -0.0012985244
0.0050000004 -0.0052363537 -0.0069005131
0.0050000004 -0.0087609943 -0.011715621
0.004703816 0.015248287 0.0046396707
0.0044224421 -0.0013421185 -0.015823303
0.0038290182 0.0015177651 0.015800178
0.0050000004 0.0013290944 -0.0074267597
0.0050000004 0.0082168318 -0.0059011518
0.0033860956 0.011777947 -0.010708684
-0.0050000004 -0.0076609883 -0.0032647224
-0.0050000004 -0.010026377 0.0044520819
0.0050000004 -0.0040256255 -0.012013922
0.0050000004 0.0019647935 -0.015569602
0.0050000004 0.0042558201 0.014731864
-0.0050000004 0.00047857699 0.0099082133
0.0050000004 0.0085511003 -0.011675194
0.0050000004 -0.0099352822 0.005281786
0.0050000004 0.0026555643 -0.0064542568
-0.0050000004 -0.010686302 -0.011409933
-0.0050000004 0.0021935913 -0.015290494
0.0050000004 0.0056351395 -0.0052767484
0.0024877957 -0.0130421 -0.0079357019
-0.0050000004 0.010107545 -0.0022094275
-0.0050000004 0.012653919 -0.0060607954
-0.0050000004 0.013997429 0.0010836654
-0.00047329292 0.0044838525 -0.012160334
0.0050000004 -0.0051654847 0.0018009661
0.00048122802 -0.011393602 0.0063374825
-0.0050000004 0.0024357303 -0.010768093
-0.0050000004 0.012538707 -0.00038433983
-0.0050000004 0.0036865084 -0.0023402662
0.0026458213 0.0027329207 -0.001174474
0.0044639162 -0.0051078531 -0.01505436
0.0015345457 0.0090000005 -0.00076343986
-0.0050000004 0.0015295349 0.006952656
0.0044788048 -0.0013185131 0.015826412
-0.0050000004 0.011967734 0.0065103839
0.0050000004 -0.006151713 -0.004150623
0.0050000004 0.005324176 -0.013667058
-0.0050000004 -0.00011434698 0.0067817811
0.0050000004 0.00048235196 0.0059481957
-0.0011731981 -0.01333585 -0.00049361232
-0.0050000004 -0.00094341516 0.010657367
-0.0037458078 -0.015243294 -0.0046517253
-0.0050000004 -0.0080426941 0.012344466
0.0050000004 0.010899526 0.0085368315
-0.001224133 4.0759063e-05 -0.0064741266
0.0050000004 0.012740546 -0.00035419178
-0.0050000004 0.0099826874 -0.0058108186
0.0018950179 -0.0064064483 -0.012673068
-0.0050000004 -0.0071700555 -0.0044256519
0.00091871171 -0.0017730908 -0.013000837
0.0050000004 0.0061619878 -0.014142575
-0.0050000004 0.0030282177 0.011006452
-0.0033516122 0.0023404236 0.0018357685
0.0034145853 0.0067256959 0.014384232
0.00090627029 -0.01312057 -0.00082437776
0.0038043228 0.012983063 -0.009138152
-0.0041389642 0.015487287 0.0038943393
-0.0050000004 0.0019527198 0.01306828
0.0050000004 0.0089706648 -0.0081085432
0.0020810931 -0.0088376896 -0.011469671
-0.0027710113 -0.0035878334 0.015327089
-0.0019306182 0.0043183328 0.013604171
0.0050000004 -0.0037747528 -0.0057764999
-0.0050000004 -0.0092202136 0.005472566
0.0037928787 0.014770156 -0.0057939906
0.0017913159 -0.0048759319 0.013114286
-0.0050000004 -0.0060647489 0.0076261833
-0.0050000004 0.0031409981 0.001733704
0.00045077319 0.0057284036 0.011641597
0.0050000004 0.003777341 -0.015480282
-0.0050000004 -0.0045892498 -0.0095286909
-0.0050000004 -0.0089185396 -0.0095347166
0.0050000004 0.012500404 0.0096407766
-0.0035683089 0.0029844586 0.0001180288
0.0022066932 0.01247796 -0.0078779673
0.0022231189 0.012178659 -0.0083143562
0.0042753746 -0.01409319 -0.0074283374
0.0039514024 0.011560352 -0.010992259
-0.0023641197 0.0023823376 -0.0017811519
