# .PCD v0.7 - Point Cloud Data file format
VERSION 0.7
FIELDS x y z
SIZE 4 4 4
TYPE F F F
COUNT 1 1 1
WIDTH 1000
HEIGHT 1
VIEWPOINT 0 0 0 1 0 0 0
POINTS 1000
DATA ascii
-0.0039260415 -0.0065644854 -0.014451006
0.00012102534 -0.009297533 -0.0090813423
0.0049999999 -0.0078743473 0.0038632809
0.0044581168 0.012099549 0.010289567
0.0049999999 -0.0063809506 -0.0010960465
-0.0045236773 0.0086716376 -0.013341034
-0.0049999999 -0.0067596012 -0.01187543
-0.0049999999 -0.014733235 -0.0014438702
-0.0049999999 -0.0032229763 -0.011041369
-0.0049999999 0.012253176 -0.0038676597
0.0011911183 0.0066816127 0.00029148126
0.0049999999 0.0028174859 0.0086678145
0.0049999999 0.011008171 -0.0037667579
-0.0013006147 -0.013239963 -0.0019648455
0.0049999999 0.010731475 -0.010427257
0.0049999994 -0.0023155501 0.0030018925
-0.0049999999 -0.0011385201 0.0042401422
-0.0050000004 -0.0063971952 0.0038092986
-0.0024141485 0.0016401672 -0.014965429
-0.0050000004 0.0041005355 0.012136172
-0.0049999999 -0.014048679 -0.0039600576
0.0026123668 -0.0058842599 -0.014222685
0.0050000004 -0.00070525933 -0.014061119
-0.00037738908 -0.0034677726 0.012567657
0.0049999999 -0.013334896 -0.0042749424
0.0024321019 -0.01194377 0.0092099532
-0.001813015 -0.00080463808 0.0099041825
-0.0049999999 0.010795746 -0.0091153784
-0.0015550774 -0.0080812043 -0.011006488
0.00091912324 0.001365817 -0.0026536835
-0.00062988873 0.012009407 -0.0049837949
-0.00054191652 -0.0011398578 -0.012928138
0.0049999999 0.010681183 -0.0092671383
-0.0035008462 0.0016897355 -0.0024524929
-4.5069966e-05 0.0084841084 -0.0012235651
0.0033080133 0.0014322181 -0.01581144
0.0011725967 0.0015996309 0.010898146
0.0049999994 -0.0049141757 0.0074166264
-0.0049999999 -0.0011763645 -0.0068714423
0.0049999999 -0.011297216 -0.0099490071
-0.0049999999 0.010943453 0.0030737056
-0.0028779625 -0.015949529 0.00026709429
-0.0024468848 -0.0070212898 0.013444134
0.0049999999 -0.0089066932 -0.00032333104
0.0029047872 0.0010208337 0.0027965666
0.0042514531 -0.014305657 0.0069153924
-0.0050000004 -0.0086296787 -0.0084533971
-0.0040618195 0.0028935787 -0.00078668684
-0.0049999994 -0.0003466077 -0.0064915926
0.0049441876 -0.015151561 0.0048731863
-0.0019156203 -0.00055690663 0.01356699
-0.0049999994 -0.0037270708 -0.013712927
-0.0049999999 -0.0070484658 0.0062542795
0.0025717802 -0.0016149833 -0.0025098592
-0.0049999999 -0.0022125456 0.0064670639
-0.0049999999 -0.010136465 -0.0043596118
-0.0026183289 0.015434485 -0.00076350651
-0.0049999999 -0.013806114 0.0077510602
-0.0041025183 0.0066284686 0.014424505
0.0049999999 -0.007267944 -0.011426789
0.0049999999 -0.0092730103 -0.0025425802
0.0049999999 0.0078917183 -0.0048006312
-0.00080965494 0.011591532 0.006185561
0.0044919574 0.015505483 -0.003756131
-0.0029461603 -0.015567636 0.0032840509
-0.0046718228 -0.015502332 0.0037800747
0.0039286441 6.8632973e-05 -0.0029909669
0.0045045582 -0.0029984068 1.2106697e-05
-0.0020725455 -0.0022518274 0.014293231
0.0017981017 -0.0097698495 -0.010141849
0.00096671702 -0.00074259931 0.0069079031
-0.0050000004 -0.0084192716 0.0011188781
0.0050000004 0.00085842231 0.0061436011
-0.0026137226 0.0021826769 0.01523968
0.0017872483 0.013911399 0.00086684962
0.0034809706 0.0025522925 0.0015596903
0.0049999999 0.015317271 0.00095342204
0.0049999999 -0.012052955 -0.0057620015
0.0050000004 -0.012249698 -0.0079243341
-0.0012896582 0.0037705244 0.012915037
0.0035314395 -0.0054335222 0.014919464
0.0049999999 -0.0097753536 0.0074055358
-0.00061511673 0.0032503246 0.012680661
0.0043713767 -0.010720338 0.011769005
0.0049999999 -0.012259969 0.0025649886
0.0046932204 0.0017635956 0.015767813
-0.0022513461 -0.014334849 0.0039934893
-0.002665288 -0.0054918542 0.014483586
-0.0030497683 0.014329601 0.0068575861
-0.0008797276 0.0028404598 -0.01284421
-0.0049999999 0.010581972 -0.0020590229
-0.0032747218 0.0057592806 0.014784532
-0.0021477789 -0.014439273 -0.0021321853
-0.0049999999 -0.013644552 -0.0079862997
-0.0012384724 -0.00920639 -0.0097452095
0.0049999999 0.014715324 -0.0045280517
0.00059666176 -0.013055752 -0.00034258928
-0.0024474848 -0.0070798877 0.013420979
0.0027341768 0.013518699 -0.008009579
-0.0049999999 0.0028350037 -0.0045622056
0.0049999999 -0.013889352 0.0046607982
-0.0009332234 0.0002284518 -0.0029699323
-0.0049999999 0.010680327 -0.0095794247
0.0049999999 0.014118957 -0.0026919027
-0.0028649054 0.0029072182 0.00070500321
-0.001869061 -0.0041813557 0.013546492
0.0022076729 0.0062608551 0.013314498
-0.0040629804 -0.0027712828 0.0010819227
-0.0018016748 0.0092540672 0.00083201798
0.0049999999 -0.0078935726 -0.0016997675
-0.0026428469 0.0072920956 -0.013696194
-0.002640709 -0.0019375976 -0.0022622778
0.0049999999 0.0083092581 -0.009676001
0.0049999999 0.0016843865 0.013784667
-0.0049999999 0.0034190898 0.0031707699
0.0049999999 -0.0017216402 0.0094061326
0.0049999999 0.013835071 -0.0058230665
0.0049999999 0.0063145249 0.011792664
0.0050000004 0.015102939 -0.0015845879
0.0032028258 0.0011614787 0.015847085
0.0016968058 0.010639379 0.0088603897
0.0050000004 0.00028064635 -0.01077971
-0.0045755813 -0.015114417 0.0049628648
0.0050000004 -0.01183647 0.0039939932
0.0049999999 -0.011059009 -0.011070002
-0.0023578559 -0.015049962 -0.0002573322
0.0010797849 -0.00053053664 -0.013259294
0.0049999999 -0.0064768335 -0.0041672997
-0.0049999999 0.003381375 -0.0034614718
-0.0049999999 0.014056229 0.0028344588
0.0049999999 -0.0096567627 0.0054690382
-0.0049999999 0.004328555 -0.013825572
0.0049999999 0.0024073878 -0.0034432427
0.0049999999 -0.010030424 -0.0066681979
0.0025464136 0.0086067356 0.012654074
0.0049999994 -0.0085033923 -0.0016748041
0.0049999994 0.013588713 0.0024345841
0.0019783764 0.014044713 0.0029004626
-0.0049999999 -0.0040455712 -0.00075353764
-0.0049999999 0.013859129 0.00016105786
0.0049999999 0.0094487984 -0.00095620955
0.0049999994 0.010817307 0.0093332473
0.0049999999 -0.0081508113 0.00086487154
-0.0049999999 -0.0094857868 0.0096322829
0.0034822454 0.0003545309 0.015953325
-0.0049999999 -0.013437789 0.0024322469
-0.0049999999 0.0061213067 -0.0026024375
-0.0020415974 -0.011359614 0.0088696955
0.0049999999 -0.00074984267 0.0054577831
0.0049999999 0.0035426891 -0.012000323
-0.0010500125 0.011424513 0.0067823613
0.0049999999 0.0021925943 -0.012820201
0.0049999999 -0.006371405 0.012724454
0.0046670781 0.010744549 -0.011750427
0.0015545448 -0.0078993589 0.011145153
-0.0049999999 -0.0051350179 0.014287902
0.0017717241 0.00090433046 0.010879152
0.0049999999 0.0034032967 -0.0098801637
-0.00085404114 -0.0097061144 -0.0088608917
-0.0049999999 -0.0051694768 0.01074083
-0.0049999999 -0.0088269887 -0.0058739232
0.00098381634 0.0093766404 0.0093775569
0.0049999999 -0.00085277419 0.0067065698
0.00037249623 -0.0019426901 -0.0127933
-0.0019265845 -0.0006420812 0.014252299
0.0050000004 -0.012494558 0.007323809
-0.0049999999 -0.0062371497 -0.0093646264
0.0029906034 -0.0048423554 0.015164332
0.0049999999 0.0095561221 -0.0088942433
-0.0044196188 0.0021882297 0.0020340867
-0.0049999999 -0.0032288942 -0.0011314927
-0.0037078487 0.012068525 -0.010329996
0.0010438103 0.010940711 -0.0074051223
-0.0032868723 0.0079852967 0.013862491
-0.0040906589 0.013674333 -0.0082372744
0.00055506639 0.001089531 0.0075856661
-0.0024910665 -0.01484446 -0.0035708412
0.0020947023 0.0057155383 0.0133304
0.001949187 -0.013774456 -0.0039905491
0.0021451961 -0.0031548848 0.014300155
0.0042164959 0.0048993994 0.015140704
-0.0049999999 -0.0059680501 -0.011230583
-0.0018712326 -0.0092575382 0.010693258
-0.0032341999 0.015637787 0.0027512205
0.0010918438 0.0031636513 0.00054948102
0.0049999999 -0.00074663939 -0.011825969
-0.0049999999 -0.00082056719 -0.012222178
0.0049999994 -0.010615627 -0.010875884
0.0030946631 0.0092468411 0.012899662
0.0049999999 -0.014857497 -0.0053338348
-0.0049999999 -0.0060253469 0.0073261834
0.0042221099 0.0061793416 0.014610537
0.002067938 0.0036125197 0.014106118
0.0049999999 0.0061417851 0.0031489187
0.00093184575 0.0030449363 -0.00078803638
-0.0037795117 -0.01585413 -0.0011079786
-0.0049999999 -0.0065536331 0.0023375102
0.0049999999 0.0036372042 0.00099935534
-0.0049999999 -0.0057432544 -0.0059623295
-0.0044822334 -0.015481405 -0.0039390144
-0.001742659 -0.0029981181 -1.4301118e-05
0.0049999999 0.0066866861 -0.009937847
0.00088993256 0.0027357426 0.012862215
0.0049999999 -0.0046806615 -0.0024271691
-0.0049999999 0.0017987896 -0.0033719912
-0.0049999999 0.013881473 -0.0023797862
0.00016573608 -0.0012076766 0.007344225
0.0047748643 0.0070637851 0.014244191
0.00026264539 0.0091917785 0.009236102
0.0049999999 -0.014353924 0.0038149618
-0.0018464479 0.0040870709 0.013543515
0.00088921905 0.010219308 -0.0082158037
0.0049999994 0.010788631 -0.0032926181
-0.0021871987 0.012991541 -0.0069486727
0.0048714238 0.0025053762 -0.015670154
-0.0032847216 -0.015623929 0.0028564751
-0.0021359574 0.012610717 -0.0075054248
-0.0033437354 0.00063051539 0.015916988
-0.0050000004 -0.001009479 -0.0076572699
-0.0050000004 -0.0050265086 -0.0049465271
-0.0049999999 0.0055767978 -0.014692326
-0.0049999994 -0.0013434559 0.012836703
0.0049999999 -0.0019535201 -0.0033000545
-0.0049999994 0.0056879963 0.00093855022
0.0049999999 0.0054112379 -0.010294378
0.0050000004 0.011370413 0.0096766241
0.00078458025 0.0017713233 0.0023898801
0.0049999999 0.012231544 -0.0053771967
0.0049999999 -0.014932362 -0.0040925951
-0.0024789488 0.015283272 7.8473502e-05
-0.0023930243 -0.0092591867 0.011821421
0.00018594491 -0.0012050155 0.0060516698
-0.003676614 -0.015511345 -0.0037116143
0.0021324146 -0.0071571646 0.012803356
0.0011881161 -0.013155014 0.001954302
-0.0050000004 -0.0075159031 -0.0078414539
-0.0049999999 0.010505589 0.0025740101
-0.0049999999 -0.0044283001 -0.013743103
-0.0017950013 0.00010012128 -0.014095769
-0.002319705 0.0097054476 -0.011320287
-0.00094968948 0.00076478516 0.0073338142
0.0049999994 0.01507919 0.00040136624
-0.00022951973 0.011593821 0.0057683131
-0.0049999999 -0.013267498 0.0021589089
0.001691079 0.013308224 0.0040035164
0.0050000004 -0.012596307 0.0024469367
0.0049999999 0.0021851766 -0.010065028
-5.6997582e-05 -0.001221995 0.0047246772
0.0027438789 -0.0092780292 0.012566381
-0.0023187418 -0.014928448 0.00066571956
-0.0049999999 -0.0079762349 0.011518882
-0.0023868033 0.0061055217 0.013711784
-4.0958083e-05 0.011665517 0.0055308645
0.0049999999 0.0032087897 0.01350245
-0.0026349917 0.0025096913 -0.015233452
-0.00064195984 -0.0066159773 -0.011318861
0.0049999994 -0.015436689 0.0016770973
-0.0049999999 -0.0096132848 0.011198662
0.0049999999 0.0092589296 0.0085249469
0.0013920376 0.010391512 0.0014312102
-0.0049999999 0.013320994 -0.0053163338
-0.0050000004 -0.0059723789 0.010350953
-0.0045389403 -0.012053066 0.010350144
0.0033587124 0.015345118 -0.0044058962
0.0049999999 0.01341219 0.00053743494
-0.0049999999 0.006026993 0.012431977
-0.0040740324 -0.0029018365 0.00074583298
0.0047913743 -0.015411403 -0.0042458735
0.0049999999 -0.00076295953 0.010001046
-0.0049999999 0.012811776 0.00056262856
-0.0049999999 -0.014157142 -0.0051568197
-0.0049999999 0.0051105665 3.9302275e-05
0.0049999999 -0.010931149 0.00099008949
0.0049999999 0.0089743063 -0.0069889226
-0.0021483947 0.0072474647 0.012795655
0.0049999994 -0.0012695652 -0.013235461
-0.0049999999 0.0074652261 -0.0032066181
-0.0049999999 -0.0031319773 -0.0036477232
0.0049999999 -0.014250698 0.0051209577
-0.0049999999 0.013447322 -7.3677853e-05
0.0049999994 -0.00037654926 -0.010623782
-0.0049999999 0.0040131337 -0.0094739348
-0.0049999999 0.0040178145 0.014166339
0.0050000004 -0.0099852653 -0.0038827707
-0.0032514283 -0.015336066 -0.0044277525
0.0025977236 -0.0039687189 -0.014976814
0.0027438453 0.0026418376 0.0013943666
-0.0049999999 0.010209412 -0.002117747
-0.0019888903 -8.4440268e-05 0.012327599
0.0049999999 -0.0030057835 -0.0083085829
-0.0010411054 0.007950224 -0.010519854
0.0049999999 0.0023978029 -0.014467036
0.0036848446 -0.011713623 -0.010792513
-0.0045060208 0.011513153 -0.011053771
0.004185074 -0.013340224 0.008672691
-0.0035021577 0.0029048205 0.015617564
-0.000537813 -0.0039276076 0.012406
-0.0015156618 0.0056055053 0.012399336
-0.0049999999 0.011021879 -0.004597574
0.0016866478 -0.01266717 0.0055362158
0.0049999999 0.0043904004 0.0068860361
-0.0049999999 0.0068087294 0.0014181201
-0.0049999999 0.0090374388 -0.0059300452
-0.0022760574 0.012349687 -0.0082407985
0.0017694529 -0.013981463 -0.00063226774
0.0049999999 0.0058394903 0.0088317255
-0.0017476764 0.00040180521 -0.002947116
0.0017042661 0.0031664663 0.013546888
-0.0014361634 -0.013535362 -0.00060053228
0.0010890078 0.00055633043 0.0079970164
0.0049999999 0.011096886 0.010395661
-0.0049999994 0.004883307 -0.0099117793
0.0049999999 -0.008135356 -0.0056252545
-0.0049999999 0.0093153631 0.0017777275
-0.003780406 1.994579e-05 0.0029973737
0.0036655422 -0.015581084 0.0031819087
0.0049999999 0.0012868844 -0.010277025
-0.0049999999 0.0012901032 0.0043359776
0.0032640225 0.0015670829 -0.015793685
0.0049999999 0.010297266 0.0019017195
-0.0049999999 -0.0077960808 -0.0024850124
-0.0050000004 -0.0046328716 -0.014790389
0.0049999999 0.014851924 -0.0017398476
-0.0049999994 -0.00099442014 -0.013602282
-0.0049999999 0.0047769891 0.015016758
0.0010801351 -0.010374456 -0.0081884842
-0.0049999999 0.0076708919 -0.0072167446
-0.0017859425 -0.013929758 -0.0012419999
-0.0049999999 0.0011533126 -0.0041523147
-6.0569906e-05 -0.0055085672 0.011677515
-0.0015805761 0.00088955055 -0.0028509705
-0.0049999999 -0.0085979793 -0.0044675027
-0.0042149518 -0.0058039795 0.014766017
-0.0043157348 0.0142451 0.0070615876
-0.001629826 -0.010621909 0.0087410202
-0.0049999999 0.00056291191 0.014626273
-0.0039621959 -0.010208271 0.012161928
0.0019637803 -0.00027529133 0.010664404
-0.0033608314 0.015810817 0.0014369542
-0.0049999999 -0.0049480652 0.0070408108
-0.0029009597 0.0019692234 -0.015740741
0.0049999999 0.0048563452 0.0099072838
0.0049999999 -0.0062824227 -0.0044343588
-0.0036865841 -0.014600768 -0.0062029306
0.0049999999 -0.0046369471 -0.007255015
-0.0017820598 0.012670226 -0.0059064454
-0.0049999999 -0.0034601127 -0.0083450181
0.0049999999 0.0048746266 -0.0101229
0.0048490711 -0.0029958484 3.1544409e-05
-0.0049999999 -0.011145781 0.0041324268
-0.004891024 0.0044854614 -0.015312162
0.0049999999 -0.0031348579 -0.0098930513
0.0019755438 -0.014278994 -0.0010836355
0.0049999999 -0.00023349095 -0.0038054618
-0.0021930009 0.0041202274 0.014173908
-0.0049999999 0.0062181666 -0.0045415414
-0.0049999999 0.00049123494 0.0042140451
0.0049999999 -0.0090468908 -0.012334525
-0.0049327081 0.010248958 -0.012130708
-0.00062082341 0.00074977439 -0.0029013178
-0.00015498209 0.0097172968 -0.0085415617
0.0028829072 0.01430882 -0.0068902872
-0.0049999999 -0.0015324274 -0.006702302
0.0049999999 -0.007996873 0.011656299
0.0022906614 -0.011620923 0.0092317145
0.0049999999 0.0065132398 0.0088500865
-0.0033306256 0.014649445 -0.0060854089
0.0049999999 -0.011143742 -0.0076442091
0.0049999999 -0.0021105257 -0.0024537994
0.0049999999 -0.0033914072 0.011580684
-0.0049999999 -0.010336408 -0.006745033
-0.0049999999 -0.0058882385 0.014119303
-0.0049999999 0.0076145912 0.013433406
-0.0011403211 -0.00043239316 0.003110016
0.0030288787 -0.0051341322 0.015043475
-0.0043248432 0.0024102614 0.0017447654
-0.0049999999 -0.013228355 0.0028924036
-0.0044479733 -0.0016482139 -0.015783004
0.0045368327 -0.00045419281 -0.002940221
0.00068112015 0.012136756 -0.0047313957
0.0049999999 0.0020746409 0.015672805
0.004167194 0.0031763262 0.015581818
0.0043473109 0.015790353 0.0015923918
0.004716503 -0.0082889888 0.013634652
0.0011794302 0.0015943863 0.0096751405
0.00092304352 0.0049903509 -0.012137015
0.00037151112 -0.0026935653 0.0012695389
-0.0049999999 -0.0022510786 -0.007264995
-0.0019389752 -0.00046382536 0.012026254
-0.0049999999 -0.0025098564 0.010799351
-0.0049999999 0.0037305539 -0.0035901703
-0.0049999999 0.0030142916 -0.015271427
0.00014058525 -0.0127439 0.0020858427
0.0049999999 0.00016386075 0.015741594
-0.0033439009 0.0044546118 -0.015324939
0.0049999999 -0.0010331105 -0.0084641753
-0.0049999999 0.007495997 0.0013219813
0.0033093099 0.00088268588 -0.01588379
-0.0049999999 0.0028114326 -0.0038713028
0.0049999999 -0.0034385722 -0.0037729379
-0.00037139331 0.0023585067 -0.012738423
0.0012212379 -6.2744359e-05 0.0030608277
-0.0017818811 -0.0024189341 -0.0017334643
0.0049999999 0.0087237135 0.0049209548
0.0043582194 -0.0011157952 -0.0158531
-0.0049999999 0.011882288 0.00010297527
0.0026463033 0.010543769 0.011383939
0.0041319812 0.015978904 0.00016024738
-0.0044446336 -0.014859206 -0.0055790003
-0.0049999999 -0.005953873 -4.7285134e-06
0.00187783 -0.0017039474 -0.0024415862
0.0012913718 -0.012557961 -0.0046359678
-0.0022243143 -0.014364578 -0.0037065716
0.0049999994 0.001451191 0.0096636163
-0.0049999994 -0.0031165252 0.010506605
0.0017303089 0.00081241911 0.0090000005
0.0013117978 0.011455417 -0.0070691919
0.00041614211 -0.012026591 0.0047871764
-0.0049999999 0.0039217439 -0.01053327
-0.0033448869 -0.0023524021 -0.015690293
0.0024519879 -0.0027800596 -0.014880875
0.0049999999 -0.010794979 -0.011400732
0.0014644938 0.010174019 0.0089738583
-0.0049999999 0.015980698 -2.703346e-05
0.0049999999 0.0088499645 0.0078166351
-0.0049999999 -0.0017382951 0.0086471541
0.0033806807 -0.011834196 0.010635379
0.0049999999 0.0021870953 -0.0067606186
-0.0049999999 -0.0078279991 0.0053595854
-0.0010033319 -0.0014684252 -0.013077176
-0.0049999999 -0.010106276 -0.0013495868
-0.0049999999 0.0059240009 0.0010096803
-0.0049999999 -0.011766862 0.0065443739
-0.0039570234 0.015936252 -0.00048420898
-0.0049999999 0.0071029179 -0.011946408
0.0049999999 -0.0014466569 -0.0087484373
-0.0023775871 0.001680157 -0.01489684
-0.0049999999 -0.0090143187 -0.010312399
-0.0032371718 -0.015310518 0.0044894302
0.0049999999 0.0078234831 -0.010912829
0.0050000004 0.0085967844 -0.013017891
0.0013312699 0.013267176 0.0014778498
0.00083104696 0.0092683267 0.0093815858
0.0049999999 0.0067788051 0.0040172194
-0.0049999999 0.0084200343 0.0033324005
-0.0021923869 0.0044462061 -0.01403774
0.0049999999 -0.0068143359 -0.0023516244
0.0049999999 -0.0021366207 -0.011704549
-0.002504003 -0.014146538 0.0055818423
-0.0027909065 0.013555272 0.0081219403
0.0023443629 -0.0092960307 0.011687821
-0.0049999999 0.0090664923 0.008485781
0.0027804524 0.014425115 -0.0061497861
-0.0049999999 0.0025135586 0.0086761899
0.0049999999 -0.008738121 -0.0029864286
0.0049999999 -0.0031601805 0.015189621
0.0028325266 -0.013825276 0.0078316014
-0.0011347482 0.012074374 0.0054920134
-0.0049999999 -0.013627236 0.0065897959
0.0049999999 0.00037092544 -0.0034114535
-0.00019216332 0.012572878 0.003391905
-0.004287275 0.014155358 0.0072782482
-0.0028763579 0.0091869533 0.012923014
-0.0042968518 -0.015871828 0.00097354647
-0.0049999999 0.0098870667 0.0101609
-0.0049829343 0.010533672 0.011912239
-0.00275992 -0.015762517 -0.0001346014
0.0022241373 0.014001351 0.0046765273
-0.0049999999 -0.003773513 0.012220885
0.00054955296 0.0027148665 -0.0012180745
-0.0024623265 -0.011839385 0.0094312485
0.0046601039 -0.0021786969 0.0020465082
0.0049999999 0.0065614092 -0.0066240802
0.0049999999 -0.013774045 -0.0060252268
-0.0049999999 -0.005005517 0.0036789486
0.0049999999 0.013604574 0.00029949253
0.00081772212 0.0047286134 0.00090906187
0.00030117756 0.010492491 0.0075626308
0.0012487565 0.0090000005 0.0013588344
0.0012904144 0.012525157 0.0047132582
-0.002804019 -0.014406665 -0.0063000796
0.0049999999 -0.004483954 -0.0050897812
-0.0030114185 0.015449619 0.0041536088
-0.0049999999 0.00410314 0.0106141
-0.00022868539 0.011726169 -0.0019699116
0.0017360845 -0.010963766 0.0085237836
-0.0016952725 0.0026067521 0.0014791042
-0.0049999999 -0.00038535555 -0.015882606
-0.0049999999 -0.0097427713 0.007732755
0.0049999999 -0.0041130902 -0.011956127
0.0025546518 0.0061399587 0.014009495
-0.0049999994 -0.0030511047 0.0027432577
0.00071048929 -0.002953375 -0.00035425028
-0.0043944074 -0.0093361055 -0.012831167
-0.0049999999 0.0098917279 -0.012397261
0.0026242861 -0.015123231 0.0032059473
-0.0049999999 -0.0060712229 0.00029899506
0.0049999999 -0.0099788448 0.0010214174
-0.0039712046 0.00054779067 0.015927881
-0.0049999994 0.010689045 0.0029005122
0.0036408058 -0.0027607232 0.0011074145
-0.0049999999 -0.010866586 -0.0038448428
0.0049999999 0.0029320519 0.011690219
0.0049999999 -0.0077712317 0.0052962666
-0.0024266732 -0.013402644 -0.0070307702
-0.002503803 -0.014463877 -0.0048148166
-0.0034242508 -0.014139998 -0.0073153335
0.0049999999 0.0082844831 0.011060772
0.00299179 -0.0018167292 -0.0023550349
0.0049999999 0.0072158193 -0.012750221
-0.00088168087 0.0047234125 0.00085339887
-9.1719623e-05 0.012600316 -0.003127486
-0.0049999999 -0.0025379444 -0.0020260813
0.004450643 -0.0096297106 -0.012605875
0.0016725742 -0.0138163 -0.00080629491
-0.0049999999 -0.0041132136 0.0082676103
0.0049999999 0.0016590804 -0.014185756
0.0049999999 -0.0042882604 0.0081534507
0.0031671431 0.00088230625 -0.0028539714
0.0049999999 0.0019448882 0.013269758
-0.0026334734 -0.015205865 0.0026991668
-0.0049999999 0.0063155168 0.012222164
-0.0049999999 -0.013446011 0.00055017637
-0.0049999994 -0.0078014843 -0.008660282
-0.0030211986 -0.0014769406 0.015805552
-0.0025175675 -0.0078067742 -0.013205471
0.0049999999 0.0047330274 -0.0035407993
-0.0015001559 -0.0029162655 -0.00063620048
-0.0049999999 -0.011089507 0.007530435
-0.0049999999 -0.0028833747 0.0095942775
0.0016779536 -0.012278598 0.006444958
0.0031049652 0.004920139 -0.015132113
0.00017269135 -0.0029644051 0.00027044528
-0.0042808964 0.013890283 0.0079182014
-0.0027535916 0.010196996 0.011882253
0.0013522014 -0.0066461721 0.011775337
0.00090511754 0.0024145427 0.01291078
-0.0049999994 0.012157559 -0.0065060412
0.0017047892 -0.0052274037 0.012820445
-0.004532103 0.0011253949 -0.002753275
-0.0049999999 0.0138027 -0.0041333563
-0.0049999999 -0.006913132 -0.011439641
-0.0045871702 -0.0022341434 0.015705861
0.0015491096 0.013315295 -0.0012384222
-0.00096159149 0.0036477626 -0.00074927858
0.0049999999 0.0040060463 0.0034761201
-0.0049999999 0.0069544669 -0.0077467207
0.0039295782 -0.003265359 -0.015570097
-0.0015419285 -0.0013303062 0.0026683616
0.0049999999 0.014383772 -0.0036769027
-0.002663166 0.010422053 0.011513836
-0.0022360857 -0.0086266007 0.011967131
-0.0038020555 -0.0038134633 -0.015497936
0.0049999999 0.0047954759 0.0082907332
-0.0049999999 -0.0096484907 -0.010110471
-0.0049999999 0.010897056 0.0034144369
0.0012255167 0.013015626 -0.0015590147
0.0050000004 0.00035551502 0.014818271
-0.0012200363 -0.00094454322 0.0028281782
0.0049999999 0.013555952 0.005828524
-0.0049999999 -0.0028693832 -0.0019941737
-0.0049999999 -0.0064799534 -0.010889353
-0.001417183 0.01197353 -0.0014103127
0.0049999999 -0.011135262 -0.004674572
-0.0049999999 0.0082264813 0.0002284261
0.0010006109 0.012026099 0.0017316318
0.0049999999 -0.014805322 -0.0040481878
0.0049999999 0.00087776093 0.012625055
0.0049999999 0.012547044 -0.0078875721
0.00035815698 0.01198856 0.0048592635
0.0049999999 0.0028958123 -0.0039529158
0.0049999999 0.0088568004 -0.0054664575
-0.0023560014 0.0046907673 0.014240544
0.0018454327 0.00049063098 0.0090000005
0.0049999994 -0.0094377417 -0.0037544537
-0.0049999999 0.0062420103 0.00082792895
-0.004804933 -0.0079915412 -0.013859904
0.0022988806 0.00026603765 -0.014946673
-0.0049999994 0.0095503572 0.0040949853
-0.0049999999 0.0095907263 -0.00091022922
0.0049999999 0.005047786 0.0015321925
-0.0036009753 -0.013289014 0.0087394305
-0.00321157 0.013700651 0.0082029775
0.0011754747 -0.0049258997 -0.0123424
0.0014487858 0.00029831586 -0.013591592
0.0020872692 -0.012508814 -0.0075008855
0.0012355283 -0.0029128133 0.00066243054
0.0019847287 -0.00011607091 0.013279462
0.0019183541 -0.012781821 -0.0062486194
0.0047986438 -0.0044978298 -0.015307038
-0.0049999999 0.011166636 -0.0018501319
0.0049661589 -0.0078023812 -0.013938256
-0.0049999999 -0.0072492235 -0.0068410197
-0.0049999999 0.0088203913 -0.0020419061
-0.0049999999 -0.0069526797 0.0059396233
-0.0049999999 0.0070000938 -0.010264369
0.0019796938 0.0068989499 -0.012626454
-0.0043091471 -0.00054673949 0.0029280405
0.0040297955 0.0029353993 0.015613537
0.0049999999 0.0033890011 0.0075908033
-0.0049999999 0.0080532739 -0.0060510589
-0.0015150848 -0.013629574 -0.00066599972
0.0049999999 -2.2742273e-05 -0.0040598651
0.0043774336 -0.0015251094 -0.015799209
-0.0014539056 0.0045487923 0.01275072
-0.0049999999 0.006200125 -0.01417059
0.0024271994 0.0023281933 0.0018517056
-0.00067309552 -0.0077552991 0.010460768
0.0049999999 -0.0027500459 -0.0045143529
-0.0026064292 0.0019053289 -0.0022870414
-0.0049999999 0.013775248 -0.0058144443
0.0016390628 -0.013736826 -0.0010783159
0.0049999999 -0.0053768293 0.0027548855
0.0049999999 0.013080652 -0.0024597489
-0.0049999999 -0.0060551348 0.013519843
-0.0011651312 -0.00081820326 -0.0028805251
0.0023111955 -0.014911786 0.00069300114
0.0036904272 0.015593322 0.0030889546
-0.0023582156 -0.014612117 -0.0035879086
0.0049999999 0.002619324 0.0046719643
-0.0049999999 -0.0078677144 0.011391318
-0.0048953122 0.014105574 -0.0073984372
-0.0050000004 -0.0030720476 0.015049356
0.0049999999 0.0030084956 0.0033686815
-0.0049999999 0.0081473943 0.005293183
0.0049999999 -0.0031700949 0.012238058
-0.0049999999 0.011233657 -0.0012782526
0.0032576818 0.01583451 0.0012569978
-0.0049999999 0.0058335676 -0.0019669505
-0.0042558615 0.015937243 0.00047668215
-0.0049999999 -0.0054638032 0.0083526643
-0.0021185749 0.00046965957 -0.014607568
0.0018794748 -0.0089445794 -0.010951244
0.0050000004 0.014331166 0.0068110907
-0.0050000004 -0.013248125 -0.0014329811
-0.0049999999 0.012449459 -0.0091511598
0.0049999999 -0.0023394048 0.01529883
-0.0049999999 -0.0077673942 0.013224497
-0.0049999994 0.002240709 -0.0075725736
-0.0049999999 -0.0083382213 -0.0085713407
0.00045137509 0.0060637617 -0.011502776
-0.00040590149 0.007940975 0.010219421
-0.0005160743 0.0052688355 -0.0011056748
0.0049999994 0.0095837507 -0.0099657848
0.0050000004 -0.0089578889 -0.011113223
-0.0015487802 0.011945672 -0.0068125511
-0.0042675193 0.013176501 -0.0088860607
-0.0049999999 -0.0077520194 0.0054233745
-0.0033359863 0.00057755824 -0.015923962
-0.0049999999 -0.0098461583 -0.0098251542
-0.0049999999 -0.0043156845 -0.0048240959
-0.0049999999 -0.010501327 0.0096766194
-0.0038207686 -0.0028489362 0.015624923
-0.0049999999 0.0062740562 0.011148544
0.0049999999 0.0019076178 -0.0029805538
-0.0049999999 0.01182757 -0.0037450329
-0.0049999999 -0.01170734 -0.009183405
-0.0049583977 -0.015532885 0.0035480028
0.0049999999 0.011175345 -0.0090466179
-0.0049999999 -0.0098556736 0.00038652544
0.0040819086 -0.013999485 0.0076545575
-0.0022956892 0.01332092 -0.0066403048
0.0021816595 -0.012661696 -0.0075679058
-0.0049999999 0.012083903 -0.0036856381
-0.0049999999 -0.0041113938 -0.0074206097
0.0050000004 -0.0018344766 0.015606987
-0.0006328352 0.0038362974 0.0010509585
-0.0049999994 -0.004289486 -0.0078813992
0.0049999999 -0.012647511 0.004882568
-0.0049999999 -0.0072255903 0.0072291577
-0.0018645107 0.0076636956 0.011901727
0.0044436315 -0.015240369 -0.0046587866
-0.0049999999 -0.0067590582 -0.0023632564
0.0010743365 0.00033722143 -0.013280568
-0.0049999999 -0.0053575491 -0.014676938
0.0049999999 -0.015614289 -0.0012516216
-0.0033702594 0.013319458 0.0086997561
-0.0011982296 -0.00023747676 0.0036521517
-0.0020638984 -0.0072655194 0.012631125
0.0042219963 0.00918072 0.0129504
0.0049999999 -0.010393257 -0.0047319271
-0.0043884451 0.015623065 0.0028630402
-0.00044609848 -0.0089303153 -0.0094669135
-0.0049999999 -0.0071026529 0.01184445
-0.0049999999 0.0040117875 -0.011653863
-0.00017110936 -0.0041458025 0.012257605
-0.0012226116 -0.011244013 0.007233263
0.0049999999 0.00022729255 -0.0058909841
0.0029043094 0.0072454764 0.014168933
0.0012080582 0.0074289804 0.01107988
-0.0046925782 4.6944817e-05 0.0029938226
0.0049999999 0.0068035079 -0.0064531942
-0.0041219327 0.0157762 -0.0016998752
-0.0049999999 0.0079302276 -0.0009291952
-0.0014873995 0.0088484921 -0.010307503
0.0041368487 0.00829315 0.013631457
0.0049999999 -0.00077911414 0.0043740137
-0.0037822763 -0.001779562 0.015765712
0.0044457628 -0.015477036 -0.0039722067
-0.0023149019 0.014083719 -0.0048849536
0.0050000004 0.004828047 0.0076426901
0.0049999999 -0.0058494359 0.0025908742
0.0020580504 0.0041389647 -0.01391532
-0.0049999999 0.0031409883 -0.0049265516
-0.0049999999 -0.0047732261 -0.014261872
-0.0013980923 -0.0022622738 -0.0019376024
0.0018659066 0.0010904588 0.0027677151
-0.0049999994 -0.0037565529 0.010902973
-0.0012680285 -0.013044274 -0.0032615042
-0.0011773753 0.0076854168 0.00034289571
-0.0016042395 -0.0027105114 -0.0012286308
-0.0049999999 -0.0026626331 0.0052963137
0.0036702144 0.0024665508 -0.015675263
-0.0049999999 0.0073384074 0.0098242536
0.003516773 0.002542112 0.0015729557
-0.0025696054 0.012887086 0.0083684875
0.0027772686 -0.014203725 0.0066699842
-0.0019587106 -0.0022988615 -0.0018899264
-0.0049999999 -0.013635222 -0.0054614479
0.0025267072 0.0029246197 0.00057271664
0.0049999999 0.0013292261 0.0068737892
-0.0049999999 0.0014714666 -0.0060348189
-0.0024877188 0.0028855756 0.014928857
-0.0028117038 0.0098694786 0.012259348
-0.0049999994 0.010687581 -0.0085031036
0.0049999999 -0.0010955253 0.0071707261
0.0044000377 0.0015773122 0.0025387688
0.0049999994 -0.010622976 0.0093494533
-0.0049999999 0.015141152 0.003950743
0.0035479881 -0.014982598 -0.0052811042
0.0049999999 -0.007719866 0.0045627397
-0.0037808041 0.015455964 -0.0041322624
-0.0049999999 -0.0077765658 -0.0098307999
-0.00042035081 -0.0025407311 0.0015747556
0.0037130893 -0.0029894358 -0.015606423
0.0031845674 -0.0029777957 0.00016870642
-0.0049999994 -0.00061746931 -0.010105063
-0.0033208269 -0.0010173785 0.0027980122
0.0049999999 0.0046224068 0.0049741231
0.0013394485 0.0010705726 -0.0027759846
0.0027469432 -0.00063011277 -0.015674803
-0.0050000004 0.0095264381 0.0089383954
0.0049999999 0.0062384359 -0.0036320318
-0.0049999999 -0.0052611036 0.011950323
-0.001779469 -0.013768384 0.0023826866
-0.0049999999 0.0074012778 -0.0037972229
-0.0022533694 0.0027894787 -0.0010379291
-0.0028816441 -0.009600943 0.012616791
0.0050000004 -0.0015892275 0.012423554
0.0026235166 -0.0095642488 -0.012086234
-0.00062324398 0.0042916243 -0.012293194
0.0014042866 -0.013270465 0.0023375717
0.0021299855 0.00018825466 0.0029752112
-0.0049999999 0.0041889823 0.0038377328
-0.0004478741 -0.0027751212 -0.0010726564
0.0034131079 -0.0052766609 -0.014984438
0.0015042983 0.0091634467 0.01009335
0.00033888913 0.01034201 0.0077668359
-0.0049999999 0.0053296862 0.010008896
-0.0049999999 -0.0023479573 -0.012751599
-0.0047416068 -0.00035226869 0.0029536358
-0.0048981723 -0.0040548532 -0.015466155
0.0041401815 -0.015057468 -0.0051003508
0.0047746208 0.010677401 0.011801952
0.0036092736 0.0090487031 -0.0130517
2.1353961e-05 -0.0018266075 0.002347454
-0.0010317896 0.002746261 0.012930813
-0.0022938482 0.0013382606 -0.014796808
-0.0049999994 -0.00096367171 -0.012189522
-0.0037737542 -0.011948084 0.010486959
0.0050000004 0.014213192 -0.0017220456
0.0049999999 -0.012098431 0.0037332978
0.0049999999 -0.0049137687 0.0044484898
-0.0012680436 -0.0013453093 -0.013296545
0.0022169719 0.014638118 -0.0015321443
0.0049999999 0.014824383 0.0034876224
-0.0024172817 0.014773903 0.0031361317
-0.0049999999 -0.012777696 0.0051584062
-0.0020477367 -0.0066882432 -0.012840203
-0.0049999994 0.0075770505 0.0019767373
0.004875313 -0.0035301631 0.015535234
0.0049999999 -0.00026368571 -0.0077122482
-0.0049999999 -0.0056098043 -0.011312695
0.0050000004 -0.0032101332 -0.0054879291
0.0049999999 0.0039951676 -0.012610802
-0.001086096 -0.013310199 0.0001806748
0.0049999999 0.0040589524 -0.010382723
-0.0025289981 0.004969513 -0.014446625
0.0037465121 -0.011827431 -0.010644196
-0.0049999999 -0.0041808416 -0.012145209
-0.0049999999 -0.0028969771 0.010266639
-0.0049999999 -0.0027082448 -0.01428178
0.0049999999 -0.0090011247 0.0092943059
0.0049999999 0.0031570231 0.011127559
-0.0025521801 -0.0090724342 0.01230921
0.0050000004 -0.0064503527 -0.0060407645
-0.0049999999 -0.0042556315 -0.0020734321
-0.0037656459 -0.00098191551 0.0028127043
0.00023782093 -0.0019687107 0.011330918
0.0049999999 -0.0062851431 0.0074431491
0.0049999994 -0.012180654 -0.0027788603
0.0049999999 -0.010044946 0.0052953353
0.0049999999 0.010146023 9.2260852e-05
-0.0049999999 0.0096101677 -0.0061232448
0.0050000004 -0.0030812353 -0.0013322817
-0.0020414426 0.011110626 -0.0091937538
0.0049999999 0.0082164938 -0.0077250702
0.0049999999 0.0089801224 0.0058947881
0.0030224582 -0.013783283 0.0080952886
0.0049999994 -0.0043068277 -0.0038267758
0.002816576 -0.00091443595 0.015757985
-0.0016492938 0.013531953 -0.0011078896
0.0021765744 -0.0091360593 -0.011447393
0.0049999999 -0.0059683402 0.00057673495
-0.0049999999 -0.011257309 0.0080783442
-0.0050000004 -0.0052017234 -0.0043414007
-0.0022327292 0.0037376711 0.014375057
-0.0032140724 -0.0026582542 0.0013547828
0.0049999999 0.0018337973 -0.013604498
0.0050000004 0.0010226703 -0.0083222138
-0.0023652255 0.0029401293 -0.000454789
-0.0049999999 -0.013417738 0.0053976104
-0.0019202457 -0.0055869524 -0.013059409
0.0045634052 0.0013381104 0.002665156
0.0047284761 0.011744171 0.0107527
0.0049999999 0.0029168837 -0.0033372317
-0.0017867968 -0.013744232 0.0026625737
-0.0021417027 -0.0054820883 0.013514456
-0.0017845083 0.0043287193 -0.013328297
-0.0049999999 -0.013295001 0.0070830681
0.0049999999 0.01429194 -0.00056413235
0.0019781995 0.014074199 0.00016569614
0.0049999999 0.012085572 -0.0042315261
0.0023362432 -0.0029807435 0.0001463095
-0.0042999848 -0.00023626044 0.0029689043
0.0049999999 0.0059160455 -0.0012677244
-0.0049999999 -0.014730292 0.0018904557
0.0049999999 -0.010672189 0.0080067804
0.0020632916 0.014104008 -0.0035674346
-0.0049999999 0.014827472 0.0049212221
-0.0025218872 0.0095772864 -0.011856255
0.0049999999 -0.013443795 0.0082376478
-0.0049999999 -0.012720478 0.0055023502
-0.0049999999 0.0059488122 -0.0099731581
-0.00022121936 0.0089294184 -0.0094305957
0.0050000004 -0.015219471 0.0019710131
-0.0034925588 -0.0069346861 0.014297666
-0.0036106575 0.015286266 0.0045479801
-0.00028381179 -0.0011921285 0.004910293
0.0049999999 0.010139338 -0.010505976
-0.0049999999 0.0079988688 -0.004610043
-0.0049999999 -0.010156087 0.01060722
-0.00097773282 0.011619056 -0.0017413222
0.0022641185 -0.0032857419 -0.014488918
0.0049999999 0.001361517 0.0078350278
0.002379457 -0.0017852295 -0.0023792083
0.00027629279 0.0046702414 -0.012055287
0.0049999999 -0.0097873388 0.0093429303
0.0021612279 -0.0029627956 0.014353205
-0.00040528178 0.008063742 -0.0011515456
-0.0049999999 -0.00090316602 0.0028718591
0.0048956252 0.0026503769 -0.0013737992
0.0014055672 -0.0033613194 0.013136676
-0.0017112117 -0.012762473 -0.0053890543
-0.0049999999 -0.0075812601 0.0037825448
-0.0049999999 -0.014186827 -0.0068200454
-0.0022476311 0.010665088 0.010356
0.0049999999 -0.0054098396 -0.0064353379
-0.0049999999 -0.0085840952 -0.01230744
0.0012263135 0.0011911372 0.0090000005
-0.0028840557 0.01246322 -0.009807881
-0.0049999999 0.0001376812 0.0080950446
-0.0049999999 0.0028172231 -0.0050010006
0.0049999999 0.0074349605 0.0023150092
-0.0049999999 0.0053408225 0.01009097
-0.0016733299 -0.012856372 -0.0050344886
-0.0050000004 0.013232448 0.0021796955
-0.0032689972 0.0026732187 0.015648054
-0.0047823587 0.0059092403 -0.014722416
-0.00077557296 0.0075383675 0.010680285
-0.0050000004 0.0026607094 0.010970627
0.0049999999 0.0075320653 -0.00055385608
0.0012326138 0.012699145 -0.0041783196
0.0049999999 -0.006648595 -0.0069213384
-0.0018844372 -0.011583557 -0.0081345448
0.0050000004 -0.012730944 0.00040758518
0.0039134007 -4.40248e-06 -0.015999421
0.0049999999 -0.0044439789 0.011851032
-0.0025651518 -0.0078149941 -0.013302158
-0.0049999999 -0.012121966 0.00014253859
0.0050000004 -0.0098128691 -0.010187951
0.0019960317 0.0098551083 0.010504849
-0.0044648089 -0.0099193016 0.012383664
0.0049999994 -0.01117147 -0.01100149
-0.0018400411 0.01405526 0.0010000631
-0.0049999999 0.010513402 -0.00064663816
0.0049999999 -0.0047394643 -0.013479212
-0.001504407 -0.0016005443 -0.013492632
-0.0049999999 -0.0091964127 0.012936169
0.001852166 0.0092784148 -0.00071011024
0.0049999999 -0.0039311694 -0.001747083
-0.0049999999 0.0088132657 -0.0018452472
0.0049999999 0.0069503402 0.011095017
-0.0049999999 0.0049895342 0.0070624277
-0.0019439359 0.003774863 -0.013854035
0.0025469572 -0.0036128357 -0.014935735
-0.00072124228 -0.012291265 0.0044013979
0.004074343 0.0011440618 0.0027455331
-0.0049999999 0.0034364897 0.006136016
-0.0049999999 0.0024247169 0.0076152603
-0.0049999999 -0.0096603418 -0.008706674
0.0049999999 -0.011770528 -0.0034257427
-0.0049999999 0.00410912 -0.010991637
0.00071277207 0.0033523703 0.00098960882
-0.0032900958 0.00059375598 -0.0029218523
-0.0049999999 0.01402232 0.0049846699
0.0049999999 0.0027194291 -0.0086408239
-0.0019483669 -0.013169328 -0.005447777
0.0049999999 0.015533011 0.0018780795
0.0049999999 0.001298524 0.0093202917
0.0049999999 0.0069005131 -0.0052363533
0.0049999999 0.011715621 -0.0087609943
0.0047038156 -0.0046396712 0.015248287
0.0044224416 0.015823303 -0.0013421179
0.003829018 -0.015800178 0.0015177645
0.0049999999 0.0074267597 0.0013290946
0.0049999999 0.0059011518 0.0082168318
0.0033860954 0.010708683 0.011777947
-0.0049999999 0.0032647224 -0.0076609883
-0.0049999999 -0.0044520809 -0.010026377
0.0049999999 0.012013922 -0.0040256251
0.0049999999 0.015569602 0.0019647942
0.0049999999 -0.014731864 0.0042558196
-0.0049999999 -0.0099082133 0.00047857652
0.0049999999 0.011675194 0.0085511021
0.0049999994 -0.005281785 -0.0099352831
0.0049999999 0.0064542568 0.0026555646
-0.0049999999 0.011409933 -0.010686301
-0.0049999999 0.015290494 0.0021935918
0.0049999999 0.0052767484 0.00563514
0.0024877954 0.0079357028 -0.013042099
-0.0049999999 0.0022094271 0.010107546
-0.0049999999 0.006060794 0.012653919
-0.0049999999 -0.0010836661 0.013997429
-0.00047329286 0.012160334 0.0044838535
0.0049999999 -0.0018009661 -0.0051654852
0.00048122797 -0.006337482 -0.011393602
-0.0050000004 0.010768093 0.0024357305
-0.0049999999 0.0003843384 0.012538707
-0.0049999999 0.0023402662 0.0036865082
0.0026458211 0.0011744738 0.0027329207
0.0044639162 0.01505436 -0.0051078526
0.0015345456 0.00076343946 0.0090000005
-0.0049999999 -0.006952656 0.0015295346
0.0044788043 -0.015826412 -0.0013185136
-0.0049999999 -0.0065103848 0.011967734
0.0049999999 0.004150623 -0.0061517134
0.0049999999 0.013667058 0.005324177
-0.0049999999 -0.0067817811 -0.00011434728
0.0049999999 -0.0059481957 0.00048235172
-0.001173198 0.00049361284 -0.01333585
-0.0049999999 -0.010657367 -0.00094341557
-0.0037458073 0.0046517258 -0.015243294
-0.0049999999 -0.012344466 -0.008042695
0.0049999999 -0.0085368324 0.010899525
-0.001224133 0.0064741266 4.0759347e-05
0.0049999999 0.00035419085 0.012740545
-0.0049999999 0.0058108172 0.0099826893
0.0018950178 0.012673068 -0.0064064479
-0.0049999999 0.0044256519 -0.0071700551
0.00091871165 0.013000837 -0.0017730901
0.0049999999 0.014142575 0.0061619882
-0.0049999994 -0.011006452 0.0030282172
-0.0033516118 -0.0018357686 0.0023404236
0.0034145848 -0.014384232 0.0067256954
0.00090627023 0.00082437828 -0.01312057
0.0038043223 0.0091381511 0.012983063
-0.0041389638 -0.0038943398 0.015487287
-0.0049999999 -0.01306828 0.0019527192
0.0049999999 0.0081085423 0.0089706648
0.0020810929 0.011469671 -0.0088376896
-0.0027710111 -0.015327089 -0.0035878338
-0.0019306181 -0.013604171 0.0043183323
0.0049999999 0.0057764999 -0.0037747526
-0.0049999999 -0.005472566 -0.0092202136
0.0037928782 0.0057939896 0.014770156
0.0017913156 -0.013114286 -0.0048759328
-0.0049999999 -0.0076261833 -0.0060647489
-0.0049999999 -0.0017337041 0.0031409981
0.00045077316 -0.011641597 0.0057284031
0.0049999999 0.015480282 0.0037773415
-0.0049999999 0.0095286909 -0.0045892498
-0.0050000004 0.0095347166 -0.0089185396
0.0049999999 -0.0096407775 0.012500404
-0.0035683084 -0.00011802893 0.0029844586
0.0022066929 0.0078779664 0.01247796
0.0022231187 0.0083143553 0.012178659
0.0042753741 0.0074283383 -0.01409319
0.0039514019 0.010992258 0.011560353
-0.002364119 0.0017811519 0.0023823376
