# .PCD v0.7 - Point Cloud Data file format
VERSION 0.7
FIELDS x y z
SIZE 4 4 4
TYPE F F F
COUNT 1 1 1
WIDTH 1000
HEIGHT 1
VIEWPOINT 0 0 0 1 0 0 0
POINTS 1000
DATA ascii
0.034239557 0.0010264696 -0.051651087
0.015729073 0.00087769993 -0.063507557
-0.030621774 0.0014804031 0.054258008
-0.0607161 -0.0016675397 -0.022244388
-0.044009451 -0.0019540738 0.045683242
0.052826297 -0.00043249808 -0.031922948
0.039699476 -0.00058917084 0.047298186
0.0020224717 -0.00022528914 0.061633844
0.037727054 0.001436158 0.052931827
0.049294274 0.00061653537 0.037254591
-0.061939936 0.0010691915 -0.0027836033
-0.018271742 -0.0019378432 0.061286487
-0.064584821 0.0015264895 0.0064209057
0.0095590465 0.00021624551 -0.060937997
-0.048862226 0.00057760568 0.037793614
-0.038212832 -0.0018773597 0.051679183
0.059375677 -0.00038442362 0.02784094
0.052047629 -0.00033155133 0.033150375
0.051329631 -0.0010503388 -0.040335502
0.062094726 0.0015650656 0.0064761508
0.0051101819 -0.00085963309 0.065248944
0.036518555 0.0012498472 -0.050230108
-0.046522681 -0.0018705351 0.044361774
-0.0309915 -0.0014127162 -0.053955041
-0.058624681 0.0013348347 0.028368471
-0.0083428668 -0.0010870993 -0.06473884
-0.042772371 0.0015793716 -0.048665311
0.030545386 0.001570624 0.054490067
0.029381867 0.0010605259 -0.054564144
0.048603479 -0.0010179635 -0.038406219
0.063016415 -0.0011055778 -0.016944265
0.04020315 -0.0019372309 -0.048922528
-0.049637903 -0.0016705723 0.038167931
0.054236759 0.00052529387 -0.036758121
0.058139108 0.00067686138 -0.020940155
0.046057064 -0.0018940166 -0.043163698
-0.048250645 0.00040091996 -0.044395298
-0.023094082 -0.0019775555 0.059409257
0.023123685 0.0010919678 0.057531692
-0.056744624 0.00031144154 0.032905143
0.050423577 -0.00064983289 0.041793149
0.0055200481 0.00079344871 -0.061569929
-0.027808454 0.0016033783 -0.058481116
-0.042167485 0.0016218728 0.046158504
-0.056795307 0.0014331649 -0.031615656
-0.0045631095 -0.0012483482 -0.064984277
0.033116352 0.00073781959 0.052173134
0.059113152 0.00069428975 -0.017949231
0.026566543 0.001114748 0.05605733
-0.0029911171 -0.00090988138 -0.065343894
-0.042725962 0.0019792041 -0.047296431
0.045322563 0.00079256727 0.047228873
0.057818718 -0.0004318213 0.030868188
0.024934439 0.0019306779 -0.058909371
0.058224458 -0.00030041271 0.02036435
0.018583709 -0.0018014023 0.061750323
0.064262986 0.0018707772 -0.00091001554
0.055684362 -0.0019904226 0.030955026
-0.052096233 0.0016716954 -0.034704916
-0.04914996 0.0018581176 0.039279852
-0.040022489 0.0019584075 0.049725402
-0.061462481 -0.001876894 0.018752383
-0.063910685 -0.00087154837 -0.013891765
0.064073987 -0.0019010168 -0.002999203
-0.0017902612 -0.00059972046 -0.061731745
0.0009254216 -0.00069030258 -0.061782815
0.041732222 0.00085707265 -0.045660991
-0.0026626301 -0.00083020644 -0.06541121
-0.031255551 -0.0018567153 -0.054622654
0.027858233 0.0014523136 -0.055703208
-0.038084984 0.0019534514 -0.050669208
0.0077075679 -0.0019735992 0.063021258
-0.03282667 -0.00112044 0.056367807
-0.041757721 -0.0019542743 -0.048310477
-0.062712409 -0.001831693 -0.0037973125
-0.059449323 -7.2652932e-05 -0.016347004
-0.064159788 0.0012519214 0.011493351
-0.062616125 -0.0011136899 0.01831186
-0.057653133 0.0013917522 0.02342823
-0.053080957 -0.0012915612 -0.037762836
-0.028457811 -0.00052444747 -0.059017703
-0.019208053 0.00063814782 0.062620997
-0.044046894 -0.0019875718 -0.046017308
-0.024712438 0.0010933181 -0.060409211
-0.036690056 0.0019361974 0.051601503
-0.044239286 0.0014895784 -0.043891333
-0.0029727085 0.0019108427 -0.064020991
-0.027639907 0.001754001 -0.058317021
-0.062002268 -0.001956041 -0.015281343
0.044553619 5.8721856e-05 -0.048186947
0.050072435 0.001894167 0.04008301
-0.052024435 0.00090595684 -0.03348247
0.0091985818 0.0011020423 -0.064593747
0.027436467 0.0014017316 0.059021238
0.028709643 -8.1939608e-05 -0.054546442
-0.057346959 0.0019837527 0.027818024
0.0025649124 0.00063229614 -0.065451711
-0.028158406 0.00036276435 -0.059197348
0.060378686 0.0018192569 -0.022572096
0.016525323 -8.6054053e-05 0.063490599
-0.021266654 -0.0019921092 0.059950445
0.042901359 0.0016793278 -0.045604408
0.031963587 -0.001047616 0.053084169
-0.063002862 0.0019141658 0.0048278198
-0.06548088 -0.00071179669 -0.00022354294
-0.02887078 0.0014521113 -0.058230173
-0.049740054 0.00032477308 -0.036503226
-0.0091782687 -0.00081657089 -0.061123744
-0.062873244 -0.0018457838 -0.00099670433
-0.041882019 0.0011232287 0.050055843
0.052285392 0.0019449216 -0.036741875
0.024662191 0.0017516244 -0.057668056
-0.05075632 0.00061382185 0.041412089
-0.0022971523 0.00029408387 0.06553378
0.048254244 -0.0012742851 0.039110109
-0.014331733 0.00074717274 0.060091328
-0.056889243 0.00042661553 0.032610517
-0.0044268956 0.00030100043 0.061538797
-0.063150153 -0.001902236 0.001894527
-0.043768357 0.00022117159 -0.043446567
-0.057880867 -0.00040973982 -0.021389309
-0.05074751 0.00037380078 0.041495975
-0.011351902 0.0017447555 -0.063552424
-0.031216834 0.0013663037 0.057111893
-0.053264536 -4.356408e-05 0.031062609
0.0084685097 0.0019257871 -0.063417003
0.040919643 0.00078311824 -0.051113781
-0.061466955 0.001395807 0.021323025
0.014576167 0.0018977807 0.061422702
0.052063197 -0.0017179198 0.038238127
-0.017997986 0.0019026099 0.060521513
0.041514967 0.0014203532 0.046358157
-0.060257442 0.0019091913 0.019005582
-0.058806308 -0.0014892734 0.020659475
-0.054974575 -0.0019559211 -0.03161104
-0.045409631 -0.00035357202 0.047315154
-0.062082034 -0.0015805962 0.0069885119
-0.06153699 0.0015184148 -0.010125505
0.0088135814 0.0014658161 0.061670326
0.052520793 0.0017824771 0.034420706
-0.063702218 0.0019149188 0.0067881681
-0.016869083 0.0019112546 0.060906194
-0.033147272 -0.00044998172 0.052083977
0.063054733 -0.0011755496 0.01656061
-0.045130771 0.0012479002 -0.042695794
0.010246253 0.0011435066 0.061191417
0.047152564 0.00090281066 0.040072329
-0.013690513 0.00033849894 -0.064119004
-0.024331933 0.0011804588 0.060481779
-0.048188955 -0.0019832319 0.041685358
-0.058119077 -0.0018454216 -0.024033967
-0.046862684 0.0010186525 0.04547748
-0.0068664458 -0.00091261929 0.065011874
0.054621838 0.0019466496 -0.033160105
-0.017817223 -0.00034812267 -0.063097849
0.061607879 -0.00055208238 0.0042144987
-0.050127696 0.001023914 -0.04186767
-0.050777033 0.00031400542 0.035060748
0.020281415 -0.0019813089 -0.060420278
0.062746957 0.0018788301 0.013768548
0.025537735 0.0016182357 0.057072304
-0.055498667 -0.0014148663 -0.028195353
-0.024423508 -0.00052424637 0.060789347
0.04175888 -0.0017899964 -0.049122531
-0.030102015 -0.0019898806 -0.056001231
-0.021858601 0.0019739787 0.059640929
0.038140323 0.0011349923 0.052919697
-0.028808316 -3.8732192e-05 -0.05896455
-0.051360711 0.00063544535 0.040683676
-0.059689187 0.00091544702 -0.016363751
0.0093824919 0.0016267636 0.061850138
0.059277479 0.00053174054 -0.02791913
0.056557313 0.00021446607 -0.024640545
-0.051604416 0.0018796283 -0.036222637
0.059232578 -0.0019260417 -0.024239969
-0.053062268 -0.0018814178 -0.036213055
0.0066744317 0.00090710912 -0.065055676
-0.050587725 0.0018030256 -0.03721036
0.015104264 0.0015077137 -0.060515922
-0.030740758 -0.00028210317 -0.057922207
-0.055685859 0.00032724428 -0.034624375
0.038223807 -0.0014120698 0.052628085
-0.019194849 -0.0016625688 -0.059570506
-0.063057765 0.0019501643 -0.0064092427
-0.061983783 -0.0014965958 -0.0069094715
-0.050302438 -0.00091740233 0.041752245
0.040403508 0.001976423 0.048996188
-0.056088027 -0.0013674734 0.033018999
-0.05818069 0.0017949215 -0.027784551
-0.059026074 0.0018979053 0.022331245
0.059574485 -0.00057366613 0.027294014
-0.054593835 0.00035679876 -0.036289912
-0.047764521 0.00053629006 -0.044893745
-0.063177176 -0.0016130146 0.014165834
0.060361877 0.0018553591 -0.017729556
0.0095553426 -0.0016069725 -0.064046778
0.012503132 -0.00049637543 0.060444541
-0.060020015 -0.00068787875 0.014677773
0.025406372 -0.0019235386 0.057929948
0.0075650495 -0.00081975869 -0.065003082
0.0028336986 0.0018542529 -0.062815897
-0.050611269 0.0019383475 0.038049858
-0.044316042 -0.0019351002 -0.046126045
-0.039084729 0.0012334771 0.052155346
0.017489374 0.0018999178 0.060654577
0.048065878 0.0010372146 0.039093379
-0.036457222 -0.0012519833 -0.050282188
-0.054167513 0.00084386044 -0.036695208
-0.061200555 0.00037249998 -0.023470731
-0.03639856 -0.00081757549 0.050005332
-0.049010739 -0.0017845212 -0.039236367
0.05948627 0.00031460269 -0.02758766
-0.06345886 -0.0019824631 0.0031920751
0.063617446 0.0010100318 -0.014793385
0.045814607 -0.0011066409 -0.041780747
-0.0014944149 -0.00014239845 -0.061645616
0.06208089 -0.0017034279 -0.017995134
-0.045362156 -0.0017433167 -0.043307319
0.024457643 -0.0019240668 0.058334783
0.018209016 -0.00067858706 0.062914208
0.043984104 -0.0016602627 0.047408771
0.06393937 -0.0018311418 0.0077563291
-0.064571455 -0.00015351329 0.011685578
0.052783921 0.0019649589 0.035840172
-0.050273467 0.0012099427 0.041480813
-0.015582806 0.00034087081 0.063673921
-0.057540651 -0.0019977477 -0.02717099
-0.057854582 -0.0017951537 0.024387222
-0.036437556 7.9868124e-07 0.049738061
-0.060766514 -0.00033899755 -0.010739042
-0.016836982 -0.0019150081 -0.061834268
-0.037332084 -2.2167897e-05 -0.049036402
0.0065878346 -0.0015863557 -0.064469554
-0.026683263 0.00081996387 -0.055755381
-0.00099128322 0.00033409288 -0.065556586
0.026230562 0.0018446387 0.05880538
0.052501179 0.0015738026 0.037988458
0.04536783 0.0005804387 0.047266487
0.050570957 -2.1786569e-05 -0.041855846
0.056262363 -0.0018664965 -0.028300703
-0.054081973 -0.00046453546 -0.037029102
-0.061879147 -0.0017663212 0.010440642
-0.062138293 0.0018866988 -0.010733274
0.010904152 0.00038868398 0.064645655
-0.062364034 0.0018574597 -0.01581209
-0.036169007 0.0018763868 0.053072106
-0.050105985 0.0011871086 0.036616642
-0.038042888 -0.0019458584 -0.050667834
-0.018349374 0.00069095206 -0.058978822
0.0034664441 0.00051469979 -0.061626948
0.062507316 -0.0017432554 0.0051947352
-0.049660452 -0.001929844 -0.039247204
-0.06379617 0.0018753152 -0.0076801823
-0.0025900842 0.001979328 0.063478902
0.050631072 -0.0011625445 -0.041106582
0.027483817 0.0013868292 -0.058977477
-0.034489904 -0.0011425731 0.051554609
0.064934358 5.3879387e-05 0.0096350079
-0.017031301 0.0012981656 0.062869675
-0.065174185 -0.00099083153 -0.0043331138
0.023561995 0.0012040626 0.060805574
0.061228339 0.0019894363 0.017111901
-0.015332497 -0.0018497439 -0.06100744
0.059523042 5.4110915e-05 -0.016042892
-0.063116476 -0.0019789739 0.0072573326
0.061972313 0.0010698279 0.0011475488
-0.0026877127 -0.0013688856 -0.065042309
0.011094125 7.4662101e-05 -0.064698614
-0.010472815 -0.0015736099 0.061562695
0.052495789 -0.0018767971 0.034911163
0.03023666 -0.0017227504 0.054928079
0.050029788 -0.0013940701 0.036974806
-0.034585912 -0.0019435954 0.053763933
-0.05621285 0.0012605365 0.026447538
-0.049781129 -0.0018427296 -0.038384687
-0.044855069 0.00059598137 0.042438429
0.047593646 -4.8539478e-05 0.045166846
0.015792359 0.0018786095 0.060996313
-0.021352783 0.0015356189 0.058655072
0.045143139 0.0019709524 0.044659439
-0.050794024 -0.0010524269 0.035511818
0.03341043 -0.0017495522 0.055212833
0.0616416 -7.6944358e-05 0.00092077802
-0.063899674 -0.0012833228 0.012592361
0.014804992 0.0019720474 -0.062044911
0.04634849 -0.0007792348 -0.046242893
-0.063035861 0.0019061728 -0.011707558
0.048512004 0.0011905992 0.038710408
-0.042586371 0.0019329741 -0.046831954
-0.054384619 -0.0010930572 0.03610478
0.057466295 0.0010594554 -0.031011529
-0.046460021 -0.0015898651 0.045139499
0.022941386 0.0019075929 -0.058856882
0.059893236 -0.00093805237 -0.026232751
-0.013369704 0.00016008106 -0.060192447
-0.044204276 -0.00031025388 -0.043033514
-0.029478474 0.0019807313 -0.056290396
-0.050452463 -0.0019920301 -0.038832419
0.018902918 -0.0017861988 0.059866283
-0.0047157402 -0.0015253917 -0.062196337
-0.025341699 0.0017139378 0.057340678
0.053351261 0.0012022677 0.037445389
0.019229239 0.0019203487 0.060238697
0.060727827 -0.0019645416 -0.019572217
0.010924676 -0.0017932854 -0.063569725
-0.018862626 -0.0011193667 0.06245584
0.043236535 0.0012201064 -0.044550493
-0.047346871 0.0012339244 -0.044806056
0.0098464955 0.0019852156 -0.062795348
-0.049818799 0.0016964898 -0.04118735
-0.01741411 -0.0017342162 0.062199526
0.028245237 -0.0018626481 0.056264348
-0.059246607 -0.0016696034 0.020218654
0.051250383 0.0019304469 0.038315784
-0.050924625 0.00096407632 -0.040982939
-0.00036513514 0.0015841429 -0.062468279
-0.050214604 0.00023658239 0.042174343
0.060943726 0.0010204911 0.02353918
0.047388345 -0.0019710772 -0.042242795
-0.064136118 9.17738e-05 0.013801892
0.0028039862 0.001887235 0.0629825
0.045635164 -0.0011622648 0.04660295
-0.064505436 -0.0016919711 0.003808738
0.042864032 0.0019196005 0.046462581
0.064317681 -0.0018590749 0.0016091097
0.022759816 0.0019686576 -0.059584849
0.026888153 0.00062849355 0.055606503
0.010620669 0.0015473296 -0.063992031
0.018099694 -0.0011004623 0.059337296
-0.028861541 -0.0016989884 -0.055611283
0.050069582 -0.0019746826 -0.039055239
0.02272635 -0.0017915536 0.060360726
-0.030804994 0.001649328 -0.056883946
-0.061806291 -0.001908139 -0.013100626
-0.013523543 0.0019478797 -0.062434647
0.061632536 -0.00039199251 0.0027599735
-0.023139592 0.0017848266 -0.058349647
-0.035498556 -0.00065959507 -0.055030711
-0.062232587 0.0015750309 -0.0051047308
0.058729745 -0.0015090039 0.020962328
0.047036629 -0.0010969647 -0.04527751
-0.016358852 -0.0016718142 0.062554888
-0.060957771 -0.0002908298 0.024214443
0.012595249 0.0014383699 -0.063762948
-0.058143254 0.000880551 0.029935732
0.064316913 -0.0012444034 -0.010378242
0.035050854 -0.0012486656 0.054941811
-0.052298013 -0.0011982818 0.03890983
-0.0027573241 -0.0018597858 -0.064315133
0.053663462 0.0019988699 0.034204345
0.049086511 0.0019916468 -0.040582422
-0.056407664 -0.0019860058 0.029584996
0.01172292 -0.0018269074 -0.063352644
-0.063947961 -0.00055661076 0.014224646
-0.050537065 -0.0010878152 -0.035945475
0.023016812 0.00045583129 0.061384313
0.057927229 -0.0014361145 0.029505944
-0.04974797 -0.0010717866 0.042249903
0.053877197 0.00056028913 -0.030159913
0.046054237 0.001908936 -0.044585075
0.056230817 0.0012709039 -0.02640669
0.063249707 -0.0018500875 -0.012036401
0.024864195 0.0019500642 0.058287624
-0.0045003253 -0.0018715248 0.064134233
-0.010308935 -0.001923339 -0.063174725
-0.016380807 -0.0018896098 0.062068794
0.063198879 -0.0015170348 -0.014738427
-0.057035841 -6.9726149e-05 0.023436053
-0.041155718 -0.0019858202 0.04865735
-0.0040435274 -0.00019699863 0.061552048
0.02421019 -0.00064599747 0.05680763
0.061906032 0.00095278618 0.000788634
0.065625884 0.00012580417 0.00029602071
-0.041624665 0.0018957093 -0.048789371
-0.028418325 -5.3014759e-05 -0.059142862
-0.059289727 0.0012193322 -0.01840548
0.011373764 0.0018626264 0.063278154
0.038918342 -0.00025769128 -0.047856443
0.040385306 -0.0011922637 -0.051207792
0.063764259 -0.00045949145 -0.015117731
0.0032056605 0.0016412159 0.064616129
-0.043776672 0.0019100349 -0.045550708
-0.064943433 0.0011525617 -0.0059272591
-0.021226902 0.0019870535 -0.059930019
-0.049076494 0.0006298559 -0.043379318
0.048982449 0.0012158982 -0.038137935
-0.010383542 -0.0011021279 -0.061125599
0.02871736 0.0017708668 0.055788334
-0.040906008 0.0018075285 -0.047652185
0.064144723 -0.00049549731 0.013410682
0.015130057 0.0016719272 0.062879831
0.040868755 -0.00076694455 0.046360165
-0.001709183 -0.0019433518 -0.063902564
0.0026150155 0.001512591 0.064829089
0.049082201 0.0018635807 -0.039392579
-0.05805029 -0.00011045959 0.030553276
0.052449863 -0.00025173428 0.039407067
0.047512945 -0.0018812014 -0.04321935
0.012426636 -0.0012768977 0.063925542
-0.061098408 0.0019183222 0.016237054
0.044235557 0.001705467 -0.047095109
-0.036717996 -0.00092237222 -0.054099612
0.018622972 0.0011582092 -0.062498316
-0.028084654 0.00015935789 0.054905232
0.040466391 0.001907144 -0.049690306
0.053076945 0.0019531213 0.034711257
-0.055895083 -0.0012949032 -0.033463605
-0.065537639 0.00031063132 -0.002719275
0.013252038 0.0017402435 -0.061282471
0.0084680077 0.0014242122 0.06165031
0.026371261 0.0018978773 -0.057331912
0.018259522 -0.0019471224 -0.061232373
0.0088536488 0.0013757354 -0.064457826
-0.015638672 0.0019186588 0.062078923
0.061232019 0.0017097171 0.013380024
-0.046160091 0.001656665 -0.042270489
0.057573821 8.8442488e-05 -0.022051299
-0.0098907324 0.0017003007 -0.061847627
0.034022767 0.0012361016 0.051976025
0.039899904 -0.0014950824 -0.047892548
0.047032323 -0.00049161346 -0.045663141
-0.046101328 0.00082189578 0.041219916
-0.057364769 -0.0012983022 -0.02392851
0.046283152 -0.00078771677 0.046346508
-0.025143679 -0.0019929472 0.058499314
0.064303033 0.0006085441 0.012472811
-0.014212195 -0.0012496795 -0.060449556
-0.057095181 0.0010697028 0.024141056
0.058770336 0.00034319566 0.029051732
0.041404076 0.0016472539 -0.049704939
0.0024445313 0.0018471198 0.064316384
0.053899083 0.0014204234 0.036387675
0.055011731 -0.001728685 0.033804581
0.065238386 0.00029456813 -0.0064764312
0.038433071 0.0018884613 0.050012898
-0.05175313 0.00051487226 0.033669423
0.051356625 -0.0010705891 -0.040278353
0.037526056 0.0013128746 0.053206373
-0.012057099 0.00056258962 -0.064418197
-0.049323715 9.148242e-05 0.043282636
-0.04440489 0.0014412327 0.043622017
-0.064731658 -0.0013000583 -0.0073453831
-0.056237612 -0.001553513 -0.027090566
-0.033163346 0.0014477067 0.055882577
0.047858395 -0.0019200683 0.041376285
0.051516723 0.00090530404 -0.034257777
-0.037220232 -0.00045225845 0.049237411
-0.048111435 0.0014931913 0.039619412
-0.0047609708 0.0019462928 -0.063703179
-0.058364719 0.00073977251 -0.020323263
-0.018040521 0.0014261816 -0.059550144
0.062671214 0.0018444151 0.014815263
0.062708817 -0.0019863241 -0.011130209
0.062743463 -0.0017566886 0.015102901
-0.039132591 0.00034997423 0.052617505
-0.00045467092 -0.00065773068 0.06550467
-0.0027497988 -3.55421e-05 -0.061605796
-0.060760938 0.0015860513 -0.014498932
0.053151805 -0.0015486542 0.032719739
-0.061734844 0.001680122 0.019225059
-0.063287742 0.0019387795 -0.0089789359
-0.061131224 -0.0016084393 -0.013019718
-0.054282445 -0.0007620565 -0.029497385
-0.0014110097 0.0011517173 -0.062029131
0.061328284 0.0012056135 0.0097269425
-0.055483028 -0.00076143362 -0.027185682
0.0066455426 0.0014144129 -0.064711735
-0.063843712 0.00091499835 -0.014034247
0.062612437 0.0019044916 0.0081588523
0.05946324 -0.0018092621 -0.020195711
-0.015129231 0.0015802069 -0.062999278
-0.021138417 0.00081186765 -0.061965413
-0.056011532 0.0018936542 0.029024832
-0.060770206 0.00038699846 0.024655966
0.052945741 0.0004691823 0.031721387
-0.063963093 -0.0015354656 0.010910855
-0.06462951 -0.0015140508 -0.0058195568
-0.059671976 -0.0015697444 -0.01839349
0.061817165 0.0016642872 -0.0097807236
-0.06188431 0.0019879818 -0.014508729
0.015027978 -0.0011226989 -0.060193282
-0.058324002 -0.001580529 0.022376819
-0.063244089 -0.0018519963 -0.01217934
0.060572315 0.00026999111 0.011627923
0.06092431 0.0002204401 -0.0095855398
-0.010037654 -0.0018520252 -0.063584395
-0.063769408 0.0018505007 -0.0086652562
0.04692312 0.00079559989 0.045643557
0.058949605 -0.0018613877 0.022156715
-0.048064571 0.00095013744 0.03901197
-0.048710477 0.00032131388 -0.037864458
0.01380937 -0.0019928303 0.062166657
0.0034321744 0.0019305063 -0.063863426
0.026248341 0.00021672137 -0.060096726
0.037273064 0.0010610942 0.049558274
0.0048506162 -0.0018745332 -0.062833063
0.0067461655 -0.0017332316 0.062315527
-0.033215404 0.00063391507 0.056448899
-0.044490997 -0.0019785664 -0.045337632
0.053375691 3.4222914e-05 0.038167082
-0.011211384 0.0011680037 -0.061042808
0.017396908 0.0019969794 0.061221827
-0.0065329326 0.00011676452 0.061300274
-0.025492162 0.0018901178 0.057717327
0.016355917 -0.00062840135 -0.059541758
0.017086163 -0.0011865902 -0.05965535
0.011473229 0.0019587975 -0.062798992
-0.012642404 0.0019813927 0.062289711
0.02558675 0.0018813368 -0.057588898
-0.045576502 0.0018721694 0.043456309
-0.06185396 -0.00086714968 0.00037023862
0.061126966 -0.0014777591 -0.012150134
0.0097178426 0.0018005284 0.06376414
0.030691145 -0.001920317 -0.055297595
0.0096355509 0.0017549573 -0.061988775
0.061246943 -0.001462304 0.021684915
-0.043676469 -0.00091075141 0.043845527
-0.01487921 -3.6518915e-05 0.063906901
0.051343948 -0.0019763049 -0.037433658
-0.0022803168 0.00060661702 0.061717205
0.0027984167 0.00017300103 -0.061594643
0.065520078 0.0004860448 0.0012054482
0.0061015422 -0.00085063209 0.065144628
0.034615878 0.0014166008 0.055064134
-0.034733482 -0.0018482865 -0.052426651
0.033719067 -0.0015796657 -0.055333037
-0.062488995 0.00039783301 0.019868709
0.0044185841 0.001474304 -0.064789854
0.057566207 9.201996e-05 0.031517852
0.062404789 -0.0016318181 0.01713453
-0.0035182773 -0.0014696262 -0.062211644
0.055074628 -0.00070714031 -0.03543815
-0.00018005271 -0.0010972829 -0.06525889
-0.061949223 -0.0019414328 -0.013203015
-0.053613171 -0.00083051994 -0.030793447
-0.025430497 -0.0019939186 -0.058308396
-0.044311311 -0.0019076256 -0.046328306
0.018401127 -0.001005538 0.059168629
-0.025957381 -0.00029824063 -0.05595554
0.049024262 -0.001420663 -0.038323656
0.010203744 -0.0014237724 0.064250603
0.042710282 0.00085424294 0.049582582
-0.033643663 -0.0012743782 -0.052213121
0.061582394 -0.00032092875 -0.0040541594
0.059883095 0.0014824989 -0.017324392
-0.032474983 0.00026670811 0.052467719
0.027829077 0.0018777191 0.057892907
0.03997945 0.0012928608 -0.047560107
-0.03180784 -0.0011602016 -0.053302195
-0.061753508 -0.00068878353 0.0019869392
-0.053045738 -0.00089186907 -0.031896759
-0.017056512 -0.0016667109 -0.062398851
0.038814198 -0.001589797 -0.048986655
-0.015530611 -0.0013436851 0.060190696
0.036914434 -0.0018685038 0.052639153
0.04931286 -0.0012082983 0.042660337
0.061596893 0.00035921414 -0.0040171342
-0.0020291978 -0.0014288962 0.062212903
-0.031035142 7.1424576e-05 -0.053273533
-0.028056808 -0.0016296958 0.058320727
0.0094807595 0.0019876175 0.063004039
0.036577903 0.0013462065 0.050282225
0.063524209 0.0016956391 -0.011846831
-0.059736855 0.0018720418 0.019989818
0.051582944 0.00031884949 0.033889811
-0.065168008 -0.00078949425 -0.0062198765
-0.036581937 -0.00074939197 0.049811546
-0.0064430218 -0.001612197 0.062169742
-0.059173662 -3.8583254e-05 0.028415319
-0.063854031 -0.0006593077 -0.014522269
-0.062842324 0.00012471355 0.018829277
-0.058268744 0.0018839249 0.024095066
-0.049649525 -0.001249972 -0.037296668
-0.046379533 0.0017722899 -0.042286184
-0.063877843 -0.0012114042 0.012932227
0.05251221 -0.00015765648 0.039351903
0.034560382 0.0014290399 -0.051775925
0.04723816 0.0019244005 -0.042044673
0.055260327 0.001972324 0.031827688
0.04460872 0.00042096307 0.042647243
-0.060321968 0.0010443762 0.014227788
-0.013445801 -0.0018565839 -0.061476499
-0.061740462 0.0013012154 -0.020786071
0.039877854 -0.0016074823 -0.051058672
0.045115326 0.0008581336 -0.042306002
0.026562901 -0.0018124437 -0.056912199
-0.0039783856 0.00064514508 -0.065382637
-0.03757507 0.00059248082 -0.053704649
0.015902137 0.001930076 -0.061972264
0.036998272 -0.00090861192 -0.053934041
0.046205197 -0.0018880888 0.042942628
0.039945975 -0.0014055966 -0.051365431
0.024005266 -0.0012355007 0.057260018
0.051053539 0.0010560689 0.040680993
0.054449886 0.00036752 0.029036427
0.028268507 -0.0012255867 0.058727484
0.05044511 6.4467327e-05 -0.035440266
-0.041282751 0.0010866403 -0.046252713
-0.043507721 0.0016225041 -0.044906594
-0.021127762 0.00028100939 0.062077105
0.019361451 0.0019250051 0.060218312
0.0091497619 0.0019727114 -0.062822998
-0.062774494 0.0011006538 0.017793683
0.04134826 0.0019062024 -0.047734208
-0.050694879 -0.0015597973 -0.040433351
0.043256693 -0.0012316935 0.044555463
-0.059382204 -0.00042808842 -0.016810477
-0.021860741 -0.00082838204 -0.057826839
-0.061323568 0.0013378932 0.021829028
0.054796062 0.00018101164 -0.036048323
0.020434026 -0.0011003962 0.058535673
0.0091041327 0.0018457659 -0.062198039
-0.038933359 -0.0017473729 0.051482871
-0.06504894 -0.0011264861 0.0048348596
0.061162569 0.00068417628 0.00876306
0.03357045 -0.0015428344 -0.052607771
0.00200409 -0.0018921217 -0.06308049
-0.064866081 -0.00050022762 -0.0092305681
0.0083562536 0.00069023488 -0.064947024
-0.027224105 0.00034354467 0.059658319
0.063316889 -0.0019711051 0.0050306907
0.06210158 -0.0019747431 -0.013404572
0.06283319 -0.0018583443 0.0036136897
-0.032525897 0.0002041367 0.052423496
0.057273127 -0.00053046021 0.023048064
-0.0053861402 0.0019926317 0.063355386
0.044908725 -0.0019030663 0.044436231
-0.064993531 -0.00013839602 -0.0088843498
0.048356008 0.00026216792 0.03829471
-0.063082919 0.0019038027 -0.0029863741
0.060096886 0.0003150281 0.014024625
0.048609752 0.00065821735 -0.0438913
0.02832742 0.0019418574 -0.056661759
-0.029147506 0.0015348125 0.05794324
0.0011882026 -0.0011736391 0.065200083
0.030348329 -0.00028884006 0.058120146
0.0039123874 0.00081906701 0.065320559
0.061602652 0.0012990192 0.0081749614
0.027327381 -0.0010220297 0.055600736
0.033337314 -0.0017625018 0.053147215
0.047702678 0.00021747667 -0.039113108
-0.05782539 -0.0019151586 -0.025557943
0.059015978 0.0010014341 -0.018783452
-0.049012315 0.00046779038 0.037548218
-0.051407464 -0.0014266686 0.035120986
0.062571645 0.0018412493 -0.015221438
0.060486563 -0.0015748701 -0.023269273
0.059014428 0.0016925053 0.026358927
0.049356036 -0.0015181078 -0.042152282
0.038795296 -0.0011408158 0.052455094
0.021987461 0.0019714085 0.059565295
0.059929315 -0.0019266446 0.022529386
-0.033302918 -0.0015936737 -0.052869156
0.063532315 -0.0018304132 0.01066457
-0.061533056 -0.00080377533 0.0061660442
0.048947398 0.0014370898 0.03845362
0.039203193 0.0004861622 0.052545194
-0.00264571 0.0013491042 -0.062149063
-0.050725892 0.00084162963 0.035359126
0.014640257 0.0010948345 0.06362734
-0.0045415661 -0.00044595785 -0.065372162
0.063589819 0.0010705339 -0.01473977
0.023615809 -0.0016675316 -0.057992198
0.049183823 0.00060626864 0.037387282
0.028784394 -0.0014659163 0.055246096
0.0031161951 0.0017157733 0.064510979
-0.061756488 -0.00062253076 0.00064604433
0.026186818 -0.00076431816 0.060003575
-0.022473395 -0.0015094675 0.060911287
0.057757538 0.00060895976 0.021935871
-0.055174943 0.0013908249 -0.028760208
0.011583067 0.00019910619 -0.064572662
0.0032690912 -0.00019609854 0.065497354
0.045290466 -0.00062051124 -0.041979756
0.047338963 0.0013487471 0.044666428
-0.040316697 0.0018876747 0.049931977
-0.063106105 0.0004235293 -0.017728643
-0.04239656 0.001794609 -0.046333242
-0.026697764 0.00093762984 -0.059660662
-0.057818674 0.0018976341 -0.027725549
-0.062095057 0.00064044836 0.020891631
-0.0635878 0.0019531134 -0.005795355
0.02462827 0.0018561627 -0.059442341
0.061692163 0.001021523 0.0057141101
0.041532546 -0.0019163891 0.048785247
-0.029550508 -0.0015078787 -0.054911178
-0.015590763 0.001959088 -0.061484221
-0.059481852 -0.0019265324 0.021552144
-0.055041954 0.0018696646 -0.033230118
-0.057792973 -0.00059287733 -0.030846225
-0.051073309 0.00075875217 -0.041009974
-0.055044945 0.00096610334 0.028341565
0.065037765 0.00086827861 -0.0068368674
0.04537541 -0.00041951888 0.041821036
0.058509767 -0.00041293411 -0.029540528
-0.05727369 0.0019041622 -0.028818274
-0.026901575 -0.00045928825 0.05978534
-0.034627452 -0.0019066369 -0.052833613
0.0059961849 -0.00052704848 -0.061467178
0.06397289 -0.001300804 -0.012129449
-0.019804817 0.0013688877 0.058948558
-0.03808672 0.0005484951 0.05333196
0.050609883 -8.2722909e-05 -0.035200879
0.020810395 0.00060230575 0.062112443
0.045310412 -0.00095079257 0.047102723
0.023060987 -0.0011977439 -0.060969371
-0.056102365 0.0019462606 -0.030562032
0.060612377 -0.00083605089 0.012201865
0.0073928111 5.1842304e-05 -0.061189502
-0.064312018 -0.0018638785 -0.0017213225
0.014665999 -0.0015643886 -0.060722247
0.058182269 -0.00023606476 0.030244688
0.04907402 -0.0019065605 -0.041288689
0.063880481 0.0015969645 0.010718248
-0.059456956 -8.8799454e-05 -0.016332669
-0.057653897 0.00021661498 -0.0218827
-0.003135463 0.00052680337 -0.061676074
0.022842053 -0.00054872723 -0.061398592
0.025971547 0.0010073775 0.05626199
-0.065152913 0.0009743105 0.0047976431
-0.019580908 -0.001885271 0.059946809
0.021369755 6.2191604e-05 0.062032223
-0.040869348 -0.0018717871 -0.047947422
-0.053689096 -4.9180453e-05 -0.030270997
0.03151945 -0.0018740618 0.05603246
-0.018764248 -0.00016251679 0.058729645
-0.056888577 -0.0019815217 -0.028763553
-0.011639362 0.0017954552 0.063417993
0.049434237 0.00076800416 0.037109714
0.012256161 0.001198702 -0.064025111
-0.027080227 -0.00067292858 0.059649631
0.063529506 0.0019065267 -0.0086565362
0.038131606 -0.0016620411 0.052245349
-0.018739073 0.0015480047 -0.062067974
0.039996494 0.0017337659 -0.048273813
-0.0020994232 -0.0015969645 -0.064752296
0.034164432 -0.0010693887 0.051738016
-0.029152317 0.00022137715 -0.054350551
-0.027427996 0.0010426836 0.059259724
0.049111187 -0.0016777223 -0.038822513
0.04396788 -0.0015438161 -0.047690902
0.062331785 0.0019741522 0.013467445
-0.059653338 0.0016626245 0.019005928
0.063718081 0.0019220385 0.0060999291
0.0027956245 -3.102015e-05 -0.061565317
0.011890298 -0.0012353776 0.064057581
0.058605444 -0.00041541856 -0.019316413
-0.02079697 -0.0019280605 -0.060556017
-0.0058173966 -0.00042615118 0.061428316
0.03156982 0.0016011946 -0.056553163
0.049724814 0.0012480317 -0.037221573
0.0011655166 0.00025350644 -0.065598831
-0.051695924 0.0019338387 -0.037653506
0.053418282 0.0015261472 0.032200631
0.014422882 -0.0019336783 -0.061655611
0.03603464 0.0017289486 -0.053619616
-0.057379201 -0.0013085097 -0.03077569
-0.059131429 -0.00083115866 -0.018033847
0.06239295 0.0019415322 0.010850511
0.043820858 0.0019083782 0.046739999
-0.039019197 0.00043081754 -0.047848985
0.042552851 -0.0019966236 -0.047323264
0.012106742 0.00030769943 -0.064442724
-0.058172047 0.0019841648 -0.025600331
0.053451471 0.001225707 -0.031591419
-0.022881737 -0.0019965009 -0.059385456
-0.046541829 0.0019214954 -0.043978237
0.051316462 -0.00040492846 -0.040771767
0.039269228 -0.00012357705 0.047528416
-0.015456471 -0.0019376752 -0.062054422
-0.06201382 0.0011419702 0.0021249615
-0.041950408 -0.00059653225 0.050341532
-0.025571933 0.001258311 0.05662889
0.042714212 0.0019428328 -0.047572359
0.062697358 0.0017595548 -0.0022313164
-0.061532751 -0.00085785135 0.0064356881
-0.061959583 -0.0015781973 -0.0079626702
0.058852788 0.00050168164 0.028821904
0.035767145 0.0017357798 -0.051507164
0.053266015 0.0016459123 0.036716279
-0.035148177 0.0014530943 -0.051414922
-0.056871876 0.0018500646 0.030114053
0.03807928 -0.0015348579 0.052517761
-0.05944581 0.00093195657 0.027172899
-0.044213738 0.0011148057 0.043482736
0.0015224183 -0.00020539516 -0.065592967
-0.052682977 0.0016837931 0.037453301
0.051283401 0.0015593099 -0.035601866
0.021408048 0.0019013563 -0.060421877
0.04079406 -0.0019000748 0.049488802
0.062914796 0.0018891776 0.01260316
0.044681482 -0.0017969863 0.04647604
-0.011917387 0.001972344 0.062645055
-0.011534801 0.0014247701 0.063984595
-0.017876402 -0.001894542 -0.061625902
-0.059593681 -0.00038395522 0.016015055
0.0090604452 0.0012256613 0.064544804
-0.030848661 0.00055290951 -0.053489707
-0.037964068 -0.0016013352 -0.049638264
-0.019731119 0.00054333109 0.062472288
-0.038763791 0.0018756808 0.051222708
-0.020826485 -0.0017600757 0.059185069
-0.064319164 -0.0010901999 0.011215026
0.014543364 -0.0003677932 0.05997568
-0.040418945 -0.00073176 0.046725962
0.061783575 -0.0012567716 -0.020647628
-0.053852197 -5.3879703e-05 0.030006811
-0.029809097 -0.0010792027 0.058074351
-0.015855897 0.00076060795 -0.059745889
-0.063724473 -0.001251939 0.013521282
-0.036663257 0.00080722966 -0.054220386
0.063820034 0.0012324466 -0.013305062
0.028999912 0.0016605429 -0.055453144
-0.044330038 0.0019620585 0.045943428
0.062964045 -1.8644118e-05 0.018565619
0.018201353 -0.001883755 0.060406078
-0.039939944 -0.0019297549 -0.049126878
-0.010224152 -0.0017501081 -0.061865691
-0.046947312 7.4916999e-05 0.045830864
-0.056740187 -0.0018659551 0.030261863
0.0605608 -1.1643018e-05 -0.011423064
0.055600781 -0.001158908 0.027524995
0.036487866 0.0013239026 -0.050315157
-0.057124645 0.0017160875 -0.030173574
-0.060019363 -0.0014997899 -0.024782263
-0.062425457 0.00053274189 0.019994466
0.0024433793 -3.5819307e-05 -0.061586276
-0.027366834 0.0015554834 -0.058763828
0.052010879 0.0019932624 -0.036608461
0.054385174 -0.00015666631 0.029064817
-0.061633725 -0.00012801339 0.0021373203
-0.061330378 -0.00024208758 -0.0067359512
-0.060794022 -0.00072012091 0.024406971
0.00047761144 -0.0015408917 -0.064869128
-0.039387599 0.00054862624 -0.047561448
-0.064119078 0.0015073954 0.010033673
0.0055715069 -0.00034837407 0.065340288
-0.013389624 0.0019996658 0.062222619
0.061597865 0.00022617294 -0.0036003937
0.058011554 -0.00074793462 0.021259367
0.057845861 -0.0016095978 -0.029098263
-0.012750559 -0.0018530291 0.063126154
0.057256572 0.0019314702 0.028502202
0.031927466 0.0019035247 0.055587452
0.05418304 0.0013323566 -0.036078874
-0.034513384 -0.00078204588 0.051252682
-0.030662538 0.0019535599 -0.056005508
-0.06271521 -0.0019491374 -0.012277187
-0.038844492 -0.0015120836 -0.048813097
-0.05160417 -0.0012722171 0.039780535
0.022937821 0.00048666791 0.061405074
0.061303034 -0.0019774509 0.017490121
0.06353759 0.0018454636 -0.010346226
0.045416817 -0.00066314748 -0.047177903
-0.019985856 -0.0019334216 0.060758755
0.024797218 0.0019585961 -0.05837068
0.049835429 -0.00035255798 -0.036417674
-0.011933559 0.0013137029 0.06401106
-0.032230891 -0.00054945867 -0.057034928
0.058545668 0.001240336 -0.020762857
0.014467816 -0.001808507 0.062839024
0.059612125 -0.0014114362 -0.017854569
-0.033021901 0.0019969076 -0.054396737
0.015127343 -0.0016300163 -0.060703352
0.0526722 0.00054077205 0.03220354
0.026333041 -0.00079220778 0.059933487
-0.05807418 0.0014536491 -0.022446325
-0.059862841 0.0019834826 0.021303929
0.044886354 0.0019366792 0.04556058
-0.048842452 0.001939741 -0.040326897
0.061783303 -0.0014291147 -0.020263651
0.06191361 -0.0016529467 0.018836576
0.019960975 -0.0017404287 0.059431884
-0.06028901 0.0006091501 0.013362627
0.060853723 -0.0012034995 0.012224924
0.017731596 -0.0019700457 -0.060950499
0.050649013 0.0016509704 0.03673806
-0.044746324 -0.0010554559 -0.042894088
0.050733596 0.0017928962 -0.03979259
-0.056706365 -0.0014500497 -0.025728941
0.062225111 -0.001936159 0.011673419
-0.062132888 0.0018203146 0.0092570288
0.060341164 0.00092807558 -0.013775946
-0.062942825 -0.0012493371 0.016833579
0.027813964 -0.0017130834 -0.058316305
-0.032958854 -0.00018704832 0.052149165
0.040425491 0.0018516753 -0.048147842
-0.0046123411 0.0017993381 0.062627934
0.036661576 -0.0002196531 -0.05441441
0.0062503018 -0.00082919683 0.061506219
-0.055963419 -0.00058794592 0.034044992
-0.05744569 -0.00093473477 -0.031182278
-0.020876221 -0.0012370911 -0.058491766
-0.054506339 -0.0018532508 0.031483538
-0.061327629 -0.00065857766 -0.007445096
0.044821259 0.00051253283 0.042447414
-0.047183666 0.0019743014 0.042537481
0.042757746 0.0011070719 -0.049289186
0.064130798 0.0015586256 0.0096892323
0.06144521 -0.00079020287 -0.0065378523
-0.0419113 -0.0019798649 0.047746133
0.051136408 0.00035380121 0.041016787
-0.0120579 0.0013095203 0.060983293
0.058494378 0.001002143 0.020344716
0.050871417 0.001773841 -0.036797699
0.046320811 -0.0012398773 -0.045837294
-0.0092616184 0.0015620837 -0.061733171
-0.056798652 0.0015718524 -0.031193048
0.056152537 -0.00045082544 0.025652554
0.056893528 -7.539925e-05 0.023715047
0.037134159 -0.0017446214 0.050541278
-0.038197644 -0.0017958208 0.049818743
0.03463129 -7.3501767e-05 0.050997261
-0.064280026 -0.0016885854 -0.0069107623
0.04405253 0.0013187532 -0.04385455
0.060575042 -0.0015206687 0.023337681
-0.052314959 0.00091223151 0.033034738
0.016953204 0.0012378281 -0.059732493
-0.064074591 -0.0016272903 0.0090827746
-0.015734849 -0.0015968116 0.062824644
-0.059142437 0.0007825545 0.017901253
-0.048961014 0.0005825627 0.043565691
-0.025611427 -0.00067802606 -0.060307976
0.0643626 -0.0018300118 -0.0028754505
-0.0013429621 0.0014349271 -0.064995453
-0.061048683 -0.00051351998 0.0091055594
-0.013228022 0.0019438603 0.062541507
-0.057732735 0.0018865998 -0.025367443
0.023332031 -0.00099908654 0.05737659
0.036412664 0.0016870261 0.050946191
-0.063861445 -4.7883532e-05 0.015135502
-0.064904742 -0.00038455403 0.0090888133
-0.016870784 2.3439969e-05 0.059310269
0.011588078 0.00144022 0.061150435
-0.01706502 0.0019730527 0.061458208
-0.056218654 0.00031457352 0.033747252
-0.060337197 -0.00086961093 0.013606749
0.029968787 0.00063924858 0.054037351
0.051354539 0.0018378115 0.036227617
-0.030496938 -0.00095171906 0.053865816
0.054885659 -0.00097874738 -0.028718688
0.063847199 0.0011147449 0.013465798
0.064035684 0.0019146043 0.0010876795
0.063481271 -0.0019857055 0.0028823065
-0.062484249 0.0019479676 -0.010530903
-0.062684372 -0.00054683519 0.019061962
0.035852037 -0.0018252853 -0.053555135
0.051693887 -0.001677152 0.038871784
0.063165672 0.0019893395 0.0071186363
0.05552388 0.0019025271 0.032048099
-0.057206638 0.0015119382 -0.030639375
0.059910927 0.001111023 -0.016022302
-0.047168896 0.0015315545 -0.040823519
0.013025589 0.0018185811 0.061459642
0.009198417 -0.00024077999 -0.060988408
0.063595764 -0.0018897092 0.0087807225
-0.056416541 -0.0010646646 0.025659993
-0.023059778 0.0019435241 0.059596039
0.0074392501 -0.00053536845 0.061275437
-0.041948806 0.0019386243 0.048246399
0.046551172 0.00045881976 -0.04053532
0.0068924106 0.0015455819 0.064468898
0.048935447 0.0019396435 -0.040210437
0.035574105 0.00078382867 0.054989655
-0.0050550834 0.00065280392 0.065303564
-0.06559927 -0.00010100751 -0.0013984893
-0.0063941637 -0.0018359884 0.064079911
0.060688667 0.0009729559 0.01226822
0.062323179 -0.0019771405 -0.012291344
0.027537374 0.0018911067 0.057968225
0.062713094 0.0018521545 -0.0046436689
-0.028835047 0.000412958 0.054598033
0.01099746 0.00058858865 0.060757909
-0.023046704 -0.0019442283 -0.059607174
-0.0049076136 -0.00019694275 -0.065393813
0.046367109 0.00078759016 -0.046212353
-0.058944367 0.0014975249 -0.027174786
-0.032424182 -0.0016595962 -0.053553447
0.012119887 0.0016985401 0.061447989
-0.013810015 -0.0010953026 0.060442921
0.059691884 0.0016250451 -0.025032733
0.010370598 0.0018664077 -0.062116351
-0.0035910446 0.0014754508 -0.064857401
-0.06414295 -0.00012032762 0.01373745
0.03531469 0.0016938843 0.054158695
-0.0551617 3.3343929e-07 -0.035546426
0.016678525 0.0019916941 -0.061441444
0.024134774 0.0017268938 0.059904829
0.05343131 0.0019809017 0.034780402
-0.0085501764 0.001798255 -0.062207453
-0.064571522 6.5124419e-05 0.01177555
0.01474637 -0.0013253985 0.060387429
0.030505378 -0.001049306 0.057725009
0.0003190175 0.0016336539 0.064747237
-0.040040322 0.00049605878 -0.046980966
-0.05636787 -0.0018724381 -0.030882662
-0.054936543 -0.0014688781 -0.029390322
0.050685596 0.0004969202 -0.041557517
-0.058084086 0.0019263211 -0.025092632
-0.058784995 -0.00095712987 -0.028548229
