# .PCD v0.7 - Point Cloud Data file format
VERSION 0.7
FIELDS x y z
SIZE 4 4 4
TYPE F F F
COUNT 1 1 1
WIDTH 1000
HEIGHT 1
VIEWPOINT 0 0 0 1 0 0 0
POINTS 1000
DATA ascii
0.0034431247 -0.0059973877 0
4.1080359e-05 -0.0059652841 0
0.0052927742 -0.005965848 0
0.0040523885 -0.0059527922 0
0.0011360093 -0.0059166043 0
0.00027580743 -0.0058805207 0
0.0021926514 -0.0058421297 0
0.002862144 -0.0058480916 0
0.0024708943 -0.0057958271 0
0.0040251743 -0.0057654302 0
0.004084595 -0.0057600015 0
0.0036030503 -0.0057254182 0
0.0020621715 -0.0056864531 0
0.0050311377 -0.0056893146 0
0.0030397763 -0.0056606038 0
0.002444102 -0.0056560775 0
0.0048004226 -0.0056529571 0
0.0018012968 -0.0056118015 0
0.0037674087 -0.0056003137 0
0.0048206053 -0.0056094946 0
0.0031401918 -0.0055747521 0
0.0034242684 -0.0055529275 0
0.0039804229 -0.0055226493 0
0.002410125 -0.005448678 0
0.001173684 -0.0054306882 0
0.00068834051 -0.0054114321 0
0.0024710251 -0.0054142894 0
0.0050890469 -0.0053975116 0
0.0035163458 -0.0052907439 0
0.0029178113 -0.0052706264 0
0.004257299 -0.0052718204 0
0.0033405595 -0.0052664359 0
0.00085924426 -0.0051863585 0
0.003243373 -0.0051866602 0
0.0026305323 -0.0051141083 0
0.0045070015 -0.005102091 0
0.0059430557 -0.0050804494 0
0.0012919547 -0.0050748535 0
0.0037972757 -0.0049964665 0
0.0021304255 -0.0049250815 0
0.0049280617 -0.0049269754 0
0.00087958545 -0.0048822504 0
0.0018931811 -0.0048317104 0
0.0018448746 -0.004738275 0
0.0013617263 -0.0047110212 0
0.00035124851 -0.0046506156 0
0.0032377115 -0.0046177479 0
0.0037373602 -0.0044908221 0
0.0036079956 -0.0044727013 0
0.0039186068 -0.0044123065 0
0.0013699426 -0.0043310132 0
0.002841861 -0.0043030237 0
0.0011634397 -0.0042260806 0
0.0023794754 -0.0042014699 0
0.0054620467 -0.0041930298 0
0.0051973201 -0.0041813361 0
0.0056709307 -0.0041863215 0
0.0033311988 -0.0041137375 0
0.00030545998 -0.0040502325 0
0.0022706976 -0.0040008416 0
0.0027969242 -0.0039623515 0
0.004760351 -0.0039246855 0
0.0056690359 -0.0039048619 0
0.0019407808 -0.0038030997 0
0.0046494207 -0.003740862 0
0.0056306836 -0.003648906 0
0.0012243537 -0.0034318652 0
0.0055207899 -0.0033991125 0
0.0053079855 -0.0033872759 0
0.002821727 -0.0033724462 0
0.0032487188 -0.0033509214 0
0.00061285333 -0.0032998088 0
0.0051942235 -0.0032998121 0
0.00030300525 -0.0032347587 0
0.0038562685 -0.0030963561 0
0.00011341846 -0.0030894908 0
0.003667153 -0.0030626208 0
0.0039333254 -0.0030471245 0
0.00017209233 -0.0030140195 0
0.0023642769 -0.003014534 0
0.0046107084 -0.0029844248 0
0.0041559567 -0.0029674836 0
0.0048269522 -0.0029281196 0
0.0025095369 -0.0028922504 0
0.0053136246 -0.0028650213 0
0.00015399493 -0.0027710337 0
0.0037992105 -0.0026938908 0
0.0020543369 -0.0026789214 0
0.0028906425 -0.0026785897 0
0.0051865503 -0.0026264735 0
0.0020038148 -0.0025384035 0
0.0011717792 -0.0025161353 0
0.0028899144 -0.0025140992 0
0.00052938546 -0.0024659478 0
0.0017961811 -0.0023902603 0
0.0044032312 -0.0023695189 0
0.0053752894 -0.0023081817 0
0.0051848139 -0.0022524872 0
0.0040378924 -0.0021787295 0
0.004631917 -0.0021364337 0
0.0028867032 -0.0021108708 0
0.0035938248 -0.0021174599 0
0.00048455075 -0.0020650045 0
0.0058508012 -0.0020434242 0
0.0043275356 -0.0020110169 0
0.0018325872 -0.0019534586 0
0.001357166 -0.0019459442 0
0.001729993 -0.0018599903 0
0.001314864 -0.0018476447 0
0.0018522399 -0.0017851946 0
0.00063855638 -0.0017584629 0
0.0021406808 -0.001685901 0
0.0045891097 -0.0016883431 0
0.0046052439 -0.0016621012 0
0.0057564974 -0.0016304579 0
0.0047023571 -0.0016294272 0
0.0058727171 -0.0016147019 0
0.0045656082 -0.0015848901 0
0.0044779559 -0.0015771288 0
0.0044873212 -0.0015144991 0
0.0027964292 -0.0015057754 0
0.0032856711 -0.0014618821 0
0.0046744929 -0.0014017046 0
0.0019937407 -0.0013921205 0
0.001502237 -0.0013849415 0
0.0018945591 -0.001382501 0
0.0042567858 -0.0013163738 0
0.005996773 -0.0013120644 0
0.003770181 -0.0012985053 0
0.0049654962 -0.001289639 0
0.0049751024 -0.0012673773 0
0.005702822 -0.0012103983 0
0.005766646 -0.0012116629 0
0.0014360048 -0.0012027868 0
0.0051790518 -0.0012069424 0
0.0040796772 -0.0011766341 0
0.002659552 -0.0011565065 0
6.585932e-05 -0.0011471105 0
0.00023449052 -0.001077131 0
0.0015433228 -0.0010476585 0
0.0012524079 -0.00093321322 0
0.00018315983 -0.00088693277 0
0.00048416629 -0.00081407558 0
0.004478062 -0.00076795806 0
0.00095722143 -0.00074189482 0
0.0014303456 -0.00071335211 0
0.0016197542 -0.00068371423 0
0.0024231388 -0.00067865115 0
0.0029555166 -0.00067509199 0
0.0052058264 -0.000632015 0
0.0043649543 -0.00058736361 0
0.0052698986 -0.00057484902 0
0.00098687061 -0.00055389636 0
0.00014185489 -0.00054970465 0
0.0039906129 -0.00054800865 0
0.0037367246 -0.00052264804 0
0.0044873268 -0.00047540036 0
0.0051333397 -0.00045113586 0
0.0030357966 -0.00044785504 0
0.0015817563 -0.00043786876 0
0.002116537 -0.00042132105 0
0.0047208024 -0.0003679998 0
0.004157308 -0.00035130052 0
0.0014787827 -0.00031252971 0
0.0019536826 -0.00029439435 0
0.0045089 -0.0002800457 0
0.0055725155 -0.00021919112 0
0.0045743114 -0.0001827009 0
0.0046335161 -0.00016794242 0
0.0039812224 -0.00012290092 0
0.0056129373 -2.9777113e-05 0
0.0036165034 -1.5343289e-08 0
0.0038285353 -7.5638536e-07 0
0.0030851769 0 6.3797238e-06
0.0032247764 -0.0060000001 1.743722e-05
0 -0.004635938 1.0432986e-05
0.00054069882 0 1.3152839e-05
0.00063123711 -0.0059999996 2.173412e-05
0.0018689303 -0.0060000001 3.4278633e-05
0.0031876371 -0.0060000001 3.2685759e-05
6.8398207e-05 -0.0060000001 4.7095302e-05
0.0060000001 -0.00057152752 4.3611959e-05
0.0028531882 0 4.0203813e-05
0.00033443636 -0.0060000001 7.7304845e-05
0.0054219281 -0.0060000001 8.8754299e-05
0.0060000001 -0.00056530873 8.2661725e-05
0.0060000001 -0.00044125703 9.5628347e-05
0.0060000001 -0.0057946341 0.00010747169
0 -0.0017725318 0.00010477698
0.0047990354 0 0.00010023201
0.0016695125 -0.0060000001 0.00011176479
0.00016415684 0 0.00012496162
0.0060000001 -0.004594963 0.00013854167
0 -0.0039886911 0.00014360157
0.0060000001 -0.0010383667 0.00014832101
0.0056549781 -0.0060000001 0.00016826928
0.0055073695 0 0.00016578556
0.0032174797 -0.0060000001 0.00017165352
0.0046105757 -0.0060000001 0.00018986251
0 -0.00060165668 0.00019996621
0.0060000001 -0.00429912 0.0002053701
0 -0.0037495282 0.00021301572
0.0034093461 -0.0060000001 0.00022447159
0.0060000001 -0.00079274067 0.00022387253
0.0060000001 -0.00058388774 0.00022088824
0.0060000001 -0.0034195106 0.00023288469
0.0060000001 -0.0024710032 0.00023028783
0.0060000001 -0.0035911656 0.00024831382
0.0042226049 -0.0060000001 0.00027554226
0 -0.0039833905 0.00027977431
0.0035095399 0 0.00027790011
0.0054645715 0 0.00030941537
0.0020063755 -0.0060000001 0.00031143631
0.0058601256 -0.0060000001 0.00031860388
0.0010499351 -0.0060000001 0.00033975256
0.0060000001 -0.0033097249 0.00036829521
0 -0.0058274642 0.00038517363
0.0060000001 -0.0044467291 0.00038528634
0 -4.592085e-05 0.00038699136
0.0060000001 -0.0048517706 0.00040501283
0 -0.0037655856 0.00040964092
0.0059999996 -0.0014610677 0.00040349146
0 -0.0049879272 0.00041453785
0.0060000001 -0.0053924099 0.00043664238
0 -0.001035288 0.00044569946
0 -0.0010645546 0.0004614272
0.0060000001 -0.00029356635 0.00046837534
0.0060000001 -1.8707515e-05 0.00046166833
0.0060000001 -0.00397063 0.00047410725
0.0029266097 0 0.00047470952
0.0042146924 0 0.00048746253
0.0047134641 0 0.00049051311
0.0013572525 -0.0060000001 0.00050750579
0.0060000001 -0.0020383575 0.00051196245
0.00091745821 -0.0060000001 0.00053437118
0.00011248863 0 0.00053032459
0.00057170854 0 0.00055466045
0.0048546642 -0.0060000001 0.00058238342
0.0032508131 0 0.00061794807
0.0042392332 -0.0060000001 0.00062262511
0 -0.0027250049 0.00062431011
0.0025643671 0 0.00063196279
0.00094383623 -0.0060000001 0.00065400841
0.0035841744 -0.0060000001 0.00065475481
0 -0.0037642859 0.0006588652
0.0048382054 0 0.00065276783
0.0060000001 -0.0050416673 0.00066084141
0.0060000001 -0.00014059962 0.00066128676
0.0048856898 -0.0060000001 0.00069680467
0.0051762089 -0.0060000001 0.0007097476
0 -0.00041940168 0.0007086168
0.0045904014 -0.0060000001 0.00072913425
0 -0.0057960628 0.00072227756
0.00029381097 -0.0060000001 0.00075177971
0.0060000001 -0.0022204549 0.00075522641
0.0032141281 0 0.00077768828
0 -0.0057630371 0.00079254369
0 -0.0040383423 0.00079156767
0.0027670793 0 0.00079394464
0 -0.0040959148 0.00080128579
0 -0.0024560289 0.00081269536
0.0060000001 -0.0043518045 0.00082340057
0 -0.0058818795 0.00085933227
0.0028259296 -0.0060000001 0.00087464589
0.0060000001 -0.0033158241 0.00087070977
0.00022226173 0 0.0008774522
0.0060000001 -0.0046099937 0.00088286988
0.00076767645 0 0.000887067
0.0011685775 0 0.00088884868
0.0060000001 -0.0044845524 0.00089633022
0.0048442548 0 0.00090527633
0.00072671863 0 0.00091296533
0.0030108169 0 0.00093752902
0 -0.0022658855 0.00094369613
0.0060000001 -0.0038894543 0.00095022103
0.0060000001 -0.0055871783 0.00096508354
0 -0.0029517184 0.00096455554
0.0025691823 -0.0060000001 0.00097781757
0.0060000001 -0.00036433554 0.00097151252
0 -0.002309558 0.00098417397
0.0060000001 -0.0025780632 0.0010077496
0 -0.0016453683 0.0010019406
0.0060000001 -0.0036107555 0.0010151017
0.0060000001 -0.0057331459 0.001033714
0.0033201762 0 0.0010397265
0.0045040748 0 0.0010300406
0.0051076887 0 0.0010465859
0.00078237499 -0.006000001 0.0010674815
0.0022171794 -0.0060000001 0.0010619538
0.0060000001 -0.0033253664 0.0010644373
0.002658423 0 0.0010710466
0.0043339767 0 0.0010768204
0 -0.0039000937 0.0010840928
0.0036891468 -0.0060000001 0.0010949293
0 -0.0054565561 0.0010969874
0.0025129782 0 0.0010953001
0.00071655319 -0.0060000001 0.0011125157
0.0054924516 -0.0060000001 0.0011185138
0 -0.0014569317 0.001110413
0 -0.0046316539 0.0011234784
0 -0.0030910994 0.0011237568
0.002169837 -0.0060000001 0.0011744164
0.0014206221 -0.0060000001 0.0011955465
0.0027289246 0 0.0011959495
0.0035214548 0 0.0011996309
0 -0.0024409769 0.0012122489
0.0013524209 0 0.0012161082
0.0045162593 0 0.001211419
0.003672865 -0.0060000001 0.001221257
0 -0.00031568206 0.0012471692
0.002089042 -0.0060000001 0.0012523159
0.0060000001 -0.003130306 0.0012532354
0.00077219337 0 0.0012676185
0.0045852913 -0.0060000001 0.0012795657
0.00083681766 0 0.0012753729
0.0060000001 -0.0027213439 0.0012990915
0.0022001911 0 0.0013084338
0.0053711911 -0.0060000001 0.001327151
0.0036160038 -0.0060000001 0.0013370144
0.0060000001 -0.0020098242 0.0013584475
0.0014001481 -0.0060000001 0.0013636129
0 -0.0032451802 0.0013680614
0.0053420756 0 0.0013751559
0.0016334943 -0.0060000001 0.0013869772
0 -0.0057052714 0.0013850725
0.0060000001 -0.0055020321 0.0013971062
0.0058194017 0 0.0013950173
0 -0.0047582309 0.0014103104
0.0036896693 -0.0060000001 0.0014356503
0.0028157555 -0.0060000001 0.0014434709
0.0019172343 -0.0060000001 0.0014505666
0 -0.0040896195 0.0014798281
0.0023900501 -0.0060000001 0.0014920707
0 -0.00034999932 0.0014955156
0.00027127904 0 0.0014943446
0.0060000001 -0.0027597749 0.0015105632
0 -0.0011608197 0.0015121127
0.0045314548 -0.0060000001 0.0015224344
0.0060000001 -0.0010254704 0.0015211329
0.0033364708 -0.0060000001 0.0015344332
0 -0.00012441946 0.0015467644
0 -0.0029508614 0.0015597872
0.0023880824 0 0.0015673668
0.0021634884 -0.0060000001 0.0015780169
0 -0.00024470902 0.0015736428
0 -0.0051177931 0.0015938777
0 -0.0025346729 0.0016053388
0.0018222042 0 0.0016166657
0.00078850996 -0.0060000001 0.0016237254
0 -0.00096780545 0.0016218257
0 -0.0006222786 0.0016202377
0.00019945724 -0.0060000001 0.0016622641
0.0052169263 -0.0060000001 0.001663167
0.0025084419 -0.0060000001 0.0016748379
0.0060000001 -0.0012457316 0.0016732053
0.00016938728 0 0.0016713346
0.0060000001 -0.0044840667 0.0016873484
0.00012132789 0 0.0016948221
0.0036499726 0 0.0016936881
0.0060000001 -0.0054158666 0.0017102304
0 -0.0046909149 0.0017446759
0.0060000001 -0.0017029517 0.001748574
0.0026359402 -0.0060000001 0.0017523834
0 -0.0041625141 0.0017559722
0.0060000001 -0.0018402762 0.0017509643
0.00010210992 0 0.0017570833
0.0017946927 0 0.0017652416
0 -0.0038634168 0.0017792587
0 -0.0038388558 0.0017740008
0 -0.0043746806 0.0017971583
0.0056782849 0 0.0017965467
0 -0.002254603 0.0018145256
0.0059999996 -8.2238323e-05 0.0018132831
0.0056802914 -0.0060000001 0.0018273101
0.0032682011 0 0.0018323072
3.4348643e-06 -0.0060000001 0.0018485745
0.0060000001 -0.0054163383 0.0018461801
0.0057919398 -0.0060000001 0.0018536951
0.0054431451 -0.0060000001 0.0018696027
0 -0.0024192417 0.0018613019
0.0060000001 -0.0044597611 0.0018756415
0.0060000001 -0.0040502907 0.0018941513
0.0060000001 -0.0048701055 0.0019047819
0.00022911998 0 0.0019185892
0.0013670903 -0.006000001 0.0019226536
0.0058089388 0 0.0019278923
0.0051075527 -0.0060000001 0.0019392855
0.00021750577 -0.0060000001 0.0019495505
0 -0.0055965972 0.0019474146
0 -0.001873302 0.001969554
0.00059967279 -0.006000001 0.0019839702
0.0057404013 0 0.0019830291
0.006000001 -0.0029657669 0.0019988869
0.0060000001 -0.0044931327 0.0020019235
0 -0.00032333852 0.0020126433
0.000302445 0 0.0020220415
0 -0.0014914871 0.0020672339
0.0022663414 -0.0060000001 0.0020819346
0.005886632 -0.0060000001 0.0020843656
0 -0.0057053254 0.0020800976
0.0057181264 0 0.0020985065
0.00022792419 0 0.0021171838
0.0041667367 0 0.0021102177
0.0017879535 -0.0060000001 0.0021249929
0.0060000001 -0.0019257121 0.0021238811
0 -0.0027779422 0.0021599322
0 -0.0004301423 0.00215528
0.0030626813 -0.0060000001 0.0021618162
0.0035612516 0 0.0021963308
0.0060000001 -0.0038868682 0.0022011823
0.0017676504 0 0.0022097174
0.00086510251 0 0.0022159677
0.0015933242 -0.0060000001 0.002229563
0.00020189375 0 0.0022243457
0.00081728096 0 0.0022320051
0.0051725726 -0.0060000001 0.002275737
0 -0.0047957129 0.0022758441
0.0060000001 -0.0054412619 0.0022979632
0.0060000001 -0.0050777141 0.002298377
0.0060000001 -0.0050295317 0.0023125962
0.0021640291 -0.0060000001 0.0023332981
0 -0.0011092158 0.0023482596
0.0019852854 0 0.0023460805
0.00036506591 0 0.0023699852
0.0043278495 0 0.0023647642
0.0019958678 -0.0060000001 0.0023893793
0.0060000001 -0.0051606772 0.0023839471
0.0060000001 -0.0042274715 0.0023818212
0.0057025542 -0.0060000001 0.0023991789
0 -0.0048489897 0.0023984886
0.0011127838 0 0.002448526
0 -0.00039424218 0.0024558739
0.0033166048 0 0.0024559705
0 -0.0042309938 0.0024627543
0.0060000001 -0.0032541933 0.0024983697
0.0046221279 0 0.0024960625
0.0039661671 0 0.0025037748
0.0016317094 -0.0060000001 0.0025465484
0.00012920592 0 0.0025418859
0.0035808254 0 0.0025400512
0.0056509525 0 0.0025462653
0.0060000001 -0.0052315346 0.002550188
0.0060000001 -0.0051653343 0.0025550905
0 -0.00022779072 0.0025576213
0.0060000001 -0.0046448326 0.0025624505
4.8264879e-05 0 0.0025656826
0.0037213631 -0.0060000001 0.0025785421
0.0060000001 -0.0021323212 0.0025744578
0.0047655515 -0.0060000001 0.0025978046
0.0021077294 0 0.0025916267
0.0058085192 -0.0060000001 0.0026017954
0.00086012925 -0.0060000001 0.0026112162
0.0060000001 -0.0047912039 0.0026249934
0.0024130077 -0.0060000001 0.0026330797
0 -0.0045977272 0.0026304843
0.0032349182 0 0.0026459484
0.0055288519 -0.0060000001 0.0026507187
0 -0.0025515023 0.0026589017
0.0042489688 0 0.0026531816
0.0024339205 -0.0060000001 0.0026904282
0 -0.0019901115 0.002695427
0.0060000001 -0.0049928641 0.0027135503
0.0060000001 -0.0011476775 0.0027197488
0.0017025564 0 0.002731072
0 -0.0015723257 0.0027545104
0.002281382 0 0.0027644511
0 -0.0048779882 0.0027753017
0.0048023197 -0.0060000001 0.0027845965
0.0048981365 -0.0060000001 0.0027815362
0 -0.0025455472 0.0028043215
0.0022218558 0 0.00280051
0.0033450711 -0.0060000001 0.0028121774
0 -0.0017740472 0.0028103788
0.0060000001 -0.0052670185 0.0028263971
0.0046063005 0 0.0028264876
0.0054045576 0 0.002825266
0.004255048 -0.0060000001 0.0028364316
0.0060000001 -0.00058341946 0.0028321154
0.0046012537 -0.0060000001 0.0028465181
0.0060000001 -0.00091555528 0.002841841
9.2233786e-05 -0.0060000001 0.0028578297
0 -0.0059792958 0.0028539395
0 -0.0027484756 0.0028786792
0.0026723582 -0.0060000001 0.0028864178
0 -0.00076578249 0.0028846781
0.0028258697 0 0.0028933922
0.0023140849 -0.0060000001 0.0029056016
0.0014259979 0 0.0029016188
0.0048700278 -0.0060000001 0.0029161412
0.0043896688 0 0.002928497
0.00055844791 -0.0060000001 0.0029352256
0 -0.0059732101 0.0029336435
0.0060000001 -0.0019431364 0.0029326261
0.0034378965 -0.0060000001 0.0029444438
0 -0.0039984379 0.0029466322
0.0060000001 -0.0031893093 0.0029488322
0.0026143999 0 0.0029450809
0.00025969191 -0.0060000001 0.0029641991
0.0047168261 -0.0060000001 0.0029696943
0.006000001 -0.0019120303 0.0029684159
0.0017703919 0 0.0029607562
0.0060000001 -0.0035645678 0.0029701565
0.0024094279 -0.0060000001 0.0029877489
0 -0.0031541034 0.0029871878
0.0060000001 -0.0044662622 0.0029904472
0 -0.0041387202 0.0029910973
0 -0.0010040835 0.0029909301
0.0060000001 -0.0015377123 0.0030070774
0.0052984334 0 0.0030386818
0.0060000001 -0.0044454215 0.0030493177
0 -0.0012049259 0.0030587076
0.0009571691 0 0.0030519606
0.0010575502 -0.0060000001 0.0030686371
0.0054055727 -0.0060000001 0.0030602303
0.0050248457 -0.0060000001 0.0030819327
0.0060000001 -0.0027208014 0.0030965777
0.00094386621 0 0.0031047401
0.0060000001 -0.00045066871 0.0031273905
0.0046968125 -0.0060000001 0.0031562073
0.0018734242 -0.0060000001 0.0031628194
0 -0.0028185863 0.0031995252
0 -0.0022708245 0.0032058307
0.00031678818 0 0.0032027762
0.0060000001 -0.002790845 0.0032179845
0 -0.0051844837 0.0032557184
0 -0.00052366738 0.0032533947
0 -0.0045267125 0.003266277
0 -0.0025737067 0.0032627163
0.0032861975 0 0.0032664018
0.005699811 0 0.0032667799
0.0011158246 -0.0060000001 0.0032732843
0 -0.0034618084 0.0032808329
0.0060000001 -0.0008404649 0.0033007893
0.0060000001 -0.00013367522 0.0033037707
0.0060000001 -0.0047636796 0.0033239776
0 -0.0021990754 0.0033247634
0.0049652322 -0.0060000001 0.0033300298
0.0060000001 -0.0037078236 0.0033463459
0.0060000001 -0.0027630387 0.0033470553
0.0036892407 -0.0060000001 0.0033508283
0.00023291769 -0.0060000001 0.0033763156
0 -0.0042800708 0.0033763314
0.00020650958 0 0.0033724944
0.0030378769 -0.0060000001 0.0033810821
0.005895637 0 0.0034003197
0.0055703758 0 0.0034181122
0.0060000001 -0.001592762 0.0034319588
0.0060000001 -0.0035997112 0.0034416288
0.0016820371 0 0.0034462181
0.0031391431 -0.0060000001 0.0034539672
0.0043748748 -0.0060000001 0.0034615912
0 -0.0041015171 0.0034671356
0 -0.0045014624 0.0034798863
0.0060000001 -0.0048396834 0.0034823129
0.0060000001 -0.0027553826 0.003483525
0.0038226265 0 0.0034805294
0 -0.0040109274 0.003493069
0.0016666341 0 0.0034910962
0.0035370663 0 0.0035069084
0.0041880417 -0.0060000001 0.0035234594
0.0053407634 -0.0060000001 0.0035326274
0.0060000001 -0.0030828954 0.0035303065
0.0060000001 -0.00058035139 0.0035638348
0.0046157604 -0.0060000001 0.0035727292
0.00043648857 -0.0060000001 0.0035859381
0.0060000001 -0.00019984425 0.0035846431
0.0060000001 -0.0022254589 0.0035904981
0.0024995189 -0.0060000001 0.0036093951
0 -0.0037889206 0.0036008416
0 -0.0010142141 0.0036091115
0.0027109163 0 0.003605589
0.0049637989 -0.0060000001 0.0036126655
0 -0.00080492272 0.0036153824
0.0060000001 -0.00050303474 0.0036594674
0 -0.0020897691 0.0036640943
0.0018555797 -0.0060000001 0.0036769968
0.0055501098 -0.0060000001 0.0036771235
0 -0.0047819805 0.0036861841
0.00034584649 0 0.0036990789
0.0060000001 -0.0043797782 0.0037021225
0.0042643487 -0.0060000001 0.0037372361
0.0060000001 -0.002094113 0.0037314245
0.00032840116 0 0.0037406485
0.0038517977 0 0.0037555953
0.0055647464 -0.0060000001 0.0037773135
0.0057722297 -0.0060000001 0.0037794958
0 -0.0034144779 0.0037710164
0.006000001 -0.0052589234 0.0037981274
0.0035211693 -0.0060000001 0.0038187949
0.0060000001 -0.0058140075 0.0038353812
0 -0.0041696774 0.0038398397
0.0060000001 -0.0017028044 0.0038421494
0 -0.00030769446 0.0038655719
0.0054100389 -0.0060000001 0.003888566
0 -0.00039444209 0.0038825972
0.0060000001 -0.0054221251 0.0038946529
0 -0.0043703411 0.0039186049
0 -0.003103615 0.0039102738
0 -0.0013163256 0.0039107976
0.00064952811 0 0.0039143297
0.0060000001 -0.0021629168 0.0039277319
0.0043956409 0 0.003920272
0 -0.0026067335 0.0039303768
0 -0.00011050344 0.0039350926
0.0060000001 -0.0014750534 0.0039466782
0 -0.00065053621 0.0039437073
0.0039501647 0 0.0039486834
0.0030396883 -0.0060000001 0.0039527598
0 -0.0058071623 0.0039568478
0.0048965313 -0.0060000001 0.0039838646
0.0060000001 -0.0034276797 0.0039932127
0.0034720195 0 0.0040028528
0.0031045773 -0.0060000001 0.0040116343
0 -0.0045030504 0.0040152757
0 -0.002532878 0.0040293336
0.0053230487 -0.0060000001 0.0040326109
0 -0.0056253304 0.0040497263
0.0020071187 0 0.0040491852
0.0060000001 -0.0056652506 0.0040602018
0.0060000001 -0.005524253 0.0040617371
0 -0.0026062862 0.004065976
0.0060000001 -0.00064945547 0.0040685027
0.0060000001 -0.0016657134 0.0040707616
0 -0.0016317551 0.0040840311
0.004891749 -0.0060000001 0.0041000131
0.0029467123 0 0.0041092336
0.0053242915 0 0.0041038562
0 -0.0043155835 0.0041235392
0 -0.0040696966 0.0041325777
0.001944726 0 0.0041476549
0.00025190192 -0.0060000001 0.0041604978
0.0060000001 -0.0052542412 0.0041866018
0 -0.0010602387 0.004184592
0.0048951264 0 0.0041865786
0.0060000001 -0.0039106663 0.0041994927
0.0060000001 -0.0021655627 0.0041975006
0.0060000001 -0.0056877248 0.004203693
0 -0.0042612641 0.0042052642
0.0048986031 -0.0060000001 0.0042187967
0 -0.0049256184 0.0042151539
0.0041123563 0 0.0042188447
0.0029716699 0 0.0042226384
0.0060000001 -0.0035671887 0.0042345952
0 -0.00029279961 0.0042371093
0.0011433937 0 0.0042341235
0.0046184449 0 0.0042395745
0.0010831902 -0.0060000001 0.0042424528
0.0060000001 -0.00045597233 0.0042430884
0.0060000001 -4.0737035e-05 0.004259354
0.0060000001 -0.0049929507 0.00426711
0.0017404202 0 0.0042798081
0.0034450179 -0.0060000001 0.0043108361
0.00131398 0 0.0043105921
0.0043282146 0 0.0043226988
0.0060000001 -0.00069799484 0.0043673879
0.0019445827 0 0.0043601417
0 -0.0012649724 0.004386351
0 -0.0026856442 0.0043918029
0.0060000001 -0.0029536872 0.0044048484
0 -0.00098335615 0.0044089118
0.0060000001 -0.00076855556 0.0044123223
0.0002361603 -0.0060000001 0.0044400529
0.0014486152 -0.0060000001 0.0044607795
0.0060000001 -0.0035041475 0.0044650529
0.0015975367 -0.0060000001 0.0044940254
0 -0.00082884269 0.0044980533
0.0014312136 0 0.0044979146
0.0044778986 0 0.0044968463
0.0060000001 -0.0043228446 0.0045141317
0.0049222116 -0.0059999996 0.0045284005
0.0060000001 -0.00032038774 0.0045471936
0.0011657928 0 0.0045420681
0.005442223 0 0.0045575174
0.0060000001 -0.0026376268 0.0045646764
0 -0.0040035546 0.004589437
0.00038611851 0 0.0045879395
0 -0.00027118638 0.0045970785
0.0044224425 0 0.0046033738
0 -0.0051185889 0.004622729
0.0060000001 -0.002699563 0.0046353904
0.0060000001 -0.0010593077 0.0046592867
0.0060000001 -0.0030096453 0.0046623899
0 -0.0020277554 0.0046611382
0.0060000001 -0.00058700325 0.0046650618
0 -0.0037943709 0.0046728146
0 -0.004910741 0.0046964083
0.0060000001 -0.0023076325 0.0046985229
0.0046785278 0 0.0046910611
0.0020357454 -0.0060000001 0.0047047772
0.0039927033 -0.0059999996 0.0047320584
0.0059488826 -0.0060000001 0.0047310395
0.0042832578 0 0.004739847
0.0012438976 -0.0060000001 0.0047874451
0.0005918509 0 0.004788714
0.0022790511 -0.0060000001 0.0047908127
0.0060000001 -0.0058058016 0.0048175319
0 -0.0033511517 0.0048133209
0 -0.003318968 0.0048239045
0.0021650365 -0.0060000001 0.0048360857
0.0060000001 -0.00077868358 0.0048382836
0.0060000001 -0.0010097262 0.0048462697
0.00092851766 -0.0060000001 0.0048637763
0.0011600927 -0.0060000001 0.0048697926
0 -0.0044017462 0.004869469
0.0060000001 -0.00568438 0.0049108798
0.0060000001 -0.00049956894 0.0049145613
0.0060000001 -0.00043393101 0.0049126167
0.00072690303 -0.0060000001 0.0049322424
0.0021195658 0 0.0049436451
0.0060000001 -0.0021210702 0.0049507441
0.0050547365 0 0.0049694576
0.0013194558 -0.0060000001 0.0049759015
0 -0.0001940918 0.0049807806
0 -0.0044804341 0.0049947761
0.00038068986 -0.0060000001 0.0050021429
0 -0.0054583997 0.0050051911
0 -0.0032425721 0.0050109676
0.0060000001 -0.0035274448 0.0050350339
0.00090817176 -0.0060000001 0.0050495001
0 -0.00103153 0.0050580027
0.0041388148 -0.0060000001 0.0050631161
0.0060000001 -0.00091864553 0.0050649866
0.0057027601 0 0.0050646621
0 -0.0037141326 0.005070616
0 -0.0057748696 0.0051019047
0 -0.0030235783 0.0051047816
0.0020924085 -0.0060000001 0.0051115314
0 -0.0040887832 0.0051341243
0 -0.0025738904 0.0051421411
0.0060000001 -0.0022671169 0.0051409211
0 -0.00065928738 0.0051456913
0.0060000001 -0.0039292499 0.0051502404
0.0011845065 0 0.0051534534
0 -0.0037172504 0.0051609185
0 -0.0031991508 0.0051635322
0.0024488678 -0.0060000001 0.0051745879
0.0044294684 -0.0060000001 0.0051793996
0.001625869 -0.0060000001 0.0051942714
0.0050021019 -0.0060000001 0.0051915725
0.0060000001 -0.0057719238 0.0051988577
0.0060000001 -0.00082946674 0.0052044089
0.0060000001 -0.0040707388 0.0052290782
0 -0.0015294342 0.0052253469
0 -0.00034295549 0.0052214824
0.0057606669 0 0.0052292682
0.0060000001 -0.0013096522 0.0052489247
0 -0.00016290594 0.005244744
0 -0.0043189614 0.0052770455
0 -0.0027477897 0.0052780728
0 -0.0040951255 0.005297876
0.0045166276 0 0.005327058
0.0060000001 -0.0049843364 0.0053395275
0.0024271372 0 0.0053344644
0.0044646361 -0.0060000001 0.0053444155
0.0038070218 -0.0060000001 0.0053699962
0.0060000001 -0.0033155924 0.0053693205
0.005002785 0 0.005365375
0.0060000001 -0.0019144358 0.0053828433
0.0060000001 -0.0020265605 0.005406315
0.0018605875 -0.0060000001 0.0054171807
0 -0.0019916312 0.0054308581
0.00061156804 -0.0060000001 0.0054586986
0.0060000001 -0.002520253 0.0054699806
0.0019134489 -0.0060000001 0.0054735816
0 -0.002881733 0.0054845414
0 -0.0019834936 0.0054925214
0.0025825382 0 0.0054907505
0.0060000001 -0.003150847 0.0055064396
0.0039291182 -0.006000001 0.0055220565
0.0060000001 -0.00012539972 0.0055237487
0.0050680921 0 0.0055293562
0 -0.0026187883 0.0055361479
0 -0.0035522096 0.0055454187
0.0060000001 -0.00053516042 0.0055423225
0 -0.0021253463 0.0055610538
4.9953447e-05 0 0.0055783773
0.0013398991 0 0.0055882814
0 -0.0054769148 0.0055912947
0.0060000001 -0.001168062 0.0055903513
0.0060000001 -0.00058153475 0.0055994
0.0060000001 -0.00020810367 0.0055992575
0.0016863402 -0.0060000001 0.0056073926
0.0018227235 0 0.0056063789
0.0060000001 -0.0042591249 0.0056174439
0 -0.0034342657 0.0056199762
0.0060000001 -0.0033676079 0.0056284801
0.00313251 -0.0060000001 0.0056378557
0.0045931386 -0.0060000001 0.0056445119
0.0056996611 -0.0060000001 0.0056589465
0.0060000001 -0.0050531821 0.0056693302
0.0060000001 -0.0059456937 0.0056781908
9.6084179e-05 0 0.0056927335
0.0005157289 -0.0060000001 0.0057076765
0.0045754081 0 0.0057036686
0.0047293319 0 0.0057077981
0 -0.00080493256 0.0057183267
0.0039029431 -0.0060000001 0.005722153
0.0060000001 -0.0036205475 0.0057216915
0.0060000001 -0.0013814032 0.0057428284
0 -0.0010301186 0.0057485956
0.0052069454 0 0.0057433289
0 -0.0059094434 0.0057562557
0.0010944434 0 0.0057553989
0.0060000001 -0.005658925 0.0057765762
0.0060000001 -0.0059939069 0.0057801255
0 -0.0026980846 0.0057866205
0.0060000001 -0.00035770942 0.0058153672
0.0013507069 -0.0060000001 0.0058271778
0.0060000001 -0.002929528 0.0058252336
0 -0.0048617176 0.0058415332
0.0060000001 -0.0038154926 0.0058485121
0.0054101869 0 0.0058447234
3.2139658e-05 -0.0060000001 0.005853768
0.0060000001 -0.0027211306 0.0058985865
0 -0.0057027354 0.005906451
0 -0.0047949506 0.0059273308
0.0060000001 -0.0028467705 0.0059207436
0 -0.0010219505 0.0059298314
0.00036924565 -0.0060000001 0.0059389458
0 -0.00084095361 0.0059342473
0 -0.00028201402 0.0059337062
0.0027528661 -0.0060000001 0.0059526055
0 -0.0017240761 0.0059660617
0.0060000001 -0.0018545195 0.0059799566
0.0049889516 0 0.0059741843
0.0053094714 -0.0059999996 0.0059877229
0.0059999996 -0.005472953 0.0059896572
0.0025511456 0 0.0059871967
0.0027222314 0 0.0059857415
0.0060000001 -0.0054445993 0.0059978017
0.00077864208 -0.002367476 0.0059999996
0.00046127193 -0.00033622011 0.0059999996
0.0022275504 -0.0059603248 0.0060000001
0.0052257776 -0.0059469799 0.0060000001
0.004798695 -0.0059102848 0.0060000001
0.0047362046 -0.0058982414 0.0060000001
0.0020417469 -0.005872814 0.0060000001
0.0034747703 -0.0058178445 0.0060000001
0.0034912392 -0.0058150887 0.0060000001
0.005798711 -0.0057998602 0.0060000001
0.00056087924 -0.0057860673 0.0060000001
0.0046786414 -0.005754692 0.0060000001
0.0047503426 -0.0057340693 0.0060000001
0.0010954808 -0.0056778328 0.0060000001
0.00084223511 -0.005651772 0.0060000001
0.0052533825 -0.0056400229 0.0060000001
0.00092211814 -0.0056324792 0.0060000001
0.0040792637 -0.005624515 0.0060000001
0.0036362603 -0.0055949059 0.0060000001
0.0052755307 -0.0055509848 0.0060000001
0.00094924169 -0.0055300999 0.0060000001
0.0035492587 -0.005469203 0.0060000001
0.0036911538 -0.0054451576 0.0060000001
0.002082963 -0.0053338655 0.0060000001
0.0010157845 -0.0052290647 0.0060000001
0.0056459773 -0.0051148189 0.0060000001
0.0033103744 -0.0050903461 0.0060000001
0.0039862162 -0.0049725878 0.0060000001
0.0015436804 -0.0049401601 0.0060000001
0.0020236368 -0.0048777848 0.0060000001
0.0041869055 -0.0048790765 0.0060000001
0.0059502851 -0.0047771172 0.0060000001
0.001421681 -0.0047610961 0.0060000001
0.0052297665 -0.0047408855 0.0060000001
0.0013726841 -0.004732979 0.0060000001
0.0042237202 -0.0046864362 0.0060000001
0.0045876326 -0.0046360861 0.0060000001
0.00069065922 -0.0045778309 0.0060000001
0.0019428303 -0.0045409114 0.0060000001
8.8495017e-06 -0.0044935294 0.0060000001
0.0022817361 -0.0044755568 0.0060000001
0.0052843126 -0.0044778739 0.0060000001
0.0018543646 -0.0044614342 0.0060000001
0.003897446 -0.004411052 0.0060000001
0.0015815285 -0.0042966595 0.0060000001
0.0016323492 -0.0042312993 0.0060000001
0.0037212139 -0.0042068739 0.0060000001
0.0046750838 -0.0041999561 0.0060000001
0.0054769297 -0.0041959211 0.0060000001
0.0023072001 -0.0041603777 0.0060000001
0.001294805 -0.0041528656 0.0060000001
0.0031683478 -0.0041517424 0.0060000001
0.0017363846 -0.0041482309 0.0060000001
0.0012796912 -0.0040939217 0.0060000001
0.0012178603 -0.0040725693 0.0060000001
0.0022381519 -0.0040480676 0.0060000001
0.0038985945 -0.0040406659 0.0060000001
0.0025567026 -0.0040359888 0.0060000001
0.0026051181 -0.0039391895 0.0060000001
0.003230274 -0.0039283908 0.0060000001
0.0035027592 -0.0038929698 0.0060000001
0.00050381577 -0.0038709971 0.0060000001
0.0037910179 -0.0038621118 0.0060000001
0.0053515742 -0.0038179352 0.0060000001
0.0054863226 -0.0037956764 0.0060000001
0.0040097861 -0.0037609122 0.0060000001
0.00059018546 -0.0037423884 0.0060000001
0.0011511513 -0.0035908404 0.0060000001
0.00058202259 -0.0035593021 0.0060000001
0.0048985756 -0.0034839758 0.0060000001
0.0033797843 -0.0034707487 0.0060000001
0.0038600762 -0.0034784782 0.0060000001
0.0051289629 -0.0034447424 0.0060000001
0.0020819884 -0.0034279041 0.0060000001
0.0034300087 -0.0034273756 0.0060000001
0.0041158609 -0.0034286992 0.0060000001
0.0043171439 -0.003419853 0.0060000001
0.0035061899 -0.0033302917 0.0060000001
0.00036190296 -0.0033212183 0.0060000001
0.0045341277 -0.0033042263 0.0060000001
0.0046004439 -0.0032418896 0.0060000001
0.0030445764 -0.0031004658 0.0060000001
0.0015250298 -0.0030138805 0.0060000001
0.0018985528 -0.0029320109 0.0060000001
0.0039950218 -0.0029202721 0.0060000001
0.005297747 -0.0028627145 0.0060000001
0.0017005034 -0.0028225128 0.0060000001
0.0043566134 -0.002825015 0.0060000001
0.0016481925 -0.0028127856 0.0060000001
0.0021079131 -0.0027913814 0.0060000001
0.0048278556 -0.0027629719 0.0060000001
0.0002321799 -0.0026967425 0.0060000001
0.00063263549 -0.0026878817 0.0060000001
0.0016099005 -0.0025514087 0.0060000001
0.0029662871 -0.0025142555 0.0060000001
0.00084550312 -0.0024660595 0.0060000001
0.0055395034 -0.0024468719 0.0060000001
0.0049972907 -0.0023981084 0.0060000001
0.0054844487 -0.0023949121 0.0060000001
0.0048100865 -0.002315985 0.0060000001
0.0050211782 -0.0023126875 0.0060000001
0.0052063107 -0.0022852558 0.0060000001
0.0048209601 -0.0022246006 0.0060000001
0.001751086 -0.0022145873 0.0060000001
0.0018976894 -0.0022187277 0.0060000001
0.0021655492 -0.0022198074 0.0060000001
0.0028308455 -0.0022086599 0.0060000001
0.0013714307 -0.0021321913 0.0060000001
0.0025482154 -0.0021325212 0.0060000001
0.0049148295 -0.002126799 0.0060000001
0.002163131 -0.0019873441 0.0060000001
0.0037701854 -0.0019509749 0.0060000001
0.0025597077 -0.001936348 0.0060000001
0.0022369688 -0.0019149758 0.0060000001
0.0026518132 -0.0018722046 0.0060000001
0.00047478464 -0.0018572507 0.0060000001
0.0010530432 -0.001821251 0.0060000001
0.0028088391 -0.0018276438 0.0060000001
0.0035551707 -0.0018292774 0.0060000001
0.0011521225 -0.0017920412 0.0060000001
0.0042528166 -0.0017912331 0.0060000001
8.6222295e-05 -0.0017423286 0.0060000001
0.0032453034 -0.0017469279 0.0060000001
0.00088993623 -0.0015944808 0.0060000001
0.0057659745 -0.0015110397 0.0060000001
0.0038534887 -0.0014952278 0.0060000001
0.0046191895 -0.0014940584 0.0060000001
0.00091141788 -0.0014878552 0.0060000001
0.0010608123 -0.0014858376 0.0060000001
0.0036354184 -0.0013978509 0.0060000001
0.0026224027 -0.0013689968 0.0060000001
0.0037326119 -0.0011801296 0.0060000001
0.0052436152 -0.0011827896 0.0060000001
0.0047916337 -0.0011532332 0.0060000001
0.0034019395 -0.0011295795 0.0060000001
0.0034634953 -0.0011107883 0.0060000001
0.0035701196 -0.0011143722 0.0060000001
0.0029882418 -0.0011072042 0.0060000001
0.0011227191 -0.0010801322 0.0060000001
0.00068802637 -0.0010378228 0.0060000001
0.0018255787 -0.0010346837 0.0060000001
0.0024653883 -0.0010241588 0.0060000001
0.0042246445 -0.0010211405 0.0060000001
0.0054746661 -0.0010237796 0.0060000001
0.002245635 -0.00099373527 0.0060000001
0.0028375399 -0.00098992651 0.0060000001
0.0045276103 -0.00097786507 0.0060000001
0.0036858623 -0.0009290505 0.0060000001
0.0027612124 -0.00088866591 0.0060000001
0.0034216109 -0.00087908836 0.0060000001
0.00049827795 -0.00086943654 0.0060000001
0.0041338531 -0.00074940169 0.0060000001
0.0012128954 -0.00071077642 0.0060000001
0.0031809022 -0.00068070641 0.0060000001
0.0042103664 -0.00068151701 0.0060000001
0.0014556709 -0.00063922623 0.0060000001
0.005267323 -0.00059416977 0.0060000001
0.0048533264 -0.0005239133 0.0060000001
0.00046945742 -0.000446016 0.0060000001
0.0027219721 -0.00038192704 0.0060000001
0.0050864518 -0.00038382615 0.0060000001
1.944852e-05 -0.00037327778 0.0060000001
0.0019365617 -0.00037610158 0.0060000001
0.003555265 -0.00035752956 0.0060000001
0.0033986529 -0.00025211697 0.0060000001
0.0023100411 -0.00017237831 0.0060000001
0.0048168912 -7.235149e-05 0.0060000001
0.0047007515 -4.6234156e-05 0.0060000001
0.0022535201 -2.7961181e-05 0.0060000001
0.0048640757 -2.2861472e-05 0.0060000001
