# .PCD v0.7 - Point Cloud Data file format
VERSION 0.7
FIELDS x y z
SIZE 4 4 4
TYPE F F F
COUNT 1 1 1
WIDTH 1000
HEIGHT 1
VIEWPOINT 0 0 0 1 0 0 0
POINTS 1000
DATA ascii
-0.027150003 -0.0048867338 0.012114781
-0.028349999 -0.013667488 0.0043501635
-0.00098810345 0.0093778307 0.025090151
-0.0023185026 -0.018975131 -0.0025723744
-0.013635925 0.0001063064 0.011986004
-0.020330941 -0.0088298991 0.011969925
-0.028350003 0.013706303 -0.0078564081
-0.0056167562 0.026420811 -0.0043993737
-0.01815 -0.013540048 0.002092239
-0.0041 -0.0021957764 -0.021242822
-0.0080000004 -0.020463757 -0.0031874271
-0.02079021 0.0133044 0.011976612
-0.0080000004 0.019663446 0.0060995128
-0.0099474778 0.013401331 -0.0065079252
-0.016464699 -0.0032672721 0.011524218
-0.0036848134 0.0008551178 0.025887424
0 0.011781794 -0.0094997603
0 -0.0097678192 -0.022552386
-0.021942761 -0.0040194262 -0.014432102
0 0.0075905393 0.01766802
-0.02755497 0.017395772 -0.0045897868
-0.027150001 0.0048625637 -0.0053640893
-0.0075004976 -0.00082482782 0.01992712
-0.011850001 -0.012000582 -0.0068219653
-0.0087630469 -0.015708603 0.0087100435
-0.010162593 -0.011877623 -0.008950186
-0.0064948215 -0.0022933087 -0.014698089
-0.011850001 0.010559808 -0.0073203063
-0.018150002 -0.0082743578 0.010610116
-0.027117191 -0.003210186 -0.0043819807
-0.018392263 0.0081501938 -0.012318892
-0.018583002 -0.0095699998 -0.003608817
-0.021591546 -0.0042345035 0.014343014
-0.022301339 -0.01344802 0.0063952105
-0.01850402 0.0070052994 -0.0041438104
-0.026717 0.0049763308 0.008929383
-0.0070786476 -0.0059925071 -0.013614825
-0.025789415 0.012200423 0.0085295103
-0.013692473 0.0046269349 -0.010961034
-0.01579725 -0.00746177 0.0092706671
-0.015811561 0.0038240794 -0.017496575
-0.0039530885 0.0048257774 0.0013033294
-0.0032830001 -0.0012276253 -0.010292653
-0.019932043 -0.0027188412 0.017642075
-0.00060270919 -0.021213192 -0.01632737
-0.0084870514 -0.014067723 0.0048991148
-0.011850001 -0.0030122416 0.012206893
-0.018168427 0.012705888 -0.0068105673
-0.010179567 0.0067857704 -0.016505651
-0.0049297684 -0.013314264 0.0067181247
-0.0014381858 -0.00081471028 -0.014892745
-0.0016500001 -0.0037389745 -0.014859688
0 0.012771867 -0.016846033
-0.028058615 0.0033114729 -0.015264012
0 -0.014095883 0.014093935
-0.017047567 0.0061407313 -0.010284316
-0.0018928837 -0.0019217344 -0.013098257
0 0.013082454 -0.023491744
-0.00055425899 -0.015874894 -0.021560388
-0.026209716 -0.0048517827 0.017306725
-0.00071063271 0.00099661201 0.014868798
-0.026239945 -0.017542185 0.0034776165
-0.0080000004 0.00035253644 0.024560444
-0.0025615033 0.011472183 -0.0068784575
-0.0094165979 0.0010262711 0.0048648664
-0.0039813183 0.0011812792 0.004844456
-0.018583002 0.0071144467 0.004027009
-0.0029412799 -0.0040409719 0.014112873
-0.011850001 -0.0070979409 -0.011548853
-0.018150002 0.0072208764 0.012138585
-0.00285 0.0096008629 0.0087599419
-0.0066962438 0.024537679 -0.010711624
-0.029215116 0.0069115334 0.01645356
-0.0042166142 -0.0058351494 -0.02623179
-0.0080000004 -0.023249909 -0.010391966
-0.0080000004 -0.025670271 -0.0025331627
-0.023991892 -0.0178588 -0.0010725905
-0.018815666 -0.017644312 0.0027018499
-0.029568613 -0.015690722 0.008753215
-0.012697032 -0.012402908 -0.012977283
-0.011850001 0.0033815401 -0.006385644
-0.00025764314 0.012250951 0.0084636603
-0.025330657 -0.0071972478 -0.013115806
-0.011417001 -0.012101758 -0.00072820002
-0.020547105 0.003876233 0.017489711
-0.014175475 -0.0039823833 -0.017475735
-0.011596313 -0.0073845023 0.0098923072
-0.0032830001 -0.001056722 -0.0088357776
-0.0080000004 -0.013413709 0.01273345
-0.026717 -0.0074209599 0.0047341338
-0.0024654637 0.0039109667 -0.021323726
-0.001870285 -0.0099551808 -0.012418664
-0.011651673 0.012413024 -0.0079559591
-0.029827317 0.0090132356 -0.015578344
-0.018149998 0.0112919 0.0066061397
-0.010206055 -0.017349118 0.0047494327
-0.0047283634 0.01454067 0.0034890671
-0.0032830001 0.0028076954 -0.0093386713
-0.025519028 0.014978137 0.00016607917
-0.017462509 0.0072718863 -0.0094163679
-0.010962861 0.012867271 0.012546275
-0.026717 -0.011147935 -0.0016175978
-0.011850001 0.0089755403 0.011592455
-0.0080000004 0.021151109 0.0051214565
-0.0080000004 0.0061539691 -0.021214994
-0.0032830001 -0.000473789 -0.011877597
-0.0014625828 -0.0084266132 -0.012279379
-0.0033514667 -0.013597467 -0.0059659695
-0.0080000004 0.0079053082 -0.022801822
-0.0067207348 0.00015068804 0.014980163
-0.018166985 -0.014033679 0.003263734
-0.027433118 -0.012377208 -0.0024518277
-0.0064934739 -0.011432709 0.024238996
-0.027183855 0.015837321 0.00161542
-0.0041 0.0029526846 -0.021770274
-0.017335454 0.016445901 0.0069300272
-0.0015950429 -0.011566222 0.0093560088
-0.0030537334 0.0262533 0.0056717666
-0.0080000004 0.018332252 -0.013569418
-0.011290066 -0.0033520465 -0.017558716
-0.005974445 -0.014545645 -0.0034512775
-0.0039543556 -0.011330576 0.024281302
-0.0050165644 -0.014597741 0.0030555523
-0.0033234309 0.0068433154 0.013262409
-0.0096179433 -0.012668484 0.012773492
-0.0070230188 0.012842269 -0.0076930467
-0.018583002 0.011973877 0.00237529
-0.0028418526 -0.015661759 0.0029488923
-0.01485521 0.01299339 -0.012381917
0 -0.019807907 -0.014303411
-0.0052470118 0.02257015 0.014558943
-0.0016500002 0.011732627 -0.010481896
-0.0070693404 -0.026749665 0.0019014765
-0.0027610003 -0.025697991 0.0079103597
-0.024014723 -0.014349408 -0.010614771
-0.022562146 0.0017407426 0.014770835
-0.0059898817 -0.026620876 -0.0028797439
-0.0080000004 0.015356125 0.017898457
-0.019526189 0.014355442 -0.0042044991
-0.011587131 0.00018118798 -0.017976148
-0.0080000004 0.021633659 -0.0088885175
-0.0064710933 0.013099413 0.0072368197
-0.016909422 0.00045318459 0.017940341
0 0.016645009 0.013568431
-0.014199036 -0.0042598555 -0.017439207
-0.017789891 0.016078571 -0.0078168502
-0.0007332337 0.0018276501 -0.018464509
-0.007758663 -0.01103467 -0.010048733
-0.018854478 0.011455916 0.013703956
-0.028214471 -0.0051993136 0.015070124
-7.5749856e-05 -0.014938287 -0.00046876815
-0.02348233 -0.0017367961 0.014771353
-0.017793847 0.017881028 0.00090372149
-0.020089708 -0.0050736126 0.013995443
-0.011417001 -0.0096769584 -0.0041828463
-0.030000001 -0.010189457 -0.014248556
-0.012363018 -0.007324269 -0.016282603
-0.014358708 -0.0055103488 0.010595118
-0.028349999 -0.0024161953 0.01374381
0 0.022314718 0.012098172
-0.015321013 0.0053827805 -0.010647957
-0.029261941 -0.017326718 -0.0048035113
-0.0088333702 0.01182577 0.0090177627
-0.018583002 -0.011845088 4.3018106e-05
-0.011850001 -0.010463523 -0.0076723183
-0.0093034571 0.0096532367 0.015087241
-0.01815 -0.011588282 0.0049705077
-0.011850001 0.002325793 -0.0071308338
-0.0067222225 -0.012782779 0.02367978
-0.0080000004 0.012490386 0.022445155
-0.018486708 0.013785824 -0.0055796802
-0.024096061 0.0096843773 0.011314253
-0.019575013 0.014081349 0.0048662182
-0.006454953 -0.018033238 -0.019904239
-0.022106456 0.011793926 0.0090592615
-0.0046625496 -0.01106478 -0.010009495
-0.0061231805 0.010865059 -0.010269775
-0.0056762081 -0.009275266 -0.011628178
-0.027150001 -0.0072717411 0.013645626
-0.011850001 0.0086665237 0.010738177
-0.017519986 -0.011995343 -0.013290026
-0.01815 -0.0063054799 -0.01111617
-0.011417001 -0.0035992565 0.0085480213
-0.0080000004 -0.018912399 -0.0094148638
-0.0080000004 -0.019990632 -0.015788769
-0.015875479 -0.00062571338 0.011917621
-0.01815 0.013525798 -0.001051674
-0.01008585 -0.012235356 0.013105853
-0.022878304 -0.0131378 -0.0071441475
-0.020931778 -0.014483895 0.0038943854
0 0.025594279 -0.0059655523
-0.010281347 -0.010758852 -0.014238848
-0.029141907 -0.0011732468 -0.017845547
-0.00040568522 -0.018271269 0.0013611373
-0.025783243 0.010668292 -0.010526203
-0.0055369409 0.0049015847 -0.00074741337
-0.01620362 0.0091405949 -0.0076312865
-0.026336487 -0.01496953 0.00023145588
-0.0057589286 0.0057926071 -0.013697626
-0.002977222 0.0078858519 -0.0020064611
-0.0035936548 0.013478515 0.0063215923
-0.0033216125 -0.014904376 0.022305092
-0.023216395 -0.0067442586 -0.013303439
-0.0051798639 0.0031393382 0.01458671
-0.012866221 0.013027695 -0.012337212
-0.0020072095 0.0016249171 -0.018380532
-0.00285 -0.004902421 -0.011811421
-0.0019408945 -0.014095748 -0.022925569
-0.029795075 -0.016500961 -0.0067970976
-0.028064311 0.0042149373 0.017445121
-0.027313519 -0.0093691675 -0.01530522
-0.024758767 0.008792378 0.011998715
-0.0080000004 0.016992405 -0.0076185223
-0.0016500001 -0.011707349 -0.0086024795
-0.026717 0.0097053833 -0.0027103929
-0.0073615746 0.00089265301 0.0048824609
-0.018431557 0.012430072 -0.00015138014
-0.026574261 -0.0044331243 -0.014260742
-0.0078676064 0.0058043986 -0.013692742
-0.028694391 0.0079332292 -0.012657969
-0.00285 -0.0017536575 -0.015318259
-0.030000001 0.013979402 0.007855284
-0.0072407601 -0.020531539 0.0016850316
-0.0092165414 0.0010075551 -0.01786736
-0.0056366287 -0.010914971 0.024453448
-0.0225963 0.014424043 0.0040388815
-0.020392543 -0.016628684 -0.0064887404
-0.013868039 -0.0086718695 0.0082421536
-0.0040958365 0.0038685563 0.022998413
-0.0080000004 -0.0042078746 0.020407017
-0.011417001 -0.0075903269 0.0093500605
-0.00285 -0.0052153277 -0.012131325
-0.010441039 0.004893288 -0.00081042678
-0.0032830001 -0.0089006694 -0.0028260904
-0.010438397 0.0058569587 0.013670972
-0.024914419 0.0091531649 -0.015470969
-0.016724743 0.0032622318 -0.01757054
-0.00165 -0.015527468 -0.002037636
-0.026334479 -0.0013597906 -0.0048023905
-0.022719275 0.0008862933 0.0048832977
-0.00039633809 -0.012010903 -0.0087764962
-0.0013095137 -0.02616917 -0.0063107964
-0.0080000004 0.015256226 0.019396214
-0.012143235 0.016512735 -0.0067686741
-0.0080000004 -0.016934587 0.007036875
-0.02002174 0.0036500208 0.017519491
-0.014658366 -0.0054865512 0.010604975
-0.013955227 -0.00151163 -0.011800984
-0.011417001 0.0075974544 0.0088119172
-0.0099960789 0.011817683 0.0090283016
-0.030000001 -0.015977584 0.007308796
-0.020473778 -0.0097018266 -0.015049955
-0.0080000004 0.015384515 0.013112512
-0.020585587 0.014556069 -0.0033720946
-0.021610249 -0.0022370268 -0.004439027
-0.028325116 -0.0068738633 0.014000925
-0.029420367 0.0018637043 0.017754652
0 -0.0074343663 0.025336448
-0.025724251 0.014262085 0.0044298824
-0.0080000004 -0.012664985 -0.016812239
-0.023299865 0.011393921 -0.013751526
0 0.013458547 0.018510846
-0.011417001 0.0084131351 -0.0074866125
-0.02049187 0.00026640261 -0.01496493
-0.0025872008 -0.026199399 -0.0060811802
-0.030000001 -0.0047933394 -0.014882048
-0.011558672 -0.0071222726 0.013051296
-0.027150001 -0.010860068 -0.0072327121
-0.0074471622 0.014536471 0.0035209563
0 -0.022582751 -0.0082410472
-0.029303838 0.0078573069 -0.016061813
0 -0.0062842686 -0.025896914
-0.015756721 0.0055141915 0.010593526
-0.02423574 -0.017042741 0.0054891026
-0.015931481 -0.01023477 -0.014641002
-0.00051607139 -0.003228843 0.024306571
-0.0077693849 0.0036433339 -0.014520361
-0.01201474 0.013829638 -0.011292128
-0.0086336834 0.011781306 0.013454268
-0.027150003 -0.01524536 -0.0045181406
-0.023010338 -0.0065892059 0.013367663
-0.011850001 0.011490177 0.0075003803
-0.030000001 -0.012696957 -0.0088298097
-0.0011895982 -0.019812463 0.0033201864
-0.027150003 -0.013983731 -0.0055130762
-0.018583002 0.010286687 -0.0026706252
-0.0080000004 0.016801832 0.020461129
-0.0041 -0.0032280241 -0.022799212
-0.00066886179 -0.0025090952 -0.018926572
-0.019525429 -0.0093471538 0.015322113
-0.022422846 -0.00081316434 0.0048929276
-0.0030562354 -0.0038974332 0.026486896
-0.028350003 0.007959296 -0.012336131
-0.027075905 0.00990499 0.010740694
-0.008242039 -0.0067655952 -0.013294601
-0.013684545 -0.0039698314 -0.011233211
-0.011850001 -0.0043265261 0.0067115841
-0.0091806417 -0.010389866 -0.014521988
-0.0059552817 0.014161473 -0.022875138
-0.0079039438 -0.012308623 0.0083885044
-0.022851652 0.010076149 0.01476272
-0.02323851 0.0023041028 -0.017696673
-0.0070223049 0.0085959053 -0.012149476
-0.027112126 0.01416217 -0.0028798112
-0.0047749854 0.0076004947 -0.012913289
-0.013431275 0.010711488 0.0052294019
-0.026717 -0.012245306 -0.00054109289
-0.028073777 -0.00079491374 -0.017895352
-0.0039888993 0.0041960678 -0.0026746669
-0.010773412 -0.0081441933 -0.015942983
-0.024636377 0.01688852 0.0058614314
-0.0026673432 0.0063873027 -0.014578048
-0.00065749482 -0.01391257 0.0052736872
-0.018916383 0.001999927 -0.017736718
-0.029896576 -0.0096039139 -0.011375996
-0.0081310943 0.0024516208 0.014677248
-0.0041737412 -0.012139844 0.023946093
0 0.014315538 -0.01265283
-0.026717 0.0048839706 0.009028866
-0.010669855 -0.017718354 -0.0021394168
-0.0050382558 0.02169097 -0.0022092948
-0.00285 0.013147952 0.0082351482
-0.0080000004 0.017425526 -0.015554837
-0.0016500001 -0.014320084 0.0058090757
-0.030000001 0.007766427 -0.013926229
-0.028350001 0.0090779196 -0.012202989
-0.012652855 0.0055398699 -0.017021714
-0.010886294 0.012189202 -0.008544134
-0.018239759 0.015580187 -0.0090108356
-0.011850001 0.007157715 -0.010351492
-0.026884316 -0.0050830208 -0.013868428
-0.025023408 0.012412579 -0.012969863
-0.011850001 0.0057023834 -0.0013447037
-0.0080000004 -0.013757874 0.016435018
-0.0088223508 -0.009607153 -0.01137351
-0.030000001 -0.011468745 -0.012123187
-0.0032830001 -0.0054349871 0.0087491628
-0.00285 0.0028490846 0.012987787
-0.0080000004 -0.018846966 0.0015595156
0 -0.014136325 0.016201513
-0.026717 0.0036448091 0.0096215382
-0.026645593 0.016623499 0.0065012556
-0.0096718986 -0.016115047 0.0077287867
-0.027150001 -0.015028198 -0.0013179429
-0.0025723483 -0.022831388 0.014218488
-0.0016500001 -0.0052338322 -0.014562327
-0.011850001 0.012712517 0.0038338844
-0.0086157918 -0.0050578779 0.014001962
-0.0035677245 -0.00021630956 0.014971524
0 -0.013737613 -0.020034125
-0.01944606 -0.01286747 -0.0076602055
-0.027926382 -0.013954297 0.011129675
-0.0055477452 0.0081549613 -0.012487827
-0.0026220069 -0.020680949 0.0037461633
-0.028109645 -0.010488 -0.014446686
-0.024508851 0.010284226 -0.01085397
0 0.0092130546 -0.011959394
-0.014640006 -0.001246893 0.011835838
-0.026301621 -0.0096084019 0.011372551
-0.026717 -0.00991558 -0.0067481687
-0.024214489 0.0047715497 0.014120562
-0.0016500001 -0.008507425 -0.010687415
-0.015226174 0.0036835214 -0.011351803
-0.008694727 0.017917367 0.00062770379
-0.0074769161 -0.0045338785 -0.0020080348
-0.0189554 0.016049806 0.0078862971
-0.020388199 0.0056772195 -0.013745422
-0.017566828 -0.010391602 0.0060009109
-0.028412724 0.0033639206 0.014557146
-0.027689988 0.017775841 0.0017027383
-0.022388894 0.0069726324 -0.013208844
-0.030000001 -0.004343973 -0.014827191
-0.030000001 0.0050859158 0.016485708
-0.00058785721 -0.0023875881 -0.014685677
-0.011850001 0.0024115255 -0.0068314262
-0.0080000004 0.010333151 0.018841187
-0.015392499 0.015862027 -0.0083396407
-0.018583002 -0.0063249636 -0.0064988621
-0.018463897 -0.001423967 -0.014735846
-0.018648308 0.0092966026 -0.011577757
-0.0024605612 0.018821608 -0.002372314
-0.016204415 -0.0028227207 -0.0176284
-0.0080000004 -0.01684195 -0.015991896
-0.0032830003 0.0018264127 0.008111422
-0.0043540639 -0.0059328233 -0.013639546
-0.018439328 -0.0074919201 -0.0098098833
-0.010124362 -0.014011575 -0.0050346688
-0.016355004 0.007134296 -0.016361289
-0.0013231711 -0.0031928991 -0.019646592
0 -0.009329061 0.022612289
-0.0038624471 0.020719357 -0.016970951
-0.00285 0.012844519 -0.0078863064
-0.005568557 -0.0024012376 0.014683881
-0.00089051167 0.019607369 -0.0031628006
-0.019383702 -0.011122234 -0.0099346191
-0.002142065 -0.013542419 0.0084906314
0 -0.017284535 -0.019777996
-0.026717 0.0066154562 0.0057757674
-0.0097220764 0.011733515 -0.0091379909
-0.004400583 -0.02679076 0.0015893386
-0.026717 -0.0083478093 -0.0023087095
-0.00285 0.012771797 0.0050034812
-0.028350001 -0.014185954 -0.0016791491
-0.0046688332 0.008144049 0.012496201
-0.018583002 0.0077112508 -0.006479186
-0.014945492 0.00011584567 -0.01798475
-0.017117087 -0.010641982 -0.0053972071
-0.0080000004 -0.015856184 -0.012908295
-0.0083435718 0.0028619999 -0.014623222
-0.020195421 0.012999525 -0.0074779713
-0.027524659 -0.011920606 0.010034232
-0.02715 -0.0083136782 -0.012236337
-0.0028930756 0.010382872 -0.010182765
-0.01901748 0.01374271 0.0056837634
0 0.021965133 0.011411528
-0.019875556 -0.0083570061 -0.015854834
-0.024621615 0.014320835 0.0042880503
-0.0097210752 -0.014771622 -0.0017347618
-0.01815 -0.0024245733 0.012581439
-0.018583002 -0.0096580889 0.0015046163
-0.018583002 0.010036979 -0.0062322635
-0.02960594 -0.0048072929 0.017325152
-0.0042738626 -0.014528928 -0.003578251
-0.0028595468 2.6581045e-05 -0.014996501
-0.026722342 0.01103071 0.010053894
0 0.01497315 0.015030289
-0.0052729552 -0.0046228501 -0.014182154
-0.022934152 -0.016596204 0.006567155
0 -0.0065047839 -0.017468849
-0.018583002 0.005970919 -0.0078955591
-0.006278039 0.021208692 -0.0020867623
-0.024826735 0.0013109139 -0.017827423
0 -0.009044596 -0.019342002
-0.0022577364 0.0045062467 0.014981611
-0.01815 0.01239466 0.00074386183
-0.0087264283 -0.0082016615 0.012451992
-0.022189733 -0.0039541316 -0.014459147
-0.01815 -0.012270086 0.0064050988
-0.011277081 -0.014612519 0.0028881661
-0.0066572679 -0.0088688349 0.025300981
-0.0088820616 -0.00012034651 0.014984157
-0.0080000004 -0.012282029 -0.023723099
-0.00018942864 -0.024327388 -0.01121931
-0.010872935 0.0050941235 0.013986947
-0.0040530348 0.0065928106 -0.026132042
-0.020173891 -0.014796267 0.0015475636
-0.00061249227 0.0026191676 0.024988962
-0.02157262 -0.0053260201 0.017110292
-0.011525539 -0.0079486957 0.0094593968
-0.026402583 -0.014520518 -0.0036421421
-0.011417001 0.0060002529 0.0084431097
0 0.013124589 0.0096847657
-0.0016500001 0.010952629 -0.0047668549
0 0.014862555 0.018139744
-0.004108985 0.001542533 0.014796929
-0.0041 0.022761004 0.0024668938
-0.011163818 -0.012878357 0.0076460182
-0.0080000004 -0.016769005 0.015002283
0 -0.0093544126 -0.024676392
-0.0065937536 -0.024135485 0.00067362981
-0.0080000004 0.015589851 0.021694599
-0.0080000004 -0.010141938 0.021072207
-0.022059655 -0.015562632 -0.0090337107
-0.0094162691 0.0025904998 0.014658964
0 0.02387296 0.009343476
-6.4605141e-05 -0.024017632 -0.011967134
-0.0045606019 0.010868534 -0.010265243
-0.0080000004 -0.024479453 -0.0080400314
0 0.0094907833 0.021424979
-0.019261708 0.014131983 -0.0047439774
-0.0095246583 -0.0094645992 -0.011482897
-0.011417001 -0.0058468441 -0.0061391289
-0.0028524604 -0.020309633 0.017504916
-0.018741602 -0.015640879 0.0088735474
0 -0.013831431 -0.013331926
-0.028408922 -0.017497849 -0.0038144016
-0.0080000004 -0.010153709 -0.021243304
-0.0080000004 -0.024454117 0.0051487391
-0.0016500001 0.011969981 0.0092697712
-0.0080000004 -0.017581703 0.010487707
-0.027150001 0.012761289 -0.0039512473
-0.0060332627 -0.02515693 0.0092166048
-0.0080000004 -0.015456066 0.0098602548
0 0.024436556 0.0091515779
-0.0016500001 -0.0077281641 0.011246596
-0.011849724 -0.0051130024 -0.0021617212
-0.0080000004 0.016449625 0.013056365
-0.027150001 0.013222218 0.0073597836
0 -0.013942233 0.020005222
-0.023813058 -0.0057555535 0.016932376
-0.0092611602 -0.0093407491 -0.011577931
-0.0038310129 0.010981586 -0.010117914
-0.0032868644 0.013803864 0.0054228059
-0.027866151 0.0018298966 -0.013307828
-0.011852744 0.0013235239 -0.011825749
-0.011236438 0.008206266 0.012448459
-0.0060858 0.025041392 -0.0094955415
-0.023074597 0.0069148568 0.013232775
-0.023722118 -0.0043608551 -0.014290676
-0.016325893 0.0031064537 -0.017591048
-0.0045101717 -0.014696765 -0.0023033675
-0.002076997 0.019171828 -0.018987739
-0.0039745034 0.026216233 0.0059533156
-0.013719807 0.011611949 0.013584225
-0.02715 -0.008947379 0.010717053
-0.027150003 -0.012472218 0.0079713827
-0.011588963 0.00097200088 -0.014752667
-0.0026996443 0.013978218 0.0078354431
-0.028109016 -0.0043213102 -0.012332999
-0.0079346355 -0.00054007058 0.014928901
-0.0080000004 0.01346493 -0.015457246
-0.0016500001 -0.01180287 0.0053975843
-0.012388957 0.010425921 -0.005918833
-0.018150002 0.0073748333 -0.01109823
-0.0028683359 0.012589982 -0.0070895161
0 -0.018320566 0.00960931
-0.0022713849 -0.003781361 0.020765921
-0.023329565 0.015671771 0.0087989643
-0.026882118 -0.0067919623 -0.013162951
-0.010950492 0.014657903 -0.0025985723
-0.011626465 0.012342062 0.008089493
-0.030000001 0.0062997653 0.013870315
-0.005696374 0.023644513 -0.01286793
-0.011850001 -0.00764006 -0.011995262
-0.00285 -0.0046314793 -0.0045071081
-0.01815 0.0028085907 -0.0074625425
-0.0044269725 -0.022306334 0.0022096504
-0.011490309 0.01159049 0.0042731985
0 -0.0067037852 -0.024630781
0 0.016355576 0.018060373
-0.011552569 -0.0042640129 0.0027212326
-0.02497533 -0.013145105 -0.007126512
-0.011776831 -0.0010911274 0.0080063548
-0.0080000004 -0.013281533 0.019452086
-0.014648015 -0.015258496 -0.0094300583
-0.0037426702 -0.0031555165 -0.014584582
-0.025379809 -0.005249422 -0.013922621
-0.0024973149 0.016927019 -0.020753069
-0.0032830001 -0.011535271 -0.0010571714
-0.02278859 -0.0025484511 -0.0042929212
-0.01178893 0.0128549 -0.0076765865
-0.01815 0.0030701563 -0.012052407
-0.00285 0.0049560042 -0.0030099065
-0.00285 -0.0030601483 -0.013945123
-0.02623887 0.010912812 -0.010207541
-0.0033379705 0.0091906097 0.025167698
-0.011951892 0.0057234759 -0.016945662
-0.018583002 -0.0020361603 -0.010003823
-0.011850001 0.001372702 -0.014156599
-0.0080000004 0.019641103 -0.00024654856
-0.012633918 -0.015034481 -0.0097219935
-0.011417001 -0.0064884885 0.0079851206
-0.018583002 -0.0089600366 1.1357844e-05
-0.0099302018 0.016813241 0.0060431762
-0.01815 -0.012358081 -0.0051320749
-0.002331499 0.0045863236 -0.0263962
-0.00285 -0.0068064244 -0.012787411
-0.00010821571 0.014692436 -0.0023362522
-0.01185 0.012601091 -0.0048817936
-0.004191197 0.01664667 0.020968186
-0.026940191 0.014409329 -0.0040744022
-0.01815 -0.0032080861 0.013893614
-0.00285 -0.013588187 0.0026717035
-0.0193942 -0.014290201 0.0043620015
-0.0017161928 0.002703466 -0.015694072
-0.0080000004 -0.0084388452 -0.022723598
-0.0040628905 0.0028567424 0.024791468
-0.018653875 0.017623238 0.0028619291
-0.011587787 -0.010723233 0.0104546
-0.0080000004 0.012524615 0.018823102
-0.0060062069 -0.02239372 0.0021981399
-0.015556004 -0.016994199 0.0056062988
-0.024868295 -0.011014241 -0.014042876
-0.025883365 -0.008218471 -0.015912216
-0.00010351692 -0.019698393 0.0032326514
0 -0.017941754 -0.018961156
-0.027150001 -0.010602389 0.0064660413
-0.026717 -0.0027386418 -0.009622341
0 -0.017360494 -0.0048915884
-0.027150003 0.0035360572 0.015095006
-0.02556104 -0.014603107 0.0030147911
-0.011417001 0.0078909565 -0.0045988951
-0.00025113963 -0.023851739 -0.003525513
-0.027150001 0.013919868 -0.00048887194
-0.026717 -0.0065343911 -0.0098844636
-0.028279999 -0.010365249 -0.007419318
-0.0094595486 -0.0044137472 0.014268769
-0.00285 0.0067908657 0.010366586
-0.02715 0.01110879 0.0051534399
-0.027150001 0.004288848 -0.013483136
-0.022293435 0.0012005749 -0.014841947
-0.02715 0.0061526918 -0.010919116
-0.02045165 0.0049688388 -0.014038842
-0.00068574818 0.002304123 -0.025230723
0 0.0053541004 -0.024194527
-0.011850001 -0.014291165 0.00094614952
-0.026574526 -0.0048727109 0.0010166157
-0.0019109393 -0.0039040302 -0.021271039
-0.013494044 -0.0025198155 -0.017668277
-0.0010368702 0.011239628 0.0097816298
-0.0099252397 0.009068992 -0.011786461
-0.0059253112 0.0041840533 -0.002690325
-0.0077223601 -0.022834733 0.0020687829
-0.018583002 0.00062144693 -0.0096518174
-0.020409653 -0.011568433 -0.013617617
-0.00285 0.010986805 -0.011369155
-0.0080000004 -0.025386039 0.0061947252
-0.0032830001 0.0087302802 -0.0021417295
-0.0027339298 -0.015725156 0.0024673615
-0.025705613 -0.013968005 0.0051398547
-0.0042756321 0.01592483 -0.021522071
-0.0030857315 0.013899105 -0.0049313377
-0.0020449844 0.0035051762 0.026538538
-0.0080000004 0.016461764 -0.015082795
0 0.0065782312 0.025649017
-0.01815 -0.0032514085 0.0046870247
-0.011400454 0.010061012 0.010974896
-0.0080000004 0.0019845644 0.018434677
-0.010569233 0.003151858 -0.0038298913
-0.0018150826 0.0057339277 0.014848681
-0.030000001 -0.0008071725 0.017802158
-0.026163589 0.004446262 -0.014255301
-0.030000001 0.0090099014 -0.01462992
-0.0025847433 0.0086738914 0.025381727
0 0.01616477 -0.0047054617
-0.0029082738 0.026460091 0.0041010473
-0.026323019 0.0015594712 -0.014794699
-0.0080000004 0.00089218997 0.018126244
-0.0041 -0.0028334018 -0.022954201
-0.0080000004 -0.018384499 0.0023276519
0 0.010004059 0.012664948
-0.026717 0.0078197867 -0.0085980436
-0.01815 0.005715569 0.01281856
-0.016212605 0.0067657111 0.009804762
-0.012954156 0.017755974 -0.0018536464
-0.011850001 -0.010550755 -0.0088645695
-0.00040007217 0.018430805 -0.0017462813
0 0.0069519561 0.023247533
-0.01708065 0.0051395586 -0.017187525
-0.011850001 0.0084056202 0.0093522612
-0.025552021 -0.010147306 -0.010959032
-0.012747618 -0.016833115 -0.0059951949
-0.021346292 0.012404434 -0.0082636401
-0.015587348 -0.0034593656 0.011444651
-0.026605502 -0.0071479459 0.013136228
-0.0016500001 -0.014501031 -0.00066369009
-0.021453649 0.011526713 0.0094074979
0 0.015587579 -0.017432427
-0.026717 0.00029419721 0.009025286
-0.01815 -0.0052217119 -0.012532189
-0.0044429302 0.0080981376 -0.01253143
0 -0.015820317 0.012414334
-0.00285 0.0033574719 -0.0047458489
0 -0.01198778 0.023206955
-0.0080000004 0.018084016 0.0013499669
-0.0040130229 0.002985992 -0.019376963
-0.011850001 0.014516931 -0.0013222937
-0.0036035569 0.00047960103 0.014936863
-0.0024709851 -0.011073218 0.011560787
-0.018312 0.017376903 -0.0046823504
-0.0030258065 -0.0049818126 0.0014567097
-0.0016500001 -0.011955727 -0.0083419867
-0.028285334 0.011757981 -0.0050449492
-0.0041 -0.0020914096 -0.02440797
-0.022073342 0.0053105215 -0.017116712
-0.0057304869 0.02030918 -0.001460921
-0.0080000004 0.013067047 -0.014347615
-0.0030217888 0.0092476578 -0.025144067
-0.0036619531 0.010849577 0.010289952
0 -0.013425884 0.019664196
-0.026194651 -0.013055929 -0.012300419
-0.027150001 -0.010664864 -0.0082509816
-0.011292592 0.017539216 -0.0035001819
-0.026717 0.0091585824 -0.0043773167
-0.027150001 0.015177265 0.0021107541
-2.4560746e-05 0.0026915495 0.014645661
-0.00093800086 -0.024174934 -0.0033298591
-0.0036109469 -0.0033786581 -0.019888658
-0.0032830001 -0.0028905813 -0.01083388
-0.0085365269 -0.01352434 -0.0062109609
-0.023203252 -0.017480601 0.0039454177
-0.0080000004 -0.018069463 -0.0073978244
-0.02728462 -0.012056082 0.0039292136
0 0.0068487744 0.017123967
-0.028349999 -0.0093195904 -0.011769706
-0.011850001 -0.011146727 -0.00679956
-0.0049086162 -0.0083560189 -0.01233355
-0.0043722652 -0.024774767 0.010139233
-0.0015642243 -0.019045567 -0.019127455
-0.024862455 -0.013743117 -0.0056827813
-0.029870901 -0.010594463 -0.010615914
-0.014107616 -0.013647697 0.011529232
-0.0018587948 0.012870021 0.0057922425
-0.027150001 0.0024820778 -0.015255704
-0.021038553 -0.0020330185 0.014732357
-0.0081738885 -0.013122967 -0.007179956
-0.01851413 0.012502894 0.012900558
-0.00285 -0.0035102137 -0.0056551346
-0.011846722 0.0050074426 -0.0023875199
-0.00165 -0.005781984 -0.013077702
-0.022950273 0.014936718 0.0098493965
-0.0032954619 0.0019196261 0.026747277
-0.027027773 -0.012191948 -0.001960218
-0.023659298 0.0099742739 -0.011091806
-0.00285 0.0010537619 -0.015137265
-0.028350001 -0.01313815 0.0060517485
-0.00033183163 -0.021959431 -0.015354848
0 -0.0067035286 0.022076359
-0.0062026237 0.013088912 -0.0072621717
-0.0080000004 0.012143731 -0.022197261
-0.01097308 0.0061430782 -0.013552456
0 0.012422428 -0.013193701
-0.026717 0.0059777941 0.0075668064
0 0.020098278 0.010516899
-0.0080000004 -0.025679931 -0.002308107
-0.024677712 -0.014588105 -0.00312875
-0.0029937294 -0.0044751698 0.0067510321
-0.028349999 -0.0096184937 0.0098042861
-0.028425775 0.0062621818 -0.013503122
-0.0080000004 0.020861315 0.011513039
-0.02357935 0.01434356 0.010622392
-0.023306845 0.0090820659 -0.011776429
-0.0050058202 -0.0058307135 -0.026232373
-0.017156551 -0.01540246 -0.0092424443
-0.011850001 0.0023223923 0.012149718
-0.018402997 0.014695315 0.01016399
-0.027262403 -0.017278815 -0.0049191616
-0.0047421241 0.025817996 0.0076206438
-0.0027948387 0.0040712804 -0.015513992
-0.027150001 -0.012980533 0.0021819791
-0.01362967 0.012320574 0.013040462
-0.0023423315 0.011106923 0.011094661
-0.01815 -0.0010742521 -0.012478393
-0.011417001 0.00858285 0.0037125584
-0.018583002 -0.0043395106 -0.010036175
-0.0098339636 -0.00051609828 0.0049320427
-0.01815 0.0048757656 0.012032221
-0.011850001 0.012874641 0.0017214965
-0.013209986 0.00684324 0.0097452728
-0.023379628 -0.0031564499 -0.0038263677
-0.018583002 -0.0062957956 0.0091535449
0 0.019833574 0.0065418817
-0.0035689622 -0.026149105 0.0064632143
0 0.010484656 0.021659242
-0.0061667003 0.01070439 0.010479159
-0.0091377972 0.012010113 -0.0087775234
-0.026414327 0.013639671 -0.0059325229
-0.011417001 -0.0078999847 0.0063957893
-0.020397302 0.017697223 0.0022999404
-0.01815 -0.0076841176 -0.00028190794
-0.018271917 -0.0060465443 -0.0053932555
-0.011063319 0.0050950185 0.013986575
-0.020358587 -0.0087686609 -0.012016914
0 -0.015450244 -0.0054142321
-0.006642838 0.0058531775 -0.013672536
-0.02715 0.011880714 -0.0077629196
-0.01697189 -0.01125134 -0.0039260662
-0.0080000004 -0.024627831 0.0056684329
0 0.020447882 0.010961712
-0.00165 -0.015160508 0.0023158721
-0.0058692819 -0.0022200865 -0.021772899
-0.018583002 -0.0088447072 0.0082680788
-0.02715 -0.010449523 -0.009198199
-0.010890123 -0.01420116 -0.0045769722
-0.026652567 -0.0096040219 0.011341593
-0.0032830001 0.011371954 0.0014508144
-0.019339651 -0.0043011471 -0.01743377
-0.026717 0.007205172 -0.0072936993
-0.028350001 0.0094574066 -0.012348616
-0.011417001 0.0048494139 -0.010051826
-0.0080000004 0.024895122 0.0086497385
-0.0060519096 0.00651816 0.026141869
-0.0035669163 0.0095343674 0.011429362
-0.018583002 0.0073264013 -0.0054239393
-0.002589369 -0.012548921 0.0092153847
-0.0071784696 -0.026854822 -0.0011027432
-0.0080000004 -0.0073490166 0.020199502
0 -0.0071010375 -0.016550519
-0.027150003 -0.0055079702 -0.0040703728
-0.021813832 0.0043483637 -0.017427554
-0.0028499998 8.5520151e-05 0.0077625397
-0.0038894732 -0.021616541 0.015801715
-0.01815 -0.0023218447 -0.012450653
-0.015678413 -0.016268393 0.0073585724
-0.0014422063 -0.0018472204 0.025527384
-0.011723954 0.0071862866 0.012847399
-0.0051824911 -0.017040437 0.020666039
-0.026417257 -0.014638576 0.0027453792
-0.028350003 0.0062164292 -0.013417299
-0.028350001 -0.0097891772 -0.01171031
0 0.021964189 0.010242536
-0.00285 -0.0028841035 -0.015034974
-0.0048752604 0.025619619 0.0080995718
-0.00044938593 0.02433799 0.011193711
-0.011417001 -0.0075341901 0.0079624467
-0.0019348812 -0.026532901 0.00354799
-0.01302444 0.011489692 -0.0033506248
-0.011850001 0.012824022 -0.00021372343
-0.00285 -0.013025615 0.0036307788
-0.00046452013 0.011975306 0.0088228853
-0.0030377046 0.00079440227 0.018104587
-0.014580422 0.013236972 0.012064484
-0.029509859 -0.0176623 -0.0025652128
-0.01930042 0.013192822 -0.012122021
-0.011623656 -0.00015078533 0.017980149
-0.023757339 0.014680086 -0.0024300579
-0.012567683 -0.014790772 0.01003959
-0.0028766133 0.016550647 0.021041866
-0.0039507258 -0.0073959697 -0.013033492
-0.002043409 -0.019771811 0.0032889915
-0.011850001 -0.0057506016 0.011606302
-0.00285 -0.012404743 -0.002956646
-0.01815 -0.011445357 0.0073138806
-0.024848197 -0.0045511294 0.017400861
0 0.014507127 0.0060284687
-0.023785226 0.01544002 -0.0091935005
-0.0034684632 -0.006694464 -0.026118658
-0.0064085973 -0.014188129 -0.0046084253
-0.02180315 -0.0019604601 0.014741908
-0.021754785 -0.015310346 0.009362489
-0.00165 -0.00090572145 0.014855645
0 0.009133582 -0.024559472
-0.027150001 0.0053568967 0.0043766098
-0.0057725511 -0.022562677 -0.014568681
-0.0034058809 -0.019893561 -0.0033824192
-0.00021893161 -0.023766413 0.0035608569
-0.0055712815 0.010719518 0.010459444
-0.0032830001 -0.0015984875 -0.010714243
-0.020678865 -0.014592093 0.0030984515
0 0.0063846591 -0.02483619
-0.0080000004 0.01913086 -0.013758464
-0.0080000004 -0.020059291 -0.013695626
-0.0085155321 -0.017188514 0.0051371739
-0.0032065269 -0.00035025738 0.0050191418
-0.00070703379 -0.0039051711 -0.022720298
-0.0080000004 0.020371519 -0.013125884
-0.0097275432 0.016592281 -0.0065766275
-0.019167379 0.012993467 0.0074925981
-0.0025058151 0.0080105923 -0.013473376
0 -0.014575761 0.0033541094
-0.018655194 -0.0022181829 0.014682571
-0.0034954504 0.014994799 3.9505372e-05
0 -0.0022714834 -0.017849231
-0.011850001 0.0057721902 -0.011789063
-0.019571552 -0.013788684 0.0055727731
-0.029118251 0.002182361 0.017712701
-0.011850001 0.0034797487 0.0064361566
-0.0080000004 -0.014571484 0.014319733
-0.00285 -0.013541611 -0.0038091608
-0.0096562253 -0.0041691517 0.014370083
-0.025035601 0.010229079 -0.010896285
0 0.01804989 0.017045243
-0.00285 -0.015092605 -0.0010304289
-0.018583002 0.0097150775 -0.00092076283
-0.029059473 0.014305795 0.010671608
-0.028015368 -0.012942775 0.0087020956
-0.026138177 -0.0089483093 -0.011879063
-0.0069256951 0.024113609 0.011735418
-0.011850001 0.0099592451 0.0084774802
-0.023394722 0.0036236395 -0.00342064
-0.0028826012 0.010857392 -0.010279766
-0.025189439 0.01445037 -0.0039753197
-0.0028499998 0.0039276895 0.0042149629
-0.027150001 0.010648312 -0.0068766195
0 -0.013760985 -0.015704861
-0.002491907 0.0070253043 -0.026064591
-0.029163811 -0.01451973 -0.0036481309
-0.023500783 -0.014047991 0.004946752
-0.0016500001 -0.015351586 -0.0021580881
-0.010574928 -0.0069286833 -0.016446456
-0.022288902 0.014490115 -0.0038730737
0 -0.018670758 0.011199186
-0.0030386522 0.014746075 -0.022426557
-0.023811815 -0.014694151 0.0023232319
0 -0.0060087466 0.017541308
-0.027150001 0.010212924 -0.0062098815
-0.012197909 0.0024521372 -0.017677186
-0.015222569 -0.0054765502 -0.010609118
-0.026580898 -0.011447493 -0.0094972663
-0.015729016 -0.016425079 -0.0069802967
0 -0.0088591129 0.016950633
-0.0080000004 0.024356635 -0.010308189
-0.02661545 0.0016974695 -0.014758984
-0.0087013869 -0.017828569 0.0013022275
-0.027384019 0.0030929791 0.013141539
-0.024558552 0.00024246617 0.017968079
-0.018583002 0.0010846453 -0.0080117788
-0.0016905885 0.026387786 0.0046502347
-0.01815 -0.0034914757 -0.0072225546
-0.00018694677 0.013435257 -0.0064260238
-0.013596782 -0.011461435 0.013699721
-0.013290004 -0.011165088 -0.0041342978
-0.0032830001 -0.0063585732 0.0082424907
-0.010072799 -0.012676541 0.012767311
-0.0080000004 -0.0023816261 0.022693949
-0.027150001 0.011881044 -0.0099592404
-0.010514932 -0.0032104249 0.014577352
-0.018583002 0.011348151 -0.0013254308
0 0.0093440711 0.025102507
-0.00285 -0.010866501 -0.0086185057
-0.012633048 0.0021671245 0.011714684
-0.0045610168 0.00024103868 -0.024218252
-0.017734241 0.011666918 0.0025299247
0 -0.021865303 0.013026251
-0.020311253 -0.014497438 0.0038174449
-0.018583002 0.0087357024 -0.0045348732
-0.0079572769 -0.014838282 -0.0012284137
-0.0031369426 -0.02156876 -0.015863981
0 0.016991867 -0.0077103875
0 0.01815759 -0.0079853041
-0.01815 0.011504583 0.0045445431
-0.0041 0.00074989296 0.019417999
-0.01815 0.0057004616 0.011506278
-0.0080000004 -0.011524951 -0.023185926
-0.018583002 0.0076505537 0.0040231179
0 0.022239899 -0.0043468075
-0.0098139457 -0.0081007732 0.012529407
-0.027150001 -0.0026160055 0.014145554
-0.020022523 -0.017397067 -0.0045799571
-0.025930455 0.016304962 0.0072702784
-6.0829716e-05 -0.02634112 0.0050047007
-0.0074495715 -0.01245258 0.023816554
-0.011850001 0.0037896754 -0.0041176518
-0.0017109449 0.011783509 -0.010212907
-0.0063087982 0.0041694012 0.01436998
-0.0025676161 -0.026405664 -0.0045144511
-0.0034389119 0.013411565 0.0064832214
-0.0049764728 -0.014215305 -0.0045428202
-0.023755852 0.0042001228 -0.014357255
-0.01815 -0.0010773987 0.012652
-0.0073685171 -0.020437298 0.0016127146
-0.019271238 -0.017709013 -0.0022103749
-0.0085361861 0.015573178 0.0090199681
-0.029370606 0.016501334 -0.0067961928
-0.025082177 0.013239617 0.0068983422
-0.015529355 -0.0078494996 0.008973157
-0.0057180454 -0.014741761 0.0019615868
-0.011850001 -0.010884186 0.0087026469
-0.0087119676 0.0024677704 -0.017675128
-0.01651768 0.0076573957 0.016144618
-0.022107301 0.00355279 0.014532281
0 0.02354043 0.0079896227
-0.030000001 -0.014623006 0.0082409997
-0.030000001 0.011527148 -0.012108457
-0.0080000004 0.017685441 0.016786614
-0.014743722 -0.017549507 0.003422
-0.018149998 0.0078218654 -0.0016911842
0 -0.019830324 -0.012807092
0 0.0076841488 0.02004274
0 -0.017041365 -0.0056758076
-0.0020421315 -0.022207461 -0.015031611
-0.02457127 0.00097261555 -0.014871957
-0.013374867 -0.0066092275 -0.016578779
-0.024681257 0.01572836 -0.0086623421
-0.0087665059 0.014381371 -0.0041419016
-0.030000001 -0.0049484135 0.01460944
-0.015132506 -0.0092058657 0.0075462232
-0.014744843 0.011428475 0.013725013
-0.0054785754 0.01321107 -0.0069672596
-0.02490331 -0.0039731958 0.017476944
-0.026717 0.0087117637 0.0026769417
-0.016057629 0.011147443 -0.0041768975
-0.019782128 -0.011575607 -0.0093437787
-0.011850001 -0.0038763077 -0.014311935
-0.0035392563 0.0221294 0.0039829644
-0.0080000004 0.007593527 -0.017408211
-0.0088069309 0.017655846 0.0026142455
0 0.025980815 0.0023358355
-0.0016500001 -0.013168261 0.0080626868
-0.010482156 0.0060822051 -0.016797075
-0.00285 0.014216896 -0.0063205208
-0.0075632567 0.0075477567 0.012953757
-0.01246946 0.0097212158 -0.0068745911
-0.0032830001 0.011353616 -0.0027928019
-0.011697083 -0.0046593379 0.002294478
-0.026717 -0.0061757783 0.0094802314
-0.0067576775 -0.013505088 -0.0062574344
-0.00285 0.0029045083 -0.006098018
-0.020474717 0.016238173 -0.0074315276
-0.01444434 0.017062068 0.0054424424
-0.025113665 0.014845527 0.0011733746
-0.0037099563 0.0036151796 -0.0034316641
-0.0046745976 -0.0022926799 0.0044159754
-0.0074048894 -0.020725392 0.0018337935
-0.01815 -0.013483615 -0.0057228543
-0.0080096554 -0.011131121 -0.013953187
-0.027150001 0.013448482 0.0053068679
-0.024417743 0.010869554 -0.014153899
0 -0.017940039 -0.0045149103
-0.010242951 -0.014619184 -0.0028926795
-0.0098945824 -0.017440574 -0.0042494745
-0.014640755 0.015256288 -0.0094329361
-0.011850001 -0.01360135 -0.0038727347
-0.014790275 0.01159433 -0.0030812668
-0.0015399054 -0.0036123225 -0.023642169
-0.026899824 -0.014815873 -0.010006879
-0.024097031 -0.015139621 -0.0095849745
-0.026805559 -0.004722931 -0.0017291055
-0.0073840814 -0.014343541 -0.0042332308
-0.013798938 -0.01687621 -0.0058911522
