# .PCD v0.7 - Point Cloud Data file format
VERSION 0.7
FIELDS x y z
SIZE 4 4 4
TYPE F F F
COUNT 1 1 1
WIDTH 1000
HEIGHT 1
VIEWPOINT 0 0 0 1 0 0 0
POINTS 1000
DATA ascii
-0.02715 -0.012114781 -0.0048867343
-0.028349999 -0.0043501635 -0.013667488
-0.00098810333 -0.025090151 0.0093778288
-0.0023185022 0.0025723749 -0.018975131
-0.013635924 -0.011986004 0.00010630588
-0.020330939 -0.011969925 -0.0088298991
-0.028350001 0.0078564072 0.013706303
-0.0056167557 0.0043993727 0.026420811
-0.018149998 -0.0020922385 -0.013540048
-0.0040999996 0.021242822 -0.0021957753
-0.0079999994 0.0031874278 -0.020463757
-0.020790208 -0.011976613 0.0133044
-0.0079999994 -0.0060995133 0.019663446
-0.0099474778 0.0065079248 0.013401331
-0.016464697 -0.011524218 -0.0032672728
-0.0036848132 -0.025887424 0.00085511664
0 0.0094997603 0.011781794
0 0.022552386 -0.0097678192
-0.021942761 0.014432102 -0.0040194257
0 -0.01766802 0.0075905388
-0.027554968 0.0045897858 0.017395772
-0.02715 0.0053640893 0.0048625642
-0.0075004967 -0.01992712 -0.00082482881
-0.011849999 0.0068219653 -0.012000582
-0.0087630469 -0.0087100426 -0.015708603
-0.010162591 0.0089501869 -0.011877623
-0.006494821 0.014698089 -0.002293308
-0.01185 0.0073203063 0.010559808
-0.018149998 -0.010610116 -0.0082743587
-0.027117189 0.0043819807 -0.0032101858
-0.018392261 0.012318892 0.0081501948
-0.018583 0.0036088172 -0.0095699998
-0.021591544 -0.014343014 -0.004234504
-0.022301339 -0.00639521 -0.01344802
-0.018504018 0.0041438099 0.0070052994
-0.026716998 -0.0089293839 0.0049763299
-0.0070786467 0.013614825 -0.0059925062
-0.025789414 -0.0085295113 0.012200423
-0.013692471 0.010961034 0.0046269353
-0.015797248 -0.0092706671 -0.00746177
-0.015811559 0.017496575 0.0038240803
-0.0039530885 -0.0013033296 0.0048257774
-0.0032829996 0.010292653 -0.0012276248
-0.019932043 -0.017642075 -0.0027188421
-0.00060270913 0.01632737 -0.021213192
-0.0084870495 -0.0048991139 -0.014067723
-0.011850001 -0.012206893 -0.0030122418
-0.018168425 0.0068105673 0.012705888
-0.010179566 0.016505651 0.0067857713
-0.0049297679 -0.0067181243 -0.013314264
-0.0014381857 0.014892745 -0.00081470964
-0.00165 0.014859688 -0.0037389738
0 0.016846033 0.012771868
-0.028058615 0.015264012 0.0033114732
0 -0.014093935 -0.014095883
-0.017047565 0.010284316 0.0061407317
-0.0018928837 0.013098257 -0.0019217341
0 0.023491744 0.013082455
-0.00055425894 0.021560388 -0.015874894
-0.026209714 -0.017306725 -0.0048517832
-0.00071063265 -0.014868798 0.00099661143
-0.026239943 -0.0034776158 -0.017542185
-0.0079999994 -0.024560444 0.0003525354
-0.0025615031 0.006878457 0.011472183
-0.009416596 -0.0048648664 0.001026271
-0.0039813179 -0.004844456 0.001181279
-0.018583 -0.0040270095 0.0071144467
-0.0029412794 -0.014112873 -0.0040409728
-0.011850001 0.011548853 -0.0070979409
-0.018149998 -0.012138585 0.0072208759
-0.0028499996 -0.0087599419 0.0096008629
-0.0066962433 0.010711623 0.024537679
-0.029215116 -0.01645356 0.006911532
-0.0042166137 0.02623179 -0.005835148
-0.0079999994 0.010391968 -0.023249909
-0.0079999994 0.0025331634 -0.025670271
-0.02399189 0.0010725913 -0.0178588
-0.018815666 -0.002701849 -0.017644312
-0.029568611 -0.008753214 -0.015690722
-0.01269703 0.012977284 -0.012402907
-0.01185 0.006385644 0.0033815405
-0.00025764314 -0.0084636603 0.012250951
-0.025330657 0.013115806 -0.0071972474
-0.011417 0.00072820048 -0.012101758
-0.020547103 -0.017489711 0.0038762323
-0.014175473 0.017475735 -0.0039823824
-0.011596312 -0.0098923072 -0.0073845028
-0.0032830001 0.0088357776 -0.0010567217
-0.0079999994 -0.01273345 -0.013413709
-0.026717 -0.0047341334 -0.0074209599
-0.0024654635 0.021323726 0.0039109676
-0.0018702849 0.012418664 -0.0099551799
-0.011651673 0.0079559581 0.012413024
-0.029827315 0.015578344 0.0090132374
-0.018149998 -0.0066061397 0.0112919
-0.010206054 -0.0047494317 -0.017349118
-0.0047283629 -0.0034890678 0.01454067
-0.0032830001 0.0093386713 0.0028076954
-0.025519026 -0.00016607983 0.014978137
-0.017462507 0.0094163679 0.0072718863
-0.010962859 -0.012546276 0.01286727
-0.026716998 0.0016175982 -0.011147935
-0.01185 -0.011592455 0.0089755403
-0.0079999994 -0.0051214569 0.021151109
-0.0079999994 0.021214994 0.00615397
-0.0032829996 0.011877597 -0.0004737885
-0.0014625827 0.012279379 -0.0084266122
-0.0033514667 0.0059659705 -0.013597467
-0.0079999994 0.022801822 0.00790531
-0.0067207343 -0.014980163 0.00015068735
-0.018166985 -0.0032637333 -0.014033679
-0.027433114 0.0024518282 -0.012377208
-0.006493473 -0.024238996 -0.011432709
-0.027183853 -0.0016154207 0.015837321
-0.0040999996 0.021770274 0.0029526856
-0.017335454 -0.0069300281 0.016445901
-0.0015950428 -0.0093560088 -0.011566222
-0.0030537331 -0.0056717675 0.0262533
-0.0079999994 0.013569418 0.018332252
-0.011290064 0.017558716 -0.0033520455
-0.0059744446 0.003451278 -0.014545645
-0.0039543556 -0.024281302 -0.011330577
-0.0050165644 -0.0030555511 -0.014597741
-0.0033234307 -0.013262409 0.006843315
-0.0096179424 -0.012773491 -0.012668487
-0.0070230183 0.0076930467 0.012842269
-0.018583 -0.0023752905 0.011973877
-0.0028418524 -0.0029488918 -0.015661759
-0.01485521 0.012381916 0.012993391
0 0.014303411 -0.019807907
-0.0052470113 -0.014558944 0.02257015
-0.00165 0.010481895 0.011732628
-0.0070693395 -0.0019014755 -0.026749665
-0.0027610001 -0.0079103578 -0.025697991
-0.024014721 0.010614773 -0.014349407
-0.022562142 -0.014770835 0.001740742
-0.0059898808 0.0028797451 -0.026620876
-0.0079999994 -0.017898457 0.015356125
-0.019526187 0.0042044986 0.014355442
-0.011587131 0.017976148 0.00018118878
-0.0079999994 0.0088885166 0.021633659
-0.0064710928 -0.0072368197 0.013099413
-0.01690942 -0.017940341 0.00045318381
0 -0.013568431 0.016645009
-0.014199035 0.017439207 -0.0042598546
-0.017789889 0.0078168493 0.016078571
-0.00073323358 0.018464509 0.0018276509
-0.0077586616 0.010048733 -0.01103467
-0.018854478 -0.013703957 0.011455914
-0.028214468 -0.015070124 -0.0051993141
-7.5749849e-05 0.00046876876 -0.014938287
-0.023482328 -0.014771353 -0.0017367968
-0.017793847 -0.00090372231 0.017881028
-0.020089703 -0.013995443 -0.0050736135
-0.011417 0.0041828468 -0.0096769584
-0.029999999 0.014248556 -0.010189456
-0.012363017 0.016282603 -0.0073242676
-0.014358706 -0.010595118 -0.0055103498
-0.028349999 -0.01374381 -0.002416196
0 -0.012098172 0.022314718
-0.01532101 0.010647957 0.0053827809
-0.029261939 0.0048035122 -0.017326718
-0.0088333692 -0.0090177627 0.01182577
-0.018583 -4.301751e-05 -0.011845088
-0.01185 0.0076723183 -0.010463523
-0.0093034571 -0.015087241 0.0096532367
-0.018149998 -0.0049705077 -0.011588282
-0.011850001 0.0071308338 0.0023257933
-0.0067222221 -0.02367978 -0.01278278
-0.0079999994 -0.022445155 0.012490384
-0.018486707 0.0055796797 0.013785824
-0.024096061 -0.011314253 0.0096843773
-0.019575011 -0.0048662191 0.014081349
-0.0064549525 0.019904239 -0.018033238
-0.022106454 -0.0090592615 0.011793926
-0.0046625491 0.010009495 -0.01106478
-0.00612318 0.010269775 0.010865059
-0.0056762076 0.011628178 -0.009275266
-0.02715 -0.013645626 -0.0072717415
-0.01185 -0.010738177 0.0086665237
-0.017519984 0.013290028 -0.011995343
-0.018149998 0.01111617 -0.0063054794
-0.011417 -0.0085480213 -0.003599257
-0.0079999994 0.0094148638 -0.018912399
-0.0079999994 0.015788769 -0.019990632
-0.015875479 -0.011917621 -0.0006257139
-0.018149998 0.0010516738 0.013525798
-0.010085849 -0.013105852 -0.012235357
-0.022878304 0.007144148 -0.0131378
-0.020931778 -0.003894385 -0.014483895
0 0.0059655514 0.025594279
-0.010281346 0.014238848 -0.010758851
-0.029141905 0.017845547 -0.0011732461
-0.00040568519 -0.0013611362 -0.018271269
-0.025783241 0.010526203 0.010668292
-0.0055369399 0.00074741314 0.0049015847
-0.01620362 0.0076312865 0.0091405949
-0.026336486 -0.00023145521 -0.01496953
-0.0057589277 0.013697626 0.0057926076
-0.0029772217 0.0020064611 0.0078858519
-0.0035936544 -0.0063215927 0.013478515
-0.0033216123 -0.022305092 -0.014904376
-0.023216393 0.013303439 -0.0067442586
-0.0051798634 -0.01458671 0.0031393373
-0.01286622 0.012337211 0.013027696
-0.0020072092 0.018380532 0.001624918
-0.00285 0.011811421 -0.0049024206
-0.0019408943 0.022925569 -0.014095748
-0.029795073 0.0067970981 -0.016500961
-0.028064309 -0.017445121 0.0042149369
-0.027313516 0.01530522 -0.0093691656
-0.024758765 -0.011998715 0.008792378
-0.0079999994 0.0076185209 0.016992405
-0.00165 0.0086024804 -0.011707349
-0.026716998 0.0027103927 0.0097053833
-0.0073615736 -0.0048824609 0.00089265278
-0.018431557 0.00015137959 0.012430072
-0.026574261 0.014260742 -0.0044331239
-0.0078676054 0.013692742 0.005804399
-0.028694388 0.012657969 0.0079332301
-0.0028499998 0.015318259 -0.0017536567
-0.029999997 -0.007855285 0.013979402
-0.0072407592 -0.0016850309 -0.020531539
-0.0092165414 0.01786736 0.0010075558
-0.0056366283 -0.024453448 -0.010914972
-0.022596298 -0.0040388824 0.014424043
-0.020392541 0.0064887414 -0.016628684
-0.013868039 -0.0082421536 -0.0086718695
-0.0040958361 -0.022998413 0.0038685552
-0.0079999994 -0.020407017 -0.004207876
-0.011417 -0.0093500605 -0.0075903274
-0.0028499998 0.012131325 -0.0052153263
-0.010441038 0.00081042649 0.004893288
-0.0032829999 0.0028260904 -0.0089006694
-0.010438396 -0.013670972 0.0058569587
-0.024914417 0.015470969 0.0091531659
-0.016724743 0.01757054 0.0032622325
-0.0016499998 0.0020376365 -0.015527468
-0.026334478 0.0048023905 -0.0013597902
-0.022719271 -0.0048832977 0.00088629301
-0.00039633803 0.0087764962 -0.012010903
-0.0013095136 0.0063107973 -0.02616917
-0.0079999994 -0.019396214 0.015256224
-0.012143233 0.0067686732 0.016512735
-0.0079999994 -0.0070368741 -0.016934587
-0.02002174 -0.017519491 0.0036500199
-0.014658364 -0.010604975 -0.0054865517
-0.013955225 0.011800984 -0.0015116294
-0.011417001 -0.0088119172 0.0075974544
-0.009996077 -0.0090283016 0.011817683
-0.029999999 -0.0073087951 -0.015977584
-0.020473776 0.015049956 -0.0097018257
-0.0079999994 -0.013112513 0.015384515
-0.020585587 0.0033720939 0.014556069
-0.021610247 0.004439027 -0.0022370266
-0.028325116 -0.014000925 -0.0068738637
-0.029420363 -0.017754652 0.0018637035
0 -0.025336448 -0.0074343672
-0.025724251 -0.0044298833 0.014262085
-0.0079999994 0.016812241 -0.012664984
-0.023299864 0.013751526 0.011393922
0 -0.018510846 0.013458546
-0.011417 0.0074866125 0.0084131351
-0.020491868 0.01496493 0.00026640325
-0.0025872006 0.0060811811 -0.026199399
-0.029999999 0.014882048 -0.0047933385
-0.011558672 -0.013051296 -0.0071222726
-0.02715 0.0072327126 -0.010860068
-0.0074471622 -0.0035209572 0.014536471
0 0.0082410481 -0.022582751
-0.029303838 0.016061813 0.0078573087
0 0.025896914 -0.0062842681
-0.015756721 -0.010593526 0.005514191
-0.024235738 -0.0054891016 -0.017042741
-0.01593148 0.014641002 -0.01023477
-0.00051607133 -0.024306571 -0.0032288439
-0.007769384 0.014520361 0.0036433346
-0.012014739 0.011292128 0.013829639
-0.0086336825 -0.013454268 0.011781305
-0.02715 0.004518141 -0.01524536
-0.023010336 -0.013367663 -0.0065892059
-0.011850001 -0.0075003807 0.011490177
-0.029999997 0.0088298116 -0.012696956
-0.0011895981 -0.0033201852 -0.019812463
-0.02715 0.0055130771 -0.013983731
-0.018583 0.0026706248 0.010286687
-0.0079999994 -0.020461129 0.016801832
-0.0040999996 0.022799212 -0.0032280232
-0.00066886173 0.018926572 -0.0025090941
-0.019525429 -0.015322113 -0.0093471548
-0.022422845 -0.0048929276 -0.00081316457
-0.0030562351 -0.026486896 -0.0038974341
-0.028349999 0.012336131 0.007959296
-0.027075903 -0.010740694 0.00990499
-0.008242039 0.013294601 -0.0067655952
-0.013684542 0.011233211 -0.0039698309
-0.01185 -0.0067115841 -0.0043265261
-0.0091806399 0.014521989 -0.010389864
-0.0059552812 0.022875138 0.014161474
-0.0079039428 -0.0083885035 -0.012308623
-0.022851648 -0.014762721 0.010076148
-0.023238508 0.017696673 0.0023041037
-0.007022304 0.012149476 0.0085959053
-0.027112123 0.0028798105 0.01416217
-0.0047749849 0.012913289 0.0076004951
-0.013431273 -0.0052294023 0.010711488
-0.026717 0.00054109341 -0.012245306
-0.028073775 0.017895352 -0.00079491292
-0.0039888993 0.0026746667 0.0041960678
-0.010773411 0.015942983 -0.0081441924
-0.024636375 -0.0058614323 0.01688852
-0.002667343 0.014578048 0.006387304
-0.00065749482 -0.0052736867 -0.01391257
-0.018916382 0.017736718 0.0019999279
-0.029896574 0.011375996 -0.0096039139
-0.0081310943 -0.014677248 0.0024516201
-0.0041737407 -0.023946093 -0.012139845
0 0.01265283 0.014315538
-0.026716996 -0.009028866 0.0048839697
-0.010669854 0.0021394177 -0.017718354
-0.0050382558 0.0022092939 0.02169097
-0.00285 -0.0082351482 0.013147952
-0.0079999994 0.015554837 0.017425526
-0.00165 -0.0058090752 -0.014320084
-0.029999997 0.013926229 0.0077664279
-0.028349999 0.012202988 0.0090779196
-0.012652855 0.017021714 0.0055398708
-0.010886293 0.008544133 0.012189202
-0.018239759 0.0090108346 0.015580187
-0.01185 0.010351492 0.007157716
-0.026884314 0.013868428 -0.0050830198
-0.025023406 0.012969861 0.01241258
-0.011849999 0.0013447033 0.0057023834
-0.0079999994 -0.016435016 -0.013757876
-0.0088223498 0.01137351 -0.009607153
-0.029999999 0.012123188 -0.011468743
-0.0032829999 -0.0087491628 -0.0054349876
-0.0028499996 -0.012987787 0.0028490841
-0.0079999994 -0.0015595156 -0.018846966
0 -0.016201513 -0.014136325
-0.026716998 -0.0096215382 0.0036448087
-0.02664559 -0.0065012565 0.016623499
-0.0096718986 -0.0077287862 -0.016115047
-0.02715 0.0013179433 -0.015028198
-0.0025723481 -0.014218487 -0.022831388
-0.0016500001 0.014562327 -0.0052338317
-0.01185 -0.0038338848 0.012712517
-0.0086157909 -0.014001962 -0.0050578779
-0.0035677243 -0.014971524 -0.00021631022
0 0.020034125 -0.013737612
-0.019446058 0.0076602059 -0.01286747
-0.027926378 -0.011129674 -0.013954298
-0.0055477442 0.012487827 0.0081549613
-0.0026220067 -0.0037461626 -0.020680949
-0.028109645 0.014446688 -0.010487999
-0.024508847 0.01085397 0.010284226
0 0.011959394 0.0092130546
-0.014640006 -0.011835838 -0.0012468934
-0.026301619 -0.011372551 -0.0096084019
-0.026716998 0.0067481692 -0.00991558
-0.024214489 -0.014120562 0.0047715488
-0.00165 0.010687415 -0.008507425
-0.015226173 0.011351803 0.0036835219
-0.008694726 -0.0006277046 0.017917367
-0.0074769161 0.0020080353 -0.0045338785
-0.0189554 -0.0078862989 0.016049806
-0.020388197 0.013745422 0.0056772204
-0.017566828 -0.0060009104 -0.010391602
-0.02841272 -0.014557146 0.0033639201
-0.027689986 -0.0017027393 0.017775841
-0.022388892 0.013208844 0.0069726328
-0.029999999 0.014827191 -0.0043439725
-0.029999999 -0.016485708 0.0050859153
-0.00058785715 0.014685677 -0.0023875874
-0.01185 0.0068314262 0.0024115259
-0.0079999994 -0.018841187 0.01033315
-0.015392497 0.0083396398 0.015862027
-0.018583 0.0064988625 -0.0063249636
-0.018463893 0.014735846 -0.0014239664
-0.018648306 0.011577757 0.0092966026
-0.002460561 0.0023723131 0.018821608
-0.016204411 0.0176284 -0.0028227197
-0.0079999994 0.015991896 -0.016841948
-0.0032830001 -0.008111422 0.0018264125
-0.0043540634 0.013639546 -0.0059328224
-0.018439325 0.0098098833 -0.0074919197
-0.01012436 0.0050346693 -0.014011575
-0.016355002 0.016361289 0.0071342969
-0.001323171 0.019646592 -0.0031928981
0 -0.022612289 -0.009329062
-0.0038624469 0.016970951 0.020719357
-0.0028499998 0.0078863055 0.01284452
-0.0055685565 -0.014683881 -0.0024012385
-0.00089051161 0.0031627992 0.019607369
-0.019383699 0.0099346191 -0.011122234
-0.0021420647 -0.0084906304 -0.013542419
0 0.019777996 -0.017284535
-0.026716996 -0.0057757674 0.0066154562
-0.0097220754 0.0091379909 0.011733515
-0.0044005825 -0.0015893375 -0.02679076
-0.026717 0.0023087098 -0.0083478093
-0.00285 -0.0050034826 0.012771797
-0.028349999 0.0016791495 -0.014185954
-0.0046688328 -0.012496201 0.008144049
-0.018583 0.0064791855 0.0077112513
-0.014945491 0.01798475 0.00011584646
-0.017117085 0.0053972076 -0.010641982
-0.0079999994 0.012908296 -0.015856182
-0.0083435709 0.014623222 0.0028620006
-0.020195419 0.0074779708 0.012999525
-0.027524659 -0.010034231 -0.011920607
-0.02715 0.012236338 -0.0083136782
-0.0028930751 0.010182765 0.010382872
-0.01901748 -0.0056837639 0.01374271
0 -0.011411528 0.021965133
-0.019875554 0.015854834 -0.0083570043
-0.024621615 -0.0042880513 0.014320835
-0.0097210743 0.0017347626 -0.014771622
-0.018149998 -0.012581439 -0.0024245738
-0.018583 -0.0015046161 -0.0096580889
-0.018583 0.0062322631 0.010036979
-0.029605938 -0.017325152 -0.0048072943
-0.0042738621 0.0035782515 -0.014528928
-0.0028595466 0.014996501 2.6581702e-05
-0.02672234 -0.010053894 0.01103071
0 -0.015030289 0.014973149
-0.0052729552 0.014182154 -0.0046228492
-0.022934152 -0.0065671541 -0.016596204
0 0.017468849 -0.0065047834
-0.018583 0.0078955591 0.00597092
-0.006278038 0.0020867612 0.021208692
-0.024826733 0.017827423 0.0013109148
0 0.019342002 -0.0090445951
-0.0022577364 -0.014981611 0.0045062467
-0.018149998 -0.00074386242 0.01239466
-0.0087264273 -0.012451992 -0.0082016615
-0.022189733 0.014459147 -0.0039541307
-0.018149998 -0.0064050984 -0.012270086
-0.01127708 -0.0028881652 -0.014612519
-0.0066572675 -0.025300981 -0.0088688359
-0.0088820606 -0.014984157 -0.00012034717
-0.0079999994 0.023723099 -0.012282027
-0.00018942861 0.011219312 -0.024327388
-0.010872935 -0.013986947 0.0050941231
-0.0040530344 0.026132042 0.0065928116
-0.020173891 -0.001547563 -0.014796267
-0.00061249221 -0.024988962 0.0026191662
-0.02157262 -0.017110292 -0.005326021
-0.011525538 -0.0094593968 -0.0079486966
-0.026402581 0.0036421428 -0.014520518
-0.011417 -0.0084431106 0.0060002529
0 -0.0096847657 0.013124589
-0.00165 0.0047668545 0.010952629
0 -0.018139744 0.014862555
-0.0041089845 -0.014796929 0.0015425321
-0.0040999996 -0.0024668947 0.022761004
-0.011163817 -0.0076460177 -0.012878357
-0.0079999994 -0.015002283 -0.016769005
0 0.024676392 -0.0093544116
-0.0065937536 -0.0006736287 -0.024135485
-0.0079999994 -0.021694599 0.01558985
-0.0079999994 -0.021072207 -0.010141939
-0.022059653 0.0090337126 -0.015562632
-0.0094162682 -0.014658964 0.0025904994
0 -0.009343476 0.02387296
-6.4605134e-05 0.011967135 -0.024017632
-0.0045606014 0.010265243 0.010868534
-0.0079999994 0.0080400323 -0.024479453
0 -0.021424979 0.0094907824
-0.019261707 0.0047439765 0.014131983
-0.0095246583 0.011482897 -0.0094645983
-0.011417 0.0061391294 -0.0058468441
-0.0028524601 -0.017504916 -0.020309633
-0.0187416 -0.0088735474 -0.015640879
0 0.013331926 -0.013831431
-0.02840892 0.0038144023 -0.017497849
-0.0079999994 0.021243304 -0.010153709
-0.0079999994 -0.0051487386 -0.024454117
-0.00165 -0.0092697721 0.011969981
-0.0079999994 -0.010487706 -0.017581703
-0.02715 0.0039512469 0.012761289
-0.0060332618 -0.0092166029 -0.02515693
-0.0079999994 -0.0098602539 -0.015456066
0 -0.0091515779 0.024436556
-0.00165 -0.011246596 -0.0077281641
-0.011849722 0.0021617212 -0.0051130024
-0.0079999994 -0.013056366 0.016449625
-0.02715 -0.0073597846 0.013222218
0 -0.020005222 -0.013942235
-0.023813056 -0.016932376 -0.0057555544
-0.0092611602 0.011577931 -0.0093407491
-0.0038310124 0.010117914 0.010981586
-0.0032868641 -0.0054228064 0.013803864
-0.027866151 0.013307828 0.0018298972
-0.011852744 0.011825749 0.0013235245
-0.011236437 -0.012448459 0.008206266
-0.0060857991 0.0094955405 0.025041392
-0.023074595 -0.013232775 0.0069148554
-0.023722116 0.014290676 -0.0043608546
-0.016325891 0.017591048 0.0031064546
-0.0045101712 0.0023033679 -0.014696765
-0.0020769967 0.018987739 0.019171828
-0.0039745034 -0.0059533166 0.026216233
-0.013719807 -0.013584225 0.011611949
-0.02715 -0.010717052 -0.0089473808
-0.02715 -0.0079713818 -0.012472218
-0.011588963 0.014752667 0.00097200152
-0.0026996441 -0.0078354441 0.013978218
-0.028109014 0.012332999 -0.0043213097
-0.0079346346 -0.014928901 -0.00054007123
-0.0079999994 0.015457245 0.013464931
-0.00165 -0.0053975838 -0.011802871
-0.012388956 0.0059188325 0.010425921
-0.018149998 0.01109823 0.0073748343
-0.0028683355 0.0070895161 0.012589982
0 -0.009609309 -0.018320566
-0.0022713842 -0.020765921 -0.0037813622
-0.023329563 -0.0087989653 0.015671771
-0.026882116 0.013162951 -0.0067919618
-0.010950492 0.0025985716 0.014657903
-0.011626464 -0.008089494 0.012342062
-0.030000001 -0.013870315 0.0062997648
-0.005696374 0.012867929 0.023644513
-0.01185 0.011995262 -0.0076400596
-0.0028499998 0.0045071086 -0.0046314793
-0.018149998 0.0074625425 0.0028085909
-0.004426972 -0.0022096494 -0.022306334
-0.011490308 -0.004273199 0.01159049
0 0.024630781 -0.0067037838
0 -0.018060373 0.016355576
-0.011552569 -0.0027212324 -0.0042640134
-0.024975328 0.007126512 -0.013145105
-0.011776831 -0.0080063548 -0.0010911277
-0.0079999994 -0.019452084 -0.013281533
-0.014648013 0.0094300592 -0.015258496
-0.0037426697 0.014584582 -0.0031555158
-0.025379803 0.013922621 -0.0052494216
-0.0024973147 0.020753069 0.016927019
-0.0032829996 0.0010571718 -0.011535271
-0.022788588 0.0042929212 -0.0025484506
-0.011788929 0.007676586 0.0128549
-0.018149998 0.012052407 0.0030701568
-0.0028499996 0.0030099063 0.0049560042
-0.0028499998 0.013945123 -0.0030601479
-0.026238868 0.010207541 0.010912812
-0.0033379702 -0.025167698 0.0091906097
-0.011951891 0.016945662 0.0057234769
-0.018582998 0.010003823 -0.0020361599
-0.01185 0.014156599 0.0013727025
-0.0079999994 0.00024654772 0.019641103
-0.012633917 0.0097219935 -0.015034481
-0.011417 -0.0079851206 -0.0064884895
-0.018583002 -1.1357784e-05 -0.0089600366
-0.0099302009 -0.0060431771 0.016813241
-0.018149998 0.0051320754 -0.012358081
-0.0023314988 0.0263962 0.004586325
-0.0028499998 0.012787411 -0.0068064244
-0.0001082157 0.0023362515 0.014692436
-0.01185 0.0048817936 0.012601091
-0.0041911965 -0.020968186 0.01664667
-0.026940189 0.0040744017 0.014409329
-0.018149998 -0.013893614 -0.0032080866
-0.0028499998 -0.0026717032 -0.013588187
-0.019394198 -0.0043620011 -0.014290201
-0.0017161927 0.015694072 0.0027034665
-0.0079999994 0.022723598 -0.0084388442
-0.0040628901 -0.024791468 0.0028567405
-0.018653871 -0.0028619301 0.017623238
-0.011587786 -0.0104546 -0.010723233
-0.0079999994 -0.018823102 0.012524614
-0.0060062064 -0.0021981387 -0.02239372
-0.015556002 -0.0056062983 -0.016994199
-0.024868295 0.014042876 -0.011014239
-0.025883364 0.015912216 -0.00821847
-0.00010351691 -0.0032326505 -0.019698393
0 0.018961156 -0.017941754
-0.02715 -0.0064660404 -0.010602389
-0.026716998 0.009622341 -0.0027386416
0 0.0048915893 -0.017360494
-0.02715 -0.015095006 0.0035360567
-0.025561037 -0.0030147906 -0.014603107
-0.011417 0.0045988951 0.0078909565
-0.0002511396 0.0035255139 -0.023851739
-0.02715 0.00048887148 0.013919868
-0.026716998 0.0098844636 -0.0065343906
-0.028279997 0.0074193184 -0.010365249
-0.0094595477 -0.014268769 -0.0044137482
-0.0028499998 -0.010366586 0.0067908652
-0.02715 -0.0051534399 0.01110879
-0.02715 0.013483136 0.0042888485
-0.022293432 0.014841947 0.0012005757
-0.02715 0.010919116 0.0061526923
-0.020451648 0.014038842 0.0049688397
-0.00068574812 0.025230723 0.0023041239
0 0.024194527 0.0053541013
-0.011849999 -0.00094614871 -0.014291165
-0.026574524 -0.0010166154 -0.0048727109
-0.0019109391 0.021271039 -0.0039040293
-0.013494042 0.017668277 -0.0025198145
-0.0010368702 -0.0097816298 0.011239628
-0.0099252379 0.011786461 0.009068992
-0.0059253112 0.0026903246 0.0041840533
-0.0077223592 -0.002068782 -0.022834733
-0.018583 0.0096518174 0.00062144728
-0.020409651 0.013617617 -0.011568431
-0.00285 0.011369155 0.010986806
-0.0079999994 -0.0061947242 -0.025386039
-0.0032829999 0.0021417295 0.0087302802
-0.0027339295 -0.0024673613 -0.015725156
-0.025705613 -0.0051398547 -0.013968005
-0.0042756316 0.021522071 0.015924832
-0.0030857315 0.0049313367 0.013899105
-0.0020449841 -0.026538538 0.0035051752
-0.0079999994 0.015082795 0.016461764
0 -0.025649017 0.0065782303
-0.018149998 -0.0046870247 -0.0032514087
-0.011400453 -0.010974896 0.010061012
-0.0079999994 -0.018434677 0.0019845632
-0.010569231 0.0038298909 0.0031518585
-0.0018150824 -0.014848681 0.0057339272
-0.030000001 -0.017802158 -0.00080717338
-0.026163587 0.014255301 0.0044462625
-0.029999999 0.01462992 0.0090099024
-0.0025847431 -0.025381727 0.0086738905
0 0.0047054612 0.01616477
-0.0029082736 -0.0041010482 0.026460091
-0.026323017 0.014794699 0.0015594718
-0.0079999994 -0.018126244 0.00089218916
-0.0040999996 0.022954201 -0.0028334006
-0.0079999994 -0.0023276515 -0.018384499
0 -0.012664948 0.010004059
-0.026716998 0.0085980436 0.0078197867
-0.018149998 -0.01281856 0.0057155681
-0.016212603 -0.009804762 0.0067657102
-0.012954156 0.0018536455 0.017755974
-0.01185 0.0088645695 -0.010550755
-0.00040007214 0.0017462805 0.018430805
0 -0.023247533 0.0069519556
-0.017080648 0.017187525 0.0051395595
-0.01185 -0.0093522612 0.0084056202
-0.025552018 0.010959032 -0.010147306
-0.012747617 0.0059951954 -0.016833115
-0.021346292 0.0082636401 0.012404434
-0.015587348 -0.011444651 -0.0034593665
-0.0266055 -0.013136228 -0.0071479464
-0.00165 0.00066369062 -0.014501031
-0.021453645 -0.0094074979 0.011526713
0 0.017432427 0.015587579
-0.026716998 -0.009025286 0.00029419683
-0.018149998 0.012532189 -0.0052217115
-0.0044429302 0.01253143 0.0080981385
0 -0.012414334 -0.015820317
-0.00285 0.0047458489 0.0033574721
0 -0.023206955 -0.011987781
-0.0079999994 -0.0013499676 0.018084016
-0.0040130224 0.019376963 0.0029859927
-0.01185 0.001322293 0.014516931
-0.0036035569 -0.014936863 0.00047960036
-0.0024709848 -0.011560786 -0.011073219
-0.018311998 0.004682349 0.017376903
-0.0030258063 -0.0014567096 -0.0049818126
-0.00165 0.0083419876 -0.011955727
-0.028285332 0.0050449488 0.011757981
-0.0040999996 0.02440797 -0.0020914082
-0.022073342 0.017116712 0.0053105224
-0.0057304865 0.0014609202 0.02030918
-0.0079999994 0.014347615 0.013067048
-0.0030217886 0.025144067 0.0092476597
-0.0036619527 -0.010289952 0.010849577
0 -0.019664196 -0.013425885
-0.026194649 0.01230042 -0.013055928
-0.02715 0.0082509816 -0.010664864
-0.011292591 0.0035001808 0.017539216
-0.026716998 0.0043773167 0.0091585824
-0.02715 -0.0021107548 0.015177265
-2.4560744e-05 -0.014645661 0.0026915488
-0.00093800074 0.00332986 -0.024174934
-0.0036109462 0.019888658 -0.0033786569
-0.0032830001 0.01083388 -0.0028905808
-0.0085365269 0.0062109609 -0.01352434
-0.02320325 -0.0039454168 -0.017480601
-0.0079999994 0.0073978249 -0.018069463
-0.02728462 -0.0039292136 -0.012056082
0 -0.017123967 0.0068487739
-0.028349999 0.011769706 -0.0093195904
-0.01185 0.0067995605 -0.011146727
-0.0049086153 0.01233355 -0.0083560189
-0.0043722647 -0.010139233 -0.024774767
-0.0015642241 0.019127455 -0.019045567
-0.024862455 0.0056827813 -0.013743117
-0.029870899 0.010615914 -0.010594463
-0.014107615 -0.011529231 -0.013647697
-0.0018587948 -0.0057922434 0.012870021
-0.02715 0.015255704 0.0024820783
-0.021038553 -0.014732357 -0.0020330192
-0.0081738876 0.0071799569 -0.013122967
-0.01851413 -0.012900559 0.012502893
-0.0028499996 0.0056551346 -0.0035102135
-0.011846722 0.0023875197 0.0050074426
-0.00165 0.013077702 -0.0057819835
-0.022950271 -0.0098493975 0.014936718
-0.0032954614 -0.026747277 0.001919625
-0.027027771 0.0019602182 -0.012191948
-0.023659296 0.011091806 0.0099742739
-0.0028499998 0.015137265 0.0010537625
-0.028349999 -0.0060517485 -0.01313815
-0.0003318316 0.015354848 -0.021959431
0 -0.022076359 -0.006703529
-0.0062026232 0.0072621708 0.013088912
-0.0079999994 0.022197261 0.012143732
-0.010973079 0.013552456 0.0061430787
0 0.013193701 0.012422429
-0.026717 -0.0075668064 0.0059777931
0 -0.0105169 0.020098278
-0.0079999994 0.0023081081 -0.025679931
-0.024677709 0.0031287509 -0.014588105
-0.0029937292 -0.0067510321 -0.0044751703
-0.028349999 -0.0098042861 -0.0096184947
-0.028425774 0.013503122 0.0062621827
-0.0079999994 -0.011513041 0.020861315
-0.023579346 -0.010622393 0.014343559
-0.023306845 0.011776429 0.0090820659
-0.0050058197 0.026232373 -0.0058307126
-0.017156549 0.0092424452 -0.01540246
-0.01185 -0.012149718 0.0023223918
-0.018402996 -0.010163991 0.014695315
-0.027262401 0.004919163 -0.017278815
-0.0047421237 -0.0076206448 0.025817996
-0.0027948385 0.015513992 0.0040712808
-0.02715 -0.0021819789 -0.012980533
-0.013629668 -0.013040463 0.012320573
-0.0023423312 -0.011094662 0.011106922
-0.018149998 0.012478393 -0.0010742515
-0.011417001 -0.0037125584 0.00858285
-0.018583 0.010036175 -0.0043395096
-0.0098339617 -0.0049320427 -0.00051609846
-0.018149998 -0.012032221 0.0048757652
-0.01185 -0.0017214969 0.012874641
-0.013209984 -0.0097452728 0.0068432395
-0.023379626 0.0038263679 -0.0031564499
-0.018583 -0.0091535449 -0.0062957965
0 -0.0065418817 0.019833574
-0.003568962 -0.0064632134 -0.026149105
0 -0.021659242 0.010484655
-0.0061666998 -0.010479159 0.01070439
-0.0091377962 0.0087775234 0.012010113
-0.026414327 0.005932522 0.013639671
-0.011417 -0.0063957893 -0.0078999847
-0.0203973 -0.0022999414 0.017697223
-0.018149998 0.00028190817 -0.0076841176
-0.018271916 0.005393256 -0.0060465443
-0.011063317 -0.013986575 0.0050950181
-0.020358585 0.012016914 -0.0087686609
0 0.0054142326 -0.015450244
-0.0066428375 0.013672536 0.0058531784
-0.02715 0.0077629187 0.011880714
-0.01697189 0.0039260667 -0.01125134
-0.0079999994 -0.0056684315 -0.024627831
0 -0.010961713 0.020447882
-0.00165 -0.0023158714 -0.015160508
-0.005869281 0.021772899 -0.0022200856
-0.018583 -0.0082680788 -0.0088447072
-0.02715 0.009198199 -0.010449523
-0.010890123 0.0045769732 -0.01420116
-0.026652567 -0.011341593 -0.0096040219
-0.0032829999 -0.0014508149 0.011371954
-0.019339647 0.01743377 -0.0043011461
-0.026716998 0.0072936993 0.0072051724
-0.028349999 0.012348616 0.0094574075
-0.011417 0.010051825 0.0048494148
-0.0079999994 -0.0086497394 0.024895122
-0.0060519092 -0.026141869 0.0065181591
-0.0035669161 -0.011429362 0.0095343674
-0.018583 0.0054239393 0.0073264013
-0.0025893685 -0.0092153838 -0.012548921
-0.0071784691 0.0011027443 -0.026854822
-0.0079999994 -0.020199502 -0.007349018
0 0.016550519 -0.0071010366
-0.02715 0.0040703728 -0.0055079698
-0.02181383 0.017427554 0.0043483642
-0.0028499996 -0.0077625397 8.5519809e-05
-0.0038894729 -0.015801713 -0.021616541
-0.018149998 0.012450653 -0.0023218442
-0.015678413 -0.007358572 -0.016268393
-0.0014422062 -0.025527384 -0.0018472217
-0.011723953 -0.012847399 0.0071862862
-0.0051824907 -0.020666039 -0.017040437
-0.026417255 -0.0027453785 -0.014638576
-0.028349999 0.013417299 0.0062164292
-0.028349999 0.01171031 -0.0097891772
0 -0.010242536 0.021964189
-0.00285 0.015034974 -0.002884103
-0.0048752604 -0.0080995737 0.025619619
-0.0004493859 -0.011193711 0.02433799
-0.011417 -0.0079624467 -0.0075341905
-0.0019348811 -0.0035479891 -0.026532901
-0.013024439 0.0033506237 0.011489692
-0.011849999 0.00021372302 0.012824022
-0.0028499998 -0.0036307783 -0.013025615
-0.0004645201 -0.0088228853 0.011975306
-0.0030377044 -0.018104587 0.00079440145
-0.01458042 -0.012064485 0.013236972
-0.029509857 0.0025652135 -0.0176623
-0.019300418 0.012122019 0.013192822
-0.011623655 -0.017980149 -0.00015078613
-0.023757337 0.0024300572 0.014680086
-0.012567683 -0.010039589 -0.014790772
-0.0028766131 -0.021041866 0.016550647
-0.0039507258 0.013033492 -0.0073959692
-0.0020434088 -0.0032889906 -0.019771811
-0.01185 -0.011606302 -0.0057506026
-0.00285 0.002956647 -0.012404743
-0.018149998 -0.0073138801 -0.011445357
-0.024848195 -0.017400861 -0.0045511303
0 -0.0060284697 0.014507127
-0.023785222 0.0091935005 0.01544002
-0.003468463 0.026118658 -0.0066944631
-0.0064085973 0.0046084258 -0.014188129
-0.021803148 -0.014741908 -0.001960461
-0.021754783 -0.0093624881 -0.015310346
-0.00165 -0.014855645 -0.00090572209
0 0.024559472 0.009133582
-0.02715 -0.0043766098 0.0053568967
-0.0057725511 0.014568683 -0.022562677
-0.0034058804 0.0033824202 -0.019893561
-0.0002189316 -0.003560856 -0.023766413
-0.0055712815 -0.010459444 0.010719518
-0.0032829996 0.010714243 -0.0015984871
-0.020678863 -0.0030984506 -0.014592093
0 0.02483619 0.0063846605
-0.0079999994 0.013758464 0.01913086
-0.0079999994 0.013695626 -0.020059291
-0.0085155321 -0.005137173 -0.017188514
-0.0032065264 -0.0050191418 -0.00035025759
-0.00070703373 0.022720298 -0.0039051704
-0.0079999994 0.013125884 0.020371519
-0.0097275432 0.006576627 0.016592281
-0.019167377 -0.0074925986 0.012993467
-0.0025058149 0.013473376 0.0080105932
0 -0.0033541084 -0.014575761
-0.018655192 -0.014682571 -0.0022181834
-0.0034954501 -3.9506027e-05 0.014994799
0 0.017849231 -0.0022714827
-0.01185 0.011789063 0.0057721911
-0.01957155 -0.0055727721 -0.013788684
-0.029118249 -0.017712701 0.00218236
-0.011850001 -0.0064361566 0.003479748
-0.0079999994 -0.014319733 -0.014571485
-0.0028499998 0.0038091613 -0.013541611
-0.0096562244 -0.014370083 -0.0041691526
-0.025035599 0.010896285 0.010229079
0 -0.017045243 0.01804989
-0.0028499998 0.0010304294 -0.015092605
-0.018583 0.0009207626 0.0097150775
-0.029059473 -0.010671609 0.014305795
-0.028015368 -0.0087020956 -0.012942775
-0.026138175 0.011879063 -0.0089483093
-0.0069256942 -0.011735419 0.024113609
-0.011849999 -0.0084774802 0.0099592451
-0.023394719 0.00342064 0.0036236395
-0.002882601 0.010279766 0.010857392
-0.025189437 0.0039753192 0.01445037
-0.0028499996 -0.0042149629 0.003927689
-0.02715 0.0068766195 0.010648312
0 0.015704861 -0.013760985
-0.0024919068 0.026064591 0.0070253047
-0.029163811 0.0036481316 -0.01451973
-0.023500783 -0.0049467511 -0.014047991
-0.00165 0.0021580888 -0.015351586
-0.010574927 0.016446456 -0.0069286823
-0.022288898 0.0038730733 0.014490115
0 -0.011199185 -0.018670758
-0.003038652 0.022426557 0.014746076
-0.023811812 -0.0023232312 -0.014694151
0 -0.017541308 -0.0060087466
-0.02715 0.0062098815 0.010212924
-0.012197908 0.017677186 0.0024521383
-0.015222567 0.010609118 -0.0054765493
-0.026580898 0.0094972663 -0.011447493
-0.015729014 0.0069802976 -0.016425079
0 -0.016950633 -0.0088591138
-0.0079999994 0.010308188 0.024356635
-0.026615445 0.014758984 0.0016974703
-0.0087013859 -0.0013022264 -0.017828569
-0.027384017 -0.013141539 0.0030929786
-0.02455855 -0.017968079 0.00024246536
-0.018583 0.0080117788 0.0010846455
-0.0016905884 -0.0046502366 0.026387786
-0.018149998 0.0072225546 -0.0034914755
-0.00018694674 0.0064260229 0.013435257
-0.013596782 -0.013699721 -0.011461436
-0.013290004 0.0041342983 -0.011165088
-0.0032829999 -0.0082424898 -0.0063585737
-0.010072798 -0.01276731 -0.012676542
-0.0079999994 -0.022693949 -0.0023816267
-0.02715 0.0099592395 0.011881045
-0.010514931 -0.014577352 -0.0032104256
-0.018583 0.0013254303 0.011348151
0 -0.025102507 0.0093440702
-0.0028499996 0.0086185066 -0.0108665
-0.012633047 -0.011714684 0.0021671243
-0.0045610163 0.024218252 0.00024103973
-0.017734237 -0.0025299252 0.011666918
0 -0.013026251 -0.021865303
-0.020311253 -0.0038174442 -0.014497438
-0.018583 0.0045348732 0.0087357024
-0.007957276 0.0012284144 -0.014838282
-0.0031369424 0.015863981 -0.02156876
0 0.007710387 0.016991867
0 0.0079853041 0.01815759
-0.018149998 -0.004544544 0.011504583
-0.0040999996 -0.019417999 0.00074989215
-0.018149998 -0.011506278 0.0057004606
-0.0079999994 0.023185926 -0.011524951
-0.018583 -0.0040231184 0.0076505537
0 0.0043468066 0.022239899
-0.0098139439 -0.012529407 -0.0081007741
-0.02715 -0.014145554 -0.0026160059
-0.020022521 0.004579958 -0.017397067
-0.025930453 -0.0072702789 0.016304962
-6.0829712e-05 -0.0050046993 -0.02634112
-0.007449571 -0.023816554 -0.012452581
-0.011849999 0.0041176514 0.0037896759
-0.0017109448 0.010212907 0.01178351
-0.0063087973 -0.01436998 0.0041694008
-0.0025676158 0.0045144525 -0.026405664
-0.0034389116 -0.0064832219 0.013411565
-0.0049764724 0.0045428211 -0.014215305
-0.023755852 0.014357255 0.0042001233
-0.018149998 -0.012652 -0.0010773992
-0.0073685166 -0.0016127137 -0.020437298
-0.019271236 0.0022103759 -0.017709013
-0.0085361851 -0.009019969 0.015573178
-0.029370602 0.0067961919 0.016501334
-0.025082177 -0.0068983426 0.013239617
-0.015529353 -0.008973157 -0.0078494996
-0.0057180449 -0.0019615861 -0.014741761
-0.01185 -0.0087026469 -0.010884186
-0.0087119676 0.017675128 0.0024677713
-0.016517678 -0.016144618 0.0076573947
-0.022107299 -0.014532281 0.0035527893
0 -0.0079896236 0.02354043
-0.029999999 -0.0082409978 -0.014623006
-0.029999999 0.012108456 0.011527149
-0.0079999994 -0.016786614 0.017685441
-0.014743721 -0.003421999 -0.017549507
-0.018149996 0.001691184 0.0078218654
0 0.012807093 -0.019830324
0 -0.02004274 0.0076841479
0 0.0056758081 -0.017041365
-0.0020421315 0.015031612 -0.022207461
-0.024571268 0.014871957 0.0009726162
-0.013374866 0.016578779 -0.0066092266
-0.024681255 0.0086623412 0.01572836
-0.0087665049 0.0041419012 0.014381371
-0.029999997 -0.01460944 -0.0049484139
-0.015132505 -0.0075462228 -0.0092058657
-0.014744843 -0.013725013 0.011428475
-0.0054785749 0.0069672596 0.01321107
-0.024903309 -0.017476944 -0.0039731967
-0.026716998 -0.0026769417 0.0087117637
-0.016057627 0.004176897 0.011147443
-0.019782126 0.0093437796 -0.011575607
-0.011850001 0.014311935 -0.0038763073
-0.0035392558 -0.0039829654 0.0221294
-0.0079999994 0.017408211 0.0075935279
-0.0088069309 -0.0026142462 0.017655846
0 -0.0023358364 0.025980815
-0.00165 -0.0080626868 -0.013168261
-0.010482156 0.016797075 0.006082206
-0.0028499998 0.0063205203 0.014216896
-0.0075632557 -0.012953757 0.0075477557
-0.012469458 0.0068745911 0.0097212158
-0.0032830001 0.0027928019 0.011353616
-0.011697083 -0.0022944778 -0.0046593379
-0.026716998 -0.0094802314 -0.0061757788
-0.0067576771 0.0062574353 -0.013505088
-0.0028499998 0.006098018 0.0029045083
-0.020474717 0.0074315267 0.016238173
-0.014444338 -0.0054424438 0.017062068
-0.025113665 -0.0011733753 0.014845527
-0.0037099558 0.0034316638 0.0036151798
-0.0046745972 -0.0044159754 -0.0022926801
-0.0074048885 -0.0018337927 -0.020725392
-0.018149998 0.0057228543 -0.013483615
-0.0080096545 0.013953187 -0.011131121
-0.02715 -0.0053068688 0.013448482
-0.024417741 0.014153899 0.010869555
0 0.0045149107 -0.017940039
-0.01024295 0.0028926805 -0.014619184
-0.0098945824 0.0042494759 -0.017440574
-0.014640755 0.0094329352 0.015256288
-0.011850001 0.0038727352 -0.01360135
-0.014790274 0.0030812663 0.01159433
-0.0015399051 0.023642169 -0.0036123216
-0.026899822 0.01000688 -0.014815873
-0.024097031 0.0095849764 -0.015139621
-0.026805557 0.0017291058 -0.004722931
-0.0073840809 0.0042332313 -0.014343541
-0.013798937 0.0058911536 -0.01687621
