# .PCD v0.7 - Point Cloud Data file format
VERSION 0.7
FIELDS x y z
SIZE 4 4 4
TYPE F F F
COUNT 1 1 1
WIDTH 1000
HEIGHT 1
VIEWPOINT 0 0 0 1 0 0 0
POINTS 1000
DATA ascii
0.028028065 -0.0039393273 -0.0030092441
0.017802697 -0.0048373016 -0.0012356098
0.034999654 0.0042319568 0.0026278978
0.055524357 -0.00089414458 0.0048822644
0.021477519 0.0028289871 0.0040776492
0.015498669 -0.0018103317 -0.0046157702
0.057212308 0.0027287607 -0.0041545588
0.020689406 0.004841961 -0.0012002231
0.041275349 0.0028798198 -0.0040386422
0.016682126 0.0024993513 -0.0043303692
0.067622729 0.0040000002 0.0028522264
0.011483456 0.0046204962 0.0017989224
0.055274125 0.0040000002 -0.0011718338
0.020792875 -0.0049047838 -0.00072311971
0.0046285801 0.0021774122 0.0044637206
0.0079936115 0.0026802171 0.0041918089
0.040323924 0.001260886 -0.0048339735
0.042056777 0.0016447436 -0.0046843593
0.030790303 -0.0034962504 -0.0035656192
0.075000003 0.0038998593 0.00091454672
0.054193821 0.0048460178 -0.0011694197
0.03628663 -0.0041086208 -0.0027886257
0.043047685 0.0026326242 0.0042283298
0.022664953 -0.0041148541 0.0027805031
0.0030666119 0.00013131798 0.0049827085
0.035043813 -0.0048966999 0.00078450888
0.030468531 -0.003860723 0.0031116793
0.025408123 0.0039994237 -0.0029309283
0.041706882 -0.0045425133 -0.0019871909
0.060775667 -0.002922575 -0.004005834
0.01772506 -0.00064148195 -0.0049155331
0.070769846 -0.0038032858 -0.0031865295
0.0077043152 0.001755229 0.0046385946
0.034192193 -0.0028162256 -0.0040874416
0.003516746 -0.0011108032 -0.0048537357
0.015250044 -0.0031773678 -0.0038103163
0.066104628 -0.0030489708 0.0039088428
0.026800092 0.0044956314 0.0021003718
0.042294718 0.0041734944 -0.0027040956
0.071659788 0.0020033696 0.004535811
0.06124267 0.0017222801 -0.0046522417
0.00046775074 -0.0047997572 -0.0012758496
0.028692368 -0.0045619304 0.001940312
0.043686777 0.0029738806 0.0039664642
0.043490853 -0.0018902743 0.0045826565
0.069086321 -0.0048899599 0.00083569833
0.010625034 0.0035866187 -0.0034688842
0.057539754 -0.0011394053 -0.0048499694
0.05954637 0.0037957905 -0.0031963058
0.072545581 -0.0049676728 0.00024550871
0.0099995509 -0.0036002444 0.0034511278
0.053872943 0.0034770716 -0.0035803358
0.056470126 0.0005854356 -0.0049229134
0.060804911 -0.0044513894 -0.0022071812
0.045103543 0.00051407726 -0.0049323095
0.051913917 0.004742193 -0.0015051196
7.6710734e-05 -0.0017044544 -0.00086798496
0.074132755 8.3483086e-05 -0.0049890075
0.048198909 -0.001806249 0.0046174615
0.0037912 0.0015554925 0.0047213282
0.01949629 0.0030895243 0.0038777236
0.019260639 0.00022117689 0.004970877
0.010103252 -0.00034268503 0.0049548773
0.002947846 -0.0010342855 -0.0012320779
0.074617535 -0.0046230438 0.0014882998
0.074965946 -0.0043403986 0.001268132
0.073112644 -0.0036057329 -0.003443975
0.073346235 -0.0049915579 6.4115098e-05
0.030873971 -0.0040958249 0.0028053012
0.01010172 -0.0043586516 -0.0024310718
0.037645016 -0.0037846121 0.0032108643
0.014954895 0.0049722302 -0.00021089896
0.03540346 0.0037589571 0.0032443085
0.062290911 -0.0029897124 0.0039543156
0.05528741 0.0040000002 -0.0012417539
0.018850215 -0.0010975224 0.0048554842
0.07463146 0.0040000002 -0.0017681241
0.067963094 0.00054357661 0.004928425
0.070293397 0.0012687247 0.0048329416
0.0069512026 -0.002721081 0.0041604522
0.023073979 -0.004497393 0.0020961205
0.017405767 0.004408096 0.0023117019
0.065733761 -0.0027093256 0.0041694725
0.0524869 -0.0047401576 0.0015100329
0.0096537247 0.003876922 0.0030905697
0.032014843 -0.0033851736 0.0036508548
0.071868323 -0.0049062259 0.00071216817
0.014695803 -0.0044339532 0.0022492779
0.052592546 -9.980004e-05 0.0049868589
0.013203834 -0.0034550964 -0.0035971992
0.055663317 0.002019247 -0.0045292345
0.031530969 -0.0022786323 0.0044217939
0.034761287 -0.0049698357 -0.00022908289
0.0011212839 0.0043275091 -0.0025033769
0.039913371 -0.0045420174 -0.0019883877
0.0020465967 0.00012976614 0.0049829138
0.012628059 -0.0049827406 -0.0001310777
0.028653914 -0.0045697074 0.0019215362
0.064718992 -0.0013456867 -0.0048082327
0.027108891 0.004775092 -0.0014256949
0.0031552727 0.0043973704 0.002337595
0.05236546 -0.0037692771 -0.003230849
0.035770975 0.0038950492 -0.0030669463
0.061381459 0.0040000002 0.0020311119
0.064210132 0.0040000002 -8.8645938e-05
0.011380547 -0.0043893466 0.002356966
0.022572152 -0.0031090209 0.0038627631
0.043261174 -0.004845567 0.0011728404
0.068035558 0.0040000002 0.00056634337
0.032326039 0.0029855419 0.003957516
0.064976282 -0.0027187699 -0.0041622254
0.022379914 -0.0047117542 -0.001578607
0.01443537 0.0019040196 0.0045769634
0.00030555853 0.0046970993 0.00082370453
0.036613476 0.002264237 -0.0044277566
0.023626465 0.0048033912 0.0013573745
0.0029647457 0.0005640554 0.0049257283
0.010766051 0.004894645 0.00080012053
0.067972995 0.0040000002 4.5769099e-05
0.032321814 -0.0032450673 0.0037583667
0.066284336 -0.00084483967 0.0048887562
0.037922215 0.0023056734 0.0044105933
0.073603749 -0.0049657766 0.00025990914
0.04510716 0.0042883018 0.0025544709
0.073320583 0.0024113148 0.0043668351
0.03439787 -0.0049894117 -8.0416496e-05
0.014754194 -0.003655389 -0.0033792646
0.053032026 8.7863e-06 0.0049988437
0.03801778 0.0043764585 -0.0023880815
0.051150765 0.0014397912 -0.0047692531
0.010820699 0.00450199 0.0020850217
0.017294623 0.0035229456 -0.0035451346
0.05436445 0.00015054586 0.0049801772
0.064019628 0.0008474738 0.0048884093
0.052686021 -0.0021719253 0.004465993
0.033680063 0.0030278584 0.0039250436
0.069894291 0.0040000002 -3.0758023e-05
0.016282858 -0.00060698268 0.0049200756
0.050146133 0.0049739443 -0.00019788045
0.0033780369 0.0014907238 -0.0047481558
0.067106895 0.0040000002 -0.00034030879
0.022427732 0.0045674089 0.001927087
0.01726947 0.004252804 0.0026007306
0.075000003 -0.00025248053 -0.0014458988
0.027686659 -0.0034468481 0.0036035283
0.015353085 0.0049054273 -0.00071823195
0.061266027 0.0022845583 -0.0044193394
0.041377053 -0.0048601995 0.0010617126
0.049250703 0.0036061869 0.0034433866
0.028840493 0.0027796235 0.0041155289
0.068962149 -0.00015625605 0.0049794256
0.063761249 0.0029632442 0.0039746258
0.00018041971 0.00098545745 0.0045506875
0.013210027 -0.0016912044 -0.004665114
0.05986429 -0.0046090833 0.0018264746
0 0.0019950063 -0.0014848973
0.045936186 -0.0033301411 0.0036930845
0.029967349 0.0019783168 0.0045461887
0.013576277 -0.0047667325 -0.0014458768
0.075000003 0.0018691922 -0.001404689
0.04214973 0.0042597027 -0.002591745
0.072017446 -0.001294331 0.0048295041
0.045393921 0.0045741359 0.0019108451
0.053754877 -0.0039918944 -0.0029407404
0.050446622 -0.0042804815 0.0025646619
0.013278998 0.0043596947 0.0024285528
0.0094808852 0.0028007613 -0.0040993085
0.0041349865 -0.0044208714 0.002280859
0.012319445 0.0016195275 0.0046948041
0.070205189 -0.001112444 0.0048535196
0.052961055 0.0049031745 -0.00073533913
0.051219057 -0.0016520828 -0.004681319
0.062201016 -0.0014216491 -0.0047767679
0.07421805 -0.0022716983 0.0044246656
0.069201298 -0.0018130165 -0.0046146582
0.060276791 -0.0022571385 0.0044306968
0.0085232798 -0.004960076 -0.00030319829
0.023737714 -0.0026185929 0.0042390968
0.065760404 -0.0048415111 -0.0012036422
0.056058858 -0.0040458306 0.0028704524
0.047063261 -0.0022630328 0.0044282554
0.054953024 0.0027475522 -0.0041401386
0.065583557 -0.0046896534 0.001631961
0.071493097 0.0040000002 0.002313267
0.070595481 0.0040000002 0.0019665016
0.042125087 0.0027086183 0.0041700155
0.036311615 0.0028699725 -0.0040461989
0.071738906 0.0023406723 0.0043960959
0.0077789538 -0.0019276403 0.0045671794
0.074252799 0.00039998893 0.0049473317
0.054334432 0.00022596764 -0.004970246
0.039586246 -0.0026073791 0.0042477022
0.05586385 -0.0034951111 0.003566493
0.010006837 0.00027780965 0.0015844443
0.0024150787 -0.0001607036 -0.0049788398
0.031760965 -0.0049471762 -0.00040116851
0.036272395 0.004947355 -0.00039981116
0.0010160269 0.0011158559 0.0011694847
0.071599551 0.003849867 -0.0031258417
0.0041111954 -0.0049582492 -0.00031707421
9.2086202e-06 -0.0019010853 -0.0040515251
0.019084698 0.0019993086 0.0045374935
0.057615705 -0.0029525829 0.0039828066
0.014661496 0.0027680637 0.0041243993
0.042945046 0.0043824483 -0.0023736202
0.038272317 0.0020311368 -0.0045243097
0.01753 -0.0039493716 0.0029961546
0.066616215 -0.0015866657 0.0047084154
0.038049772 -0.001305333 0.0048249471
0.00089614198 0.0036111895 0.0034368641
0.0095363539 -0.0033065085 0.0037112189
0.057506245 -0.0019983333 -0.0045378972
0.063442223 0.0040000002 -0.0023963696
0.045334578 -0.0011447149 -0.00484927
0.029729819 -0.0029720245 -0.0039678887
0.074655108 -0.0042898352 0.0021953722
0.071023561 -0.0020782351 -0.0045048012
0.069766149 -0.0033778369 0.0036564842
0.065871485 0.003782291 -0.0032139022
0.0081002619 0.0047253449 -0.0015457947
0.035799779 0.0030677589 -0.0038944259
0 -0.0011541006 0.0017457224
0.074965872 0.00022674032 0.0045042937
0.016504265 0.0013607831 -0.0048019788
0.022361185 0.0021290551 0.0044837506
0.028075198 0.00460445 0.001837661
0.042184003 -0.0013123824 0.0048220274
0.0077397069 0.00041453086 0.0049454169
0.00057515467 0.003498605 0.0035638118
0.041327953 -0.00038391026 0.0049494486
0.069813035 -0.0046160035 0.00180977
0.031256996 -0.0035587952 0.0035051433
0.0081747686 -0.004893288 -0.00081042678
0.0041343207 -0.0044787363 0.00214116
0.0052318247 -0.0012899972 0.00095880585
0.015337573 0.004253794 -0.0025994463
0.052318133 0.001772335 -0.0046315086
0.057298012 0.0034893609 -0.0035709057
0.0025446885 -0.0034790921 -0.0035787853
0.023819454 -0.0022877725 -0.004418008
0.061868712 -0.0017896021 0.0046243565
0.058240406 0.0040000002 -0.002452198
0.018034067 -0.00072025636 0.0049051605
0.018247804 0.0049171816 -0.000628963
0.064951256 -0.00015555137 0.0049795182
0.012300081 0.003895897 0.0030658417
0.033487152 0.0020455909 0.0045183226
0.025228063 -0.0036778329 0.0033500162
0.040963605 -0.0046182955 0.0018042343
0.0093463724 -0.00020637433 0.0015938443
0 -0.0032397048 -0.0022433302
0.03254275 -0.0028921715 0.0040291641
0.0063556768 -0.00029817488 0.0049607381
0.0096598817 0.00070468726 -0.0014476406
0.016637351 -0.0031055305 -0.0038654413
0.055423245 -0.0043404582 -0.0024749939
0.03176146 0.0040122219 0.0029142499
0.075000003 0.003674577 -0.0015436994
0.0091337105 0.0044848351 0.0021264381
0.061325632 0.0040000002 -0.0010567941
0.035497919 0.0046774768 -0.0016613589
0.00035473218 8.2856859e-05 -0.0048438264
0.016645383 -0.0048419707 0.0012001505
0.0055778646 -0.001093907 -0.0048559606
0.061371196 0.0040000002 -0.0022901483
0 0.00056871271 -0.0025234958
0.010274705 -0.0049932706 5.1109007e-05
0.0098148258 -0.0048342268 -0.001258964
0.049927432 0.0049166395 0.00063307927
0.010553964 0.0015829736 -0.0047099446
0.0028416375 0.0041209501 -0.0027725585
0.0012023139 0.0023037409 -0.0044113933
0.025148083 0.0041967216 0.0026738152
0.014654689 0.0009550305 0.0048742467
0.047821388 -0.002530338 0.0043068202
0.065185539 0.0031522866 0.0038295623
0.045503177 0.0024257735 -0.0043608458
0.045054395 0.0045224787 -0.0020355571
0.04273108 0.004344488 0.0024652656
0.014975436 0.0034311959 -0.0036155393
0.040462777 0.0022489293 0.0044340971
0.033415217 0.0037268579 -0.0032861284
0 0.0014005327 -0.0039611477
0.0079638632 9.4969131e-05 0.0016085036
0.069003038 -0.0048590023 -0.0010708057
0.056848373 -0.0041311742 -0.0027592352
0.043355498 -0.00050536217 0.0049334564
0.055886805 0.0020452472 -0.0045184651
0.01257214 -0.0038941947 0.0030680601
0.046158455 0.0014063972 0.0047830851
0.03965506 -0.0020518429 -0.0045157331
0.033228401 0.0028955918 0.0040265396
0.028445922 -0.0045972979 -0.0018549276
0.063006476 -0.0013886917 -0.0047904188
0.01552224 -0.004899696 0.00076175813
0.052408129 -0.0032339653 0.0037668855
0.061795209 -0.004394928 0.0023434919
0.046910718 -0.0025555708 0.0042874576
0.041070357 0.0047705127 -0.0014367476
0.063919745 -0.0049026986 0.00073895487
0.053024326 0.0046672998 0.0016859273
0.037098967 0.0021293783 -0.0044836169
0.019725785 0.0045980369 -0.0018531426
0.057311043 -0.0019319232 -0.0045654052
0.002893799 -0.0049765669 -0.00017796623
0.01417927 0.0045884675 0.0018762461
0.062858991 -0.0039466713 -0.0029996741
0.061873388 -0.0034448362 0.0036050719
0.062017772 -0.0049830303 -0.00012887837
0.059912268 -0.0034049607 0.0036356708
0.053188264 0.0049527916 0.00035852267
0.043192957 0.0036564493 -0.0033778825
0.058448453 0.00049771793 0.0049344632
0.032267358 0.0018924667 -0.004581748
0.050615747 -0.0027693096 0.0041234437
0.0067915595 -0.001586142 0.00026490865
0.0358929 0.0021227403 0.0044863666
0.034604646 0.001228747 -0.0048382054
0.013709574 -0.0031436444 -0.0038361943
0.074889496 0.0040000002 -0.00040499607
0.074620292 0.0026766888 -0.0040441933
0.06456209 0.0031050714 -0.0038657936
0.067432806 0.0040000002 -0.00016213871
0.040567532 0.0034320122 -0.0036149125
0 0.0029265843 -0.0030539832
0.014816776 -0.0045526214 -0.0019627851
0.058849491 0.0036967832 -0.0033253208
0.049628485 -0.0049506743 -0.00037460646
0.054841615 0.0045611374 -0.0019422265
0.065840475 -0.0040778313 0.0028287498
0.012062857 -0.0031814189 -0.0038072078
0.0082185324 0.0047873505 -0.0013961003
0.032388106 -0.0044287927 0.0022617355
0.024461571 -0.00056036277 0.0049262149
0.024307078 -0.0048921448 0.0008191063
0 0.0018483425 -0.0025689518
0.036841799 -0.0046629696 0.0016963808
0.051959064 -0.0039074845 0.0030507413
0.066314191 0.0040000002 0.0026079777
0.051773459 0.0003216684 -0.0049576443
0.00099584705 -0.0029993511 -0.0039469185
0.040178645 0.0049276785 0.00054924807
0.0061236587 0.00047728224 0.0049371547
0.034961425 -0.0048940917 -0.00080432108
0.050705783 0.0010442657 0.0048624971
0.071298279 -0.00086639385 -0.0048859185
0.0082047665 0.0037584482 -0.0032449614
0.024546418 0.0020666518 0.0045095985
0.071493827 -0.004997428 1.9531659e-05
0.063902654 0.0013032656 -0.0048258039
0.0071036168 -0.0025534001 -0.0042891232
0.049749628 0.0019830067 0.004544246
0.016101327 -0.0049900976 -7.520389e-05
0.074827313 0.0016006277 0.0043514087
0.0068584713 -0.0030332028 0.0039209425
0.033350859 0.0047777663 -0.0014192375
0.03639628 0.0012696376 -0.004832821
0.071437463 0.0029157249 0.0040110904
0.050722659 -0.002150926 -0.0044746911
0.042094097 -0.0031176766 -0.0038561209
0.052342597 -0.0022035835 -0.00445288
0.021965183 -0.00037101668 -0.0049511469
0.044121072 0.0041769012 -0.0026996557
0.0078432197 0.0049946192 4.0865736e-05
0.03068942 -0.0049175723 0.00062599342
0.041841745 0.0048733139 0.00096211582
0.016041892 -0.000642067 -0.0049154558
0.067650057 0.0011747837 0.0048453109
0.003312943 0.0034365985 0.003611393
0.006222534 0.0049556117 0.00033710766
0.026168862 0.0042819805 -0.0025627124
0 0.00057625124 -0.0023353691
0 0.0014216232 0.0020473918
0.0460095 -0.0038185979 0.0031665755
0.005475306 -0.0044586393 0.0021896798
0.069503851 -0.00050981942 0.0049328702
0.0087900553 0.0048868586 -0.00085925322
0.045046993 -0.0037430718 -0.0032649988
0.031215681 -0.0035723036 -0.0034875395
0.043620117 -0.0011927417 -0.0048429463
0.0046515777 0.0015906092 -0.00023096094
0.057259835 -0.0031274126 0.0038486498
0.007788009 0.0015035056 0.00056985253
0.071026035 -0.004397111 0.0023382222
0.044923332 -0.0033624494 0.0036682924
0.062694922 -0.0030267178 -0.0039259191
0.024071682 -0.0049211308 0.00059897278
0.04268264 0.0039257412 -0.0030269539
0.042930275 -0.0036180539 0.0034279188
0.075000003 0.0023326704 0.0003908372
0.034328725 0.0043989839 -0.0023337007
0.0089895334 0.0035182808 -0.0035487132
0.048829462 -0.0049537178 0.00035149034
0.0059997323 0.0016068267 -0.00010771397
0.022518793 -0.0025841279 -0.004265544
0.041209735 0.0014630194 0.0047596311
0.024123335 0.0020667997 -0.0045095379
0.015295448 -0.0033147808 -0.0037048708
0.02923575 0.0044753673 -0.0021492937
0.057669811 0.00058225082 0.0049233325
0.021402806 -0.0028134375 -0.0040895818
0.073607661 -0.0041734171 0.0027041852
0.052120853 -0.0048936312 -0.00080781977
0.059545156 0.0038098299 0.0031780154
0.052026149 -0.0037496006 -0.0032564907
0.0023401228 0.0016748077 -0.0046719057
0.05908756 -0.0014918128 0.0047477046
0.0051814946 0.0015595312 0.0004346304
0.066373996 -0.0049365056 -0.00048220635
0.042613853 0.0049602357 -0.00030198862
0.050208833 -0.0044860528 -0.0021234977
0.052555811 -0.004939321 -0.00046082539
0.0033094189 -0.0049087056 -0.00069333304
0.027861282 0.0047814553 0.001410333
0.075000003 0.0012457721 -0.00084208732
0.063539788 -0.0029765393 0.0039644237
0.056205072 -0.0014293502 -0.0047735781
0.033566065 -0.0048904577 0.00083191827
0.0052877902 0.0032246264 -0.0037740518
0.048504673 -0.003878718 -0.0030882289
0.070449725 -0.004030887 -0.0028899265
0.0030328475 0.0013569753 0.004803556
0.06870456 -0.0010893644 0.0048565585
0.074071839 0.0013023566 -0.0048261802
0.047893431 0.0047407323 0.0015086461
0.075000003 -0.0027809064 -0.00083971996
0.017794704 -0.0048644813 0.0010291955
0.033030733 0.00087846757 0.0048843282
0.057449162 0.00088547525 -0.0048834058
0.073904745 -0.0038752819 -0.0030927062
0.07472077 0.0036548239 -0.0030204817
0.017900985 0.0013498632 -0.0048065027
0.068054013 0.00048815086 -0.0049357233
0.0098147159 -0.00021245451 -0.0015930441
0.011574214 0.0027576666 -0.0041323779
0.04289645 0.0015664663 0.0047167824
0.033133365 -0.0035149397 -0.0035512773
0.010532551 0.003775605 -0.0032226024
0.062230684 -0.0049846186 0.00011681423
0.012920276 0.002354118 0.0043905266
0.027196972 0.0025320994 0.0043054689
0.070995651 0.0040000002 0.0020998942
0.048582666 -0.0013226541 0.0048177727
0.012839232 0.0038016678 0.0031886378
0.070314102 0.0019050445 -0.0045765392
0.043506604 -0.0026890305 -0.0041850461
0.019190518 0.0029162327 0.0040107006
0.011874858 0.0019413996 0.0045614797
0.04358118 -0.0049435105 0.0004290099
0.011223051 -0.0011866299 0.004843751
0.039960809 -0.0045647472 0.0019335113
9.3145798e-05 0.002119791 -0.0040509901
0.041029774 -0.00058959163 -0.0049223658
0.075000003 -0.0025427872 -0.0015785447
0.010851654 0.0030562829 0.0039032318
0.0024704593 0.0015389237 -0.0004843683
0.073682375 -0.0048376094 0.0012332743
0.028103873 -0.00039036875 0.0049485988
0.047457304 0.0017030571 -0.0046602045
0.060270663 0.00021778113 0.004971324
0.027973121 -0.00080509728 0.0048939893
0.025458191 -0.00061559217 0.0049189427
0.027877621 -0.0020647608 0.0045103817
0.0039343708 -0.0015971444 0.00018129332
0.075000003 -0.002697191 0.0023283025
0.057080798 -0.0013038386 0.0048255664
0.0086312117 -0.0049944613 -4.2062929e-05
0.032032661 -0.00031905746 0.0049579884
0.075000003 0.003136242 0.0015916298
0.022980256 -0.0013732115 -0.0047968309
0.027702766 -0.004899668 0.00076196942
0.0094080903 -0.004812622 0.001335088
0.021501254 0.00083267892 0.0048903576
0.036630843 0.00066954462 0.0049118381
0.034498405 0.0017824961 -0.0046272995
0.059980433 0.0040000002 -0.0025735234
0.059059534 0.0040000002 0.00085912965
0.072219424 -0.00054109789 0.0049287514
0.05290395 -0.00072185311 -0.004904951
0.046394974 -0.00010474875 0.0049862075
0.047918215 -0.0048418161 -0.0012013256
0.049175698 0.00031814445 0.0049581085
0.00073986512 -7.6315082e-05 0.0049899518
0.075000003 -0.00087393337 0.0012104226
0.053881314 -0.00036176603 -0.0049523646
0.00075535564 -0.0049100639 0.00068301847
0.022096727 -9.9969511e-05 0.0049868366
0.016434109 0.003472195 -0.0035840778
0.06381119 8.9621812e-05 -0.0049881996
0.019196514 0.0019379063 0.0045629269
0.030652901 -0.0027978607 0.0041015344
0.049059428 0.0047510252 -0.0014837955
0.032242384 -0.0049953545 -3.5280893e-05
0.051543947 -0.0045315018 -0.002013773
0.00053222373 0.0029412743 -0.0039914846
0.011787229 -0.00018484579 0.00031869713
0.020974007 0.004959228 -0.00030964584
0.021506082 0.004201578 0.0026674869
0.046315189 -0.0033985225 0.0036406112
0.049843717 0.0017504725 -0.0046405648
0.010558035 -0.0048989016 0.0007677892
0.05398481 0.0046906136 -0.0016296442
0.0085702585 0.0049142567 0.00065117446
0.052854884 0.004459966 0.0021864767
0.02998763 -0.0048584035 -0.001075351
0.041256402 -0.0048861192 -0.00086486619
0.068809062 -0.0048598335 -0.0010644934
0.05233122 0.0049786498 0.00016214635
0.036775947 -0.00443041 -0.0022578302
0.04298722 0.0026440497 0.0042195627
0.061328508 0.0040000002 -0.00036023982
0.026641313 -0.00022783822 -0.0049700001
0.053471558 0.0048393984 -0.0012196845
0.055262629 -0.0045757592 -0.0019069262
0.057623729 -0.0049930457 -5.2813932e-05
0.0064761261 0.00074420357 -0.004902008
0.033504281 0.0027133685 0.0041663703
0.019548269 0.0048374906 0.0012341731
0.011321911 -0.0026897923 -0.0041844617
0.00012532079 0.0012920311 -0.0013513287
0.0040995572 -9.20331e-05 0.0016088899
0 0.0014530893 0.0038908687
0.039306551 0.0049834605 -0.0001256104
0.015245073 0.0035653075 -0.0034966557
0.031598773 -0.0040467032 0.0028693152
0.07167419 -0.0044898228 -0.0021143956
0.074541919 0.0037470127 0.003191604
0.048601158 -0.0049711512 -0.0002190941
0.067410201 0.00015747076 -0.0049792654
0.075000003 -0.00025584389 -0.0017486692
0.073634587 -0.0048586237 0.0010736824
0.067200512 -0.0033264523 -0.0036959148
0.048726711 -0.0049177432 0.00062470208
0.025681546 -0.00082629739 0.0048911981
0.060675278 -0.0016585019 0.0046786601
0.0032766117 -0.0047360915 0.00151985
0.059945073 -0.0031441867 0.003835778
0.017512957 0.0045234798 -0.0020331407
0.038958624 -0.004527092 0.0020244184
0.039647613 -0.0029993514 -0.0039469185
0.0035979054 0.0043551037 -0.0024396367
0.059571758 0.0025512881 -0.0042907442
0.040423349 -0.004174869 0.0027022925
0.070195086 -0.00074491306 -0.0049019139
0.010005691 -0.00021785406 -0.0049713147
0.036566552 0.0040352601 0.0028842292
0.059927393 0.0037087228 -0.003309763
0.05266517 -0.0039276029 -0.0030245229
0.049301121 -0.0043045618 0.002533281
0.058271326 0.0040000002 -0.0024903163
0.073244974 -0.001548102 0.0047243894
0.068779156 -0.0045481143 0.0019736672
0.038405154 -0.0035983673 -0.0034535732
0.037619509 0.0048445505 0.0011805604
0.039164737 0.0026184572 -0.0042392011
0.07063292 0.0017085623 -0.0046579242
0.070797674 -0.00058951008 -0.0049223769
0.011627297 0.00054214033 -0.00034478231
0.014029511 -0.0042581302 0.0025937895
0.042141221 0.0037788514 0.003218384
0.052106015 0.0048335725 -0.0012639316
0.048150651 0.0027361084 -0.0041489205
0.025254464 -0.0004207583 -0.0049445969
0.064687707 0.00017890216 0.0049764435
0.0045818877 0.0020123941 -0.0045320732
0.0550295 0.0040000002 0.0014574103
0.0011697803 0.0034893337 0.0035709266
0.028607458 0.0049832012 0.00012758031
0.0041206521 0.0012563968 0.0048345649
0.039576288 -0.00021210194 0.0049720719
0.074744388 0.0035943091 0.0030608857
0.016652377 0.00044446473 0.0049414756
0.017761193 -0.0027344639 0.004150182
0.061178371 -0.0026937628 0.0041814148
0.0071738204 0.00014214193 0.0016022965
0.015294795 0.0021891552 -0.0044588563
0.00066221837 -0.0036088484 -0.0034399147
0.036822669 -0.0034594738 -0.0035938395
0.013140411 0.0013428344 -0.0048094136
0.034995396 0.003404462 -0.0036360538
0.0086764907 0.0010869318 0.0011916796
0.049491022 -0.0048491647 0.0011455175
0.069967233 -0.0010952145 0.0048557878
0.031849924 -0.003889242 -0.0030745144
0.0085508022 -0.0034476507 -0.0036029124
0.0048166583 -0.0044837389 -0.0021290823
0.057513658 -0.0049749683 0.00019010586
0.016524069 -0.0041519133 0.0027322082
0.054497484 -0.0048570856 -0.0010853605
0.0073408126 -0.0036846693 -0.0033411076
0.057452228 0.0019448261 -0.0045600608
0.070710376 -0.0043021329 -0.0025364466
0.030806275 0.0042456812 -0.0026100192
0.062123079 0.0020572892 -0.004513477
0.055928774 0.00069095689 -0.0049090185
0.051066827 0.0036403525 -0.0033988596
0.016367283 -0.0025846544 -0.0042651398
0.022396058 -0.0039597508 0.002982629
0.052954562 -0.0030600855 0.003900314
0.040527306 0.0046439888 0.0017422051
0.016369781 0.004582373 -0.0018909591
0.051016279 -0.0049686804 -0.00023785554
0.040188476 0.00060193881 0.0049207401
0.052698981 -0.0038281404 -0.0031541397
0.023515819 -0.0030840999 0.0038818859
0.059954133 0.0027709389 -0.004122193
0.061428636 -0.00096115394 0.0048734411
0.050647035 -0.0045470735 0.0019761801
0.044453967 0.00012517213 0.0049835178
0.066489153 -0.0031755483 -0.0038117124
0.029627744 0.0046130004 -0.0018170177
0.051837672 -0.0049976851 -1.7581275e-05
0.019416107 0.0032807991 0.0037309472
0.065480322 0.0040000002 -0.0011867512
0 -0.0030586384 -0.0024556438
0.046121974 -0.0040711835 -0.0028374135
0.0021671222 -0.00067984179 0.0014579347
0.011420014 0.00092918304 0.00035931158
0.0069585643 -0.0049368688 -0.00047945068
0.055461321 0.0039360994 0.0030134704
0 -0.0033095374 0.0028784091
0.012035833 -0.00026584655 -0.0049649952
0 0.0029455924 0.0023657868
0.040891122 0.0041031977 0.0027956937
0.01873832 0.00090774393 -0.0048804735
0.020312615 0.0049915477 6.4192885e-05
0.067700364 0.0017784949 -0.0046289577
0.0022543119 0.0015728675 0.00036578946
0.073917776 0.0021085625 -0.0044922391
0.069935523 0.0040000002 0.0028233093
0.075000003 -0.00093311816 -0.0039653531
0.010091489 -0.0031889211 -0.0038014506
0.038922306 -0.0043938514 -0.0023460907
0.023299085 0.0036783449 0.0033493566
0.022184961 0.0048590279 -0.0010706086
0.026207175 0.0040390468 -0.0028792922
0.0042318483 0.0015803179 -0.00030917031
0 -0.0029503827 -0.0029959257
0.043956 0.0036235128 -0.0034208042
0.013258884 0.0035692884 -0.003491468
0.06503199 -0.0026530931 -0.004212623
0.016469263 -0.0018685225 0.0045916666
0.025131486 -0.00097599486 -0.0048714867
0.0095401062 0.0020094758 0.0045332815
0.067298725 0.0024270432 0.0043603205
0.043172702 -0.001268029 -0.0048330328
0.05471291 -0.0017120908 -0.0046564629
0.057330515 0.00086408347 -0.0048862221
0.0162296 -0.0028645294 -0.0040503764
0.032723598 0.0026194304 -0.0042384546
0.010993298 0.0047411928 -0.001507535
0.037941493 0.0005427344 -0.0049285358
0.051409479 -0.0038866887 0.0030778414
0.075000003 -3.9568487e-05 0.002874824
0.073061936 0.0040000002 -0.0029148231
0.020414656 0.0024744184 -0.0043406966
0.0045585237 0.0040463288 -0.0028698025
0.00058935501 -0.001614181 5.1823048e-05
0.0066416082 0.0016749785 0.0046718353
0.029157473 0.0049990723 -7.0497736e-06
0.048974644 -0.0049036313 0.00073187111
0.038381871 -0.0010097938 -0.0048670359
0.0044878419 -0.0045245709 -0.0020305067
0.020608982 0.0024510601 -0.0043503721
0.027162401 0.0036548048 -0.003380026
0.0033616354 0.0016133309 -5.8282807e-05
0.058536045 0.0040000002 -0.0016431115
0.027852222 0.0040442375 -0.0028725292
0.049444925 0.0043751639 0.0023912073
0.057646696 0.00025850555 -0.0049659619
0.013299814 -0.0023617183 0.0043873782
0.029910289 -0.0048524598 -0.0011204917
0.041447029 0.0049321223 -0.00051549403
0.013780786 -0.0034338136 -0.0036135307
0.06858974 0.0030315735 -0.0039221924
0.051803265 0.0035200864 0.0035473281
0.058873408 -0.00099803496 0.0048685842
0.0093268156 -0.0036422997 0.0033963225
0.053236399 -0.0044708042 0.0021603105
0.047255889 -0.0013083888 0.0048236814
0.062968165 0.00019813655 0.0049739112
0.068626456 0.0040000002 0.0026614657
0.019024011 -0.0043991012 -0.0023334164
0 -0.0024445408 -0.002535559
0.022930192 0.0026385295 -0.0042237984
0.068241104 -0.0037981807 0.0031931822
0.014338149 -0.0048765531 0.00093751313
0.038691126 0.00058683153 0.0049227299
0.015582223 -0.0024900082 0.0043342388
0.019308699 -0.0015933343 0.0047056535
0.068710037 -0.0025040458 0.0043269959
0.0210438 0.00077537133 0.0048979037
0.0066779852 -0.00024519133 -0.0015887365
0.071113482 0.0020182529 -0.0045296461
0.022211913 -0.0019255858 -0.0045680306
0.044274189 -0.0016799768 0.0046697645
0.070033558 0.0037294556 0.0032827526
0.06365791 -0.0039886353 0.0029449873
0.003518078 -0.0048812414 -0.00090191187
0.037150599 -0.0003833473 -0.0049495231
0.037535902 0.0047833496 0.0014057591
0.020827746 0.0029265564 0.0040027788
0.029483676 -0.0027923025 -0.0041057994
0.022768775 0.0047279308 -0.0015395525
0.055728126 0.0035259936 -0.0035427953
0.047845889 -0.0047973702 -0.0013719096
0.028115423 -0.0021000002 0.0044957856
0.075000003 0.0018841441 -0.00020233393
0.0053647859 -0.0049510682 -0.00037161392
0.056665234 0.0040000002 0.0017926997
0.071872808 -0.0049360869 -0.00048538935
0.04502013 0.00090669381 -0.0048806113
0.027933598 -0.0029187284 -0.0040087854
0.075000003 -0.0025276295 -7.5010394e-05
0.020165265 -0.0011021558 0.0048548742
0.035191022 -0.00093861244 0.0048764087
0.067480579 -0.0048861625 0.00086453848
0.046942227 -0.0046776878 -0.0016608492
0.038855329 0.0043149409 -0.0025197563
0.062218547 0.0040000002 0.00083448138
0.031281456 0.0046838219 0.0016460393
0.0049821949 0.0045844754 -0.0018858841
0.062243935 -0.0028875594 0.0040327036
0.048513293 -0.0017960039 0.0046217046
0.011735092 0.0041296701 -0.0027611949
0.026271058 0.0047222576 0.0015532471
0.06529171 -0.0013718084 0.0047974121
0.038099665 0.0048461524 0.0011683957
0.071098387 0.0013255195 -0.0048165862
0.073207751 -0.0048799403 -0.00091179454
0.066414461 0.00360361 0.0034467452
0.074712589 -0.0012413963 -0.0046233158
0.026095549 0.0027139429 -0.0041659297
0.06559623 -0.0045588538 0.0019477403
0.050014812 -0.0038461993 -0.0031306059
0.058422368 -0.0049690651 0.00023493511
0.0094956113 0.0030319344 -0.0039219158
0.051356979 -0.0041070273 0.0027907025
0.049851231 0.0038997284 0.0030608666
0.030577902 -0.0028790503 -0.0040392331
0.06553714 -0.0036564074 -0.0033779375
0.075000003 -0.0031249812 -0.00017531491
0.039071146 9.720173e-05 0.0049872012
0.075000003 0.0021250949 0.00265348
0.0041005658 -0.00040229096 0.0015680644
0.022911973 0.0043849815 -0.0023675044
0.032562725 -0.00058321725 -0.0049232058
0.0366816 -0.0048273699 0.0012994845
0.024288509 0.0049902536 7.4023606e-05
0.057627246 -0.0046002613 -0.0018477731
0.058294248 -0.0032439365 -0.0037592342
0.0074822605 -0.0013236131 0.00091499824
0.018659482 -0.0031126267 0.0038599956
0.017634599 0.0016146953 -0.004696805
0.030791026 -0.0049224319 -0.00058909069
0.018930249 -0.0037693277 -0.0032307829
0.021472877 -0.0015196053 0.004736193
0.048950154 -0.00059738383 0.0049213404
0.075000003 -0.001636248 0.00051015423
0.041700233 0.0030855762 -0.0038807532
0.040929012 -0.0038454002 0.0031316474
0.072475396 -0.0035520494 -0.0035139339
0.049004123 -0.0048719579 -0.00097241119
0.014709512 -0.0014227132 0.0047763269
0.025799578 -0.0021183635 -0.0044881795
0.035599392 -0.0043418631 0.002471603
0.044321917 -0.0034560263 0.0035964856
0.027830271 -0.0030317418 -0.0039220639
0.0369188 0.0028566739 -0.0040564034
0.01896238 -0.0049011209 0.00075093919
0.066051982 0.0040000002 0.001801051
0.056480166 0.0033529801 0.0036755588
0.068605356 0.0036588204 0.0033747992
0.071688935 -0.0038158861 -0.0031701096
0.0048658 -0.0014389852 -0.00072557776
0.072918624 0.0040000002 0.0012233473
0.00020076333 -0.0041572209 0.0021421576
0.069099627 0.00095294166 -0.0048745219
0.013323293 -0.0041128965 -0.0027830538
0.0280353 0.0019709559 -0.0045492374
0.011417238 -0.0042832159 0.0025610987
0.038522374 0.001197601 0.004842307
0.05582118 0.0027610632 -0.0041297711
0.026327394 0.00094095932 0.0048761005
0.062780611 0.0028642453 0.0040505934
0.0088430792 -0.0011597533 0.0011285376
0.026561961 0.0021612053 0.0044704336
0.073240653 -0.0028032432 -0.0040974035
0.030605383 -0.0046342313 -0.0017657626
0.04762901 0.0028386272 -0.0040702517
0.075000003 0.0011432049 -0.0013042787
0.054806519 0.0034021365 -0.0036378384
0.043014947 0.0048586847 0.001073219
0.038759425 0.0049396502 0.00045832561
0.052364923 -0.0046848506 0.001643557
0.054826461 0.00063706114 0.0049161157
0.044840164 0.004844015 -0.0011846303
0.040784083 -0.0041349879 0.002754265
0.029041039 -0.0039005938 0.0030597204
0.023707759 0.0044707232 0.0021605063
0.019673137 0.0032945559 0.0037203908
0.010198797 0.0044795056 0.0021393034
0.064208329 0.0040000002 -0.0028203237
0.02700578 0.004411282 -0.0023040103
0.0028951133 0.0033649416 0.0036663802
0.048005506 -0.001745188 -0.0046427534
0.021136198 0.0015444714 0.0047258926
0.04087051 0.0037025237 0.0033178485
0.0026279457 -0.0048356387 0.0012482378
0.0057387273 0.00011555437 0.0016057948
0.022700544 -0.004154637 0.0027286585
0.058828417 -6.3023108e-05 -0.0049917018
0.062361859 -0.0045223711 -0.0020358176
0.072791323 0.0027424861 0.0041440264
0.075000003 -0.0041634087 -0.0010777796
0.052171122 0.0046625691 -0.0016973482
0.071390562 -0.0030865511 0.0038800053
0.015352881 -0.0048600323 0.0010629832
0.037868071 0.0029203149 0.0040075677
0.035429422 0.0014113577 0.0047810306
0.024484955 -0.00039952013 -0.0049473937
0.070869133 0.00087272335 -0.0048850845
0.035039622 -0.004200629 -0.0026687235
0.068038411 -0.0022695379 0.0044255606
0.064991795 -0.0010750124 0.0048584482
0.056582056 6.9102301e-05 0.0049909013
0.0032849114 -0.00039962874 0.0015684147
0.037209209 -0.0045072865 0.0020722353
0.018799474 -0.0027090709 -0.0041696681
0.072246693 0.00030749731 -0.0049595111
0.073760994 0.0040000002 0.0011667586
0.068597555 0.0040000002 0.001932117
0.0022340617 0.0011817965 0.004844388
0.060556781 -0.00495461 0.00034471677
0.05198453 -0.0036402412 0.0033990052
0.06985271 0.0040000002 -0.0016662518
0.026643047 0.0049247202 -0.00057171588
0.00061151612 0.0047731353 0.0014304174
0.008527115 -0.0013910775 -0.00082707981
0.0013122649 0.0010324827 -0.0048640482
0.023885772 -0.0018109997 -0.0046154931
0.0010545792 0.0048418213 0.0012012915
0.069303714 0.00083759835 -0.0048897099
0.044563666 0.0036736324 -0.0033554903
0.042872805 -0.0026090664 -0.0042464072
0.027285224 0.0039578713 0.0029850784
0.021712463 -0.0044679958 0.002167091
0.0083025042 -0.00044328242 0.0049416311
0.0084972531 -0.0037386052 0.0032708196
0.0063675465 0.0022060587 0.0044518546
0.035573177 0.0047688996 -0.001440644
0.075000003 0.002288766 -0.0019879937
0.051889755 -0.00083896128 -0.0048895306
0.046362959 -0.0039016057 -0.0030584019
0.030561948 0.0048082457 0.0013456539
0.040527713 -0.0044609965 -0.0021839889
0.070592947 -0.0030527459 -0.0039059459
0.04023169 0.0048524826 0.0011203178
0.050437976 -0.0040347981 0.002884829
0.0087082796 -0.00091415207 -0.0048796292
0.054802585 0.0047770492 -0.0014209681
0.063494831 -0.002289654 -0.0044172285
0.070353284 -0.0035965878 0.0034558922
0.044210888 -0.0048407968 -0.0012090686
0.044024028 0.0016730168 -0.0046726479
0.061074026 0.0039973464 -0.0029336582
0.0049634702 -0.0018888733 0.0045832368
0.052726671 0.00076938316 0.0048986925
0.067865245 0.0029046952 -0.0040195542
0.039193194 -0.0034143031 0.0036285021
0.034074187 -0.0012969659 -0.004828413
0.0026224719 0.00060690893 -0.0049200859
0.021200821 0.0047182934 -0.0015628177
0.0067731389 0.0010216857 0.0012417464
0.075000003 -0.0012522598 0.0012548659
0.045538135 -0.004861102 -0.0010548608
0.039450385 0.0015242029 -0.0047342884
0.048269484 -0.0033482178 0.0036792131
0.034406643 -0.0026066478 -0.0042482633
0.026497597 -0.001431466 0.0047727013
0.075000003 0.00011629689 0.0014987048
0.073240757 0.0040000002 -0.0011775033
0.01664358 -0.00056733575 -0.0049252966
0.056174297 0.00093236566 0.0048772315
0.050306223 -0.0047321902 -0.0015292688
0.038683545 0.0042887446 0.0025538935
0.036449488 -0.0035363452 -0.0035343992
0.012017136 0.0049790023 0.00015946661
0.072410889 -0.0044692387 -0.0021640898
0.0066749081 0.0048801862 -0.00090992422
0.068185806 0.0020903242 0.0044997931
0.017414311 -0.0014470003 0.0047662673
0.062102232 -0.0047030961 0.0015995076
0.073480509 0.0023863825 0.0043771621
0.0074175107 -0.0011269861 0.0048516048
0.07025829 0.0017853238 -0.0046261284
0.072670713 0.0033562952 0.0036730145
0.053501811 -0.003897185 -0.0030641626
0.075000003 0.0025525037 0.00035138
0.033934638 -0.00051643461 -0.0049319989
0.0096976943 0.0033512434 0.0036768913
0.065752506 0.0020008269 -0.0045368643
0.04849131 0.0049684052 0.00023995113
0.025213717 0.00031441933 -0.0049585993
0.015311898 -0.0025172986 -0.0043168259
0.06039815 -0.0040962393 -0.0028047611
0.023914628 -0.0048741498 0.00095576793
0.06080028 -0.0019902049 0.0045412644
0.030385377 0.00062509562 -0.004917691
0.031450953 0.00012902457 -0.0049830112
0.0043317894 0.0026672098 -0.0042017903
0.0076271272 0.0032718841 0.0037377886
0.016061286 0.0032171055 -0.003779823
0.067303851 0.0040000002 0.0018169993
0.069737874 -0.0041430965 -0.0027436982
0.00339205 0.0010112053 -0.0048668501
0.03155148 0.0015273044 0.0047330037
0.060640339 -0.0049173874 -0.00062740146
0.064400032 0.0040000002 -0.00069352164
0.032296043 0.0048974934 0.00077848643
0.022065748 0.00036729831 0.0049516358
0.005591467 0.0015710362 0.0047148899
0.064128235 -0.0043946356 0.0023441976
0.0038420102 -0.00070363597 -0.0014480763
0.0051431954 -0.0014631752 0.00066719367
0.074016422 0.0040000002 -0.0013473291
0.0040661874 0.0045031724 0.002082166
0.014010929 -0.0022150762 0.0044481196
0.0392345 0.0041244901 -0.0027679603
0.020081555 0.0028592139 -0.0040544546
0.07458096 7.0723603e-05 0.0049097314
0.064746819 0.0040000002 -0.00059024966
0.0018282762 0.0043449495 0.0024641503
0.028166253 0.0049951253 -3.7022804e-05
0.0095638735 0.0044448646 0.002222935
0.055568986 0.0019983752 0.004537879
0.0056653037 0.0006858994 0.0014554248
0.060489226 0.0036749011 -0.0033538367
0.039698705 0.0013331256 -0.004813435
0.033899389 0.0039203693 0.0030339572
0.006780745 -0.0020833039 -0.0045027016
0.075000003 -0.00070275285 -0.00066272944
0 -0.0019142072 0.0029549417
0 0.0023322315 0.00063065789
0.048568498 -0.00011077627 0.004985414
0.042827494 0.00034353221 0.0049547656
0.073883906 -0.0047944998 -0.0013788393
0.044025645 0.0017496732 -0.0046408959
0.075000003 0.0035091783 0.00073601806
0.017157143 0.0017745071 -0.0046306094
0.039658152 -0.0021697069 0.0044669127
0.019038893 -0.00065249711 -0.0049140831
0.033747878 -0.0032825149 0.0037296307
0.004738898 0.0049588038 -0.00031286303
0.05093864 -0.0049877726 -9.2863018e-05
0 -0.0040127467 -0.0011850949
0.028461108 0.00067426841 0.004911216
0.052711893 0.0044832388 0.0021302905
0.0085256416 0.0049502328 -0.00037795992
0.063611276 0.0027398921 0.0041460171
0.043556854 -0.0033901387 -0.003647045
0.020669581 0.0048360685 -0.0012449739
0.040372696 -0.0026370217 -0.0042249556
0.0014534264 0.0035695531 -0.0034911237
0.0079537909 0.0049787024 0.00016174764
0.057561856 0.0040000002 0.0012605157
0.031082863 0.0049937498 4.7465866e-05
0.075000003 -0.0018007029 0.00058819522
0.015108913 -0.00018258602 -0.0049759583
0.061957013 0.0037250526 -0.0032884863
0.074915752 -0.0032446447 -0.0032375578
0.035746567 0.0037496034 0.0032564979
0.014320044 0.0048895646 -0.00083869888
0.034508284 -0.004517707 0.0020470764
0.043418597 -0.0049574417 0.00032320962
0.056518845 -0.003485082 -0.003574189
0.032629788 -0.0015622263 0.0047185384
0.070090473 -0.004006336 0.0029219207
0.020190364 0.0049262224 -0.00056030316
0.045161024 0.0048795142 0.00091502647
0.060873229 -0.0016585677 -0.0046786331
0.0079204328 -0.0048523662 -0.0011212035
0.062882036 -0.0048588961 0.0010716163
0.074736826 0.00017772455 0.0047397874
0.0033930312 0.0028408223 -0.0040685674
0.03222904 -0.0019834747 0.0045440518
0.026824618 -0.0048383386 -0.0012277355
0.041660715 0.0042463411 -0.0026091586
0.0092224581 0.0023509951 -0.0043918202
0.05563698 -0.0048510358 0.0011313065
0.074956737 0.0040000002 0.0015694553
0.048670694 0.0044228667 -0.0022760422
0.021012394 0.0040061367 -0.0029221806
0.00046340338 0.00019578493 -0.0015952378
0.046706591 -0.0038302382 0.0031514061
0.010927872 -0.0016198048 0.0046946886
0.031967375 -0.0021764371 0.0044641243
0.060087547 -0.0026534006 -0.0042123869
0.0076782783 -0.0018924836 0.0045817415
0.020005519 -0.0018397962 0.0046035652
