# .PCD v0.7 - Point Cloud Data file format
VERSION 0.7
FIELDS x y z
SIZE 4 4 4
TYPE F F F
COUNT 1 1 1
WIDTH 1000
HEIGHT 1
VIEWPOINT 0 0 0 1 0 0 0
POINTS 1000
DATA ascii
0.028028062 0.0030092446 -0.0039393273
0.017802695 0.00123561 -0.0048373016
0.03499965 -0.002627898 0.0042319568
0.055524353 -0.0048822644 -0.00089414476
0.021477517 -0.0040776492 0.0028289868
0.015498668 0.0046157702 -0.0018103315
0.057212304 0.0041545588 0.0027287609
0.020689404 0.0012002229 0.004841961
0.041275345 0.0040386422 0.0028798201
0.016682124 0.0043303692 0.0024993515
0.067622721 -0.0028522266 0.0039999997
0.011483454 -0.0017989225 0.0046204962
0.055274118 0.0011718337 0.0039999997
0.020792874 0.00072311994 -0.0049047838
0.0046285791 -0.0044637206 0.0021774119
0.0079936106 -0.0041918093 0.0026802169
0.040323921 0.0048339735 0.0012608862
0.042056773 0.0046843593 0.0016447438
0.030790299 0.0035656192 -0.0034962504
0.074999996 -0.00091454701 0.0038998593
0.054193817 0.0011694195 0.0048460178
0.036286626 0.0027886259 -0.0041086208
0.043047681 -0.0042283298 0.0026326242
0.022664951 -0.0027805029 -0.0041148541
0.0030666115 -0.0049827085 0.00013131775
0.03504381 -0.00078450865 -0.0048966999
0.030468529 -0.0031116786 -0.0038607232
0.025408121 0.0029309283 0.0039994237
0.041706875 0.0019871911 -0.0045425133
0.060775664 0.004005834 -0.0029225748
0.01772506 0.0049155331 -0.00064148172
0.070769846 0.0031865297 -0.0038032858
0.0077043143 -0.0046385946 0.0017552288
0.03419219 0.0040874416 -0.0028162256
0.0035167458 0.0048537357 -0.0011108031
0.015250042 0.0038103166 -0.0031773676
0.066104621 -0.0039088428 -0.0030489711
0.026800092 -0.002100372 0.0044956314
0.042294718 0.0027040953 0.0041734944
0.071659781 -0.004535811 0.0020033694
0.061242666 0.0046522417 0.0017222804
0.00046775071 0.0012758499 -0.0047997572
0.028692365 -0.0019403119 -0.0045619304
0.043686774 -0.0039664642 0.0029738804
0.043490849 -0.0045826565 -0.0018902745
0.069086321 -0.00083569816 -0.0048899599
0.010625033 0.0034688839 0.0035866192
0.057539742 0.0048499694 -0.0011394051
0.059546366 0.0031963056 0.0037957907
0.072545573 -0.00024550848 -0.0049676728
0.0099995499 -0.0034511276 -0.0036002446
0.053872935 0.0035803353 0.0034770716
0.056470118 0.0049229134 0.00058543583
0.060804907 0.0022071816 -0.0044513894
0.045103535 0.0049323095 0.00051407743
0.05191391 0.0015051193 0.004742193
7.6710727e-05 0.00086798513 -0.0017044544
0.074132748 0.0049890075 8.3483304e-05
0.048198905 -0.0046174615 -0.0018062493
0.0037911998 -0.0047213282 0.0015554924
0.019496288 -0.0038777238 0.0030895241
0.019260636 -0.004970877 0.00022117667
0.010103251 -0.0049548773 -0.00034268526
0.0029478457 0.0012320779 -0.0010342855
0.074617527 -0.0014882997 -0.0046230438
0.074965946 -0.0012681319 -0.0043403986
0.073112637 0.0034439755 -0.0036057327
0.073346227 -6.411488e-05 -0.0049915579
0.030873964 -0.0028053008 -0.0040958249
0.01010172 0.0024310721 -0.0043586516
0.037645012 -0.0032108643 -0.0037846123
0.014954895 0.00021089875 0.0049722302
0.035403453 -0.003244309 0.0037589567
0.062290903 -0.0039543156 -0.0029897124
0.055287402 0.0012417535 0.0039999997
0.018850213 -0.0048554842 -0.0010975227
0.074631453 0.0017681237 0.0040000002
0.067963086 -0.004928425 0.00054357637
0.070293397 -0.0048329416 0.0012687243
0.0069512022 -0.0041604522 -0.0027210813
0.023073977 -0.0020961205 -0.004497393
0.017405767 -0.0023117021 0.004408096
0.065733753 -0.0041694725 -0.0027093259
0.052486897 -0.0015100327 -0.0047401576
0.0096537238 -0.00309057 0.003876922
0.032014843 -0.0036508546 -0.0033851736
0.071868315 -0.00071216794 -0.0049062259
0.014695802 -0.0022492777 -0.0044339532
0.052592542 -0.0049868589 -9.9800258e-05
0.013203832 0.0035971995 -0.0034550959
0.05566331 0.0045292345 0.0020192473
0.031530965 -0.0044217939 -0.0022786323
0.034761287 0.00022908309 -0.0049698357
0.0011212837 0.0025033767 0.0043275091
0.039913367 0.0019883879 -0.0045420174
0.0020465963 -0.0049829138 0.00012976592
0.012628058 0.00013107792 -0.0049827406
0.028653912 -0.0019215361 -0.0045697074
0.064718984 0.0048082327 -0.0013456865
0.027108891 0.0014256948 0.004775092
0.0031552725 -0.0023375954 0.0043973704
0.052365456 0.0032308495 -0.0037692767
0.035770971 0.0030669458 0.0038950494
0.061381448 -0.0020311123 0.0039999997
0.064210124 8.8645698e-05 0.0040000002
0.011380546 -0.0023569658 -0.0043893466
0.02257215 -0.0038627626 -0.0031090211
0.04326117 -0.0011728401 -0.004845567
0.06803555 -0.00056634372 0.0040000002
0.032326035 -0.003957516 0.0029855415
0.064976275 0.0041622254 -0.0027187697
0.022379912 0.0015786072 -0.0047117542
0.01443537 -0.0045769634 0.0019040193
0.0003055585 -0.00082370476 0.0046970993
0.036613476 0.0044277566 0.0022642373
0.023626463 -0.0013573747 0.0048033912
0.0029647455 -0.0049257283 0.00056405511
0.010766051 -0.00080012082 0.004894645
0.067972995 -4.5769219e-05 0.0040000002
0.032321811 -0.0037583662 -0.0032450675
0.066284336 -0.0048887562 -0.00084483984
0.037922211 -0.0044105933 0.0023056732
0.073603742 -0.00025990893 -0.0049657766
0.045107156 -0.0025544711 0.0042883018
0.073320575 -0.0043668351 0.0024113145
0.034397867 8.0416714e-05 -0.0049894117
0.014754193 0.0033792648 -0.003655389
0.053032022 -0.0049988437 8.7860808e-06
0.038017776 0.0023880815 0.0043764585
0.051150762 0.0047692531 0.0014397915
0.010820699 -0.0020850217 0.00450199
0.017294621 0.0035451343 0.0035229456
0.054364443 -0.0049801772 0.00015054565
0.064019628 -0.0048884093 0.00084747357
0.052686017 -0.004465993 -0.0021719255
0.033680059 -0.0039250436 0.0030278582
0.069894284 3.0757787e-05 0.0040000002
0.016282856 -0.0049200756 -0.00060698285
0.050146133 0.00019788023 0.0049739443
0.0033780367 0.0047481558 0.001490724
0.067106888 0.00034030856 0.0040000002
0.02242773 -0.0019270872 0.0045674089
0.01726947 -0.0026007309 0.004252804
0.074999996 0.0014458988 -0.00025248053
0.027686657 -0.0036035283 -0.0034468484
0.015353084 0.00071823172 0.0049054273
0.061266024 0.0044193394 0.0022845585
0.041377049 -0.0010617123 -0.0048601995
0.0492507 -0.0034433866 0.0036061869
0.02884049 -0.0041155289 0.0027796233
0.068962142 -0.0049794256 -0.00015625628
0.063761242 -0.0039746263 0.0029632442
0.00018041969 -0.0045506875 0.00098545721
0.013210026 0.004665114 -0.001691204
0.059864283 -0.0018264743 -0.0046090833
0 0.0014848972 0.0019950063
0.045936182 -0.0036930845 -0.0033301413
0.029967347 -0.0045461887 0.0019783166
0.013576276 0.0014458769 -0.0047667325
0.074999996 0.0014046889 0.0018691922
0.04214973 0.0025917448 0.0042597027
0.072017439 -0.0048295041 -0.0012943313
0.045393914 -0.0019108453 0.0045741359
0.05375487 0.0029407407 -0.0039918944
0.050446611 -0.0025646617 -0.0042804815
0.013278997 -0.0024285531 0.0043596947
0.0094808852 0.004099308 0.0028007613
0.0041349861 -0.002280859 -0.0044208714
0.012319444 -0.0046948041 0.0016195269
0.070205182 -0.0048535196 -0.0011124442
0.052961051 0.00073533884 0.0049031745
0.05121905 0.004681319 -0.0016520825
0.062201004 0.0047767679 -0.0014216489
0.074218035 -0.0044246656 -0.0022716986
0.069201291 0.0046146582 -0.0018130164
0.060276791 -0.0044306968 -0.0022571387
0.0085232789 0.0003031985 -0.004960076
0.023737712 -0.0042390968 -0.0026185932
0.065760396 0.0012036425 -0.0048415111
0.05605885 -0.0028704521 -0.004045831
0.047063258 -0.0044282554 -0.0022630331
0.05495302 0.0041401386 0.0027475525
0.065583549 -0.0016319607 -0.0046896534
0.071493089 -0.002313267 0.0040000002
0.070595473 -0.0019665018 0.0040000002
0.04212508 -0.0041700155 0.0027086181
0.036311615 0.0040461984 0.0028699727
0.071738891 -0.0043960959 0.0023406721
0.0077789528 -0.0045671794 -0.0019276406
0.074252799 -0.0049473317 0.00039998873
0.054334428 0.004970246 0.00022596787
0.039586242 -0.0042477022 -0.0026073791
0.055863842 -0.003566493 -0.0034951114
0.010006835 -0.0015844443 0.00027780959
0.0024150787 0.0049788398 -0.00016070336
0.031760965 0.00040116874 -0.0049471762
0.036272392 0.00039981093 0.004947355
0.0010160268 -0.0011694847 0.0011158559
0.071599536 0.0031258417 0.0038498673
0.004111195 0.00031707445 -0.0049582492
9.2086193e-06 0.0040515251 -0.001901085
0.019084696 -0.0045374935 0.0019993084
0.057615697 -0.0039828066 -0.0029525834
0.014661495 -0.0041243993 0.0027680637
0.042945042 0.0023736197 0.0043824483
0.038272317 0.0045243097 0.002031137
0.01753 -0.0029961544 -0.0039493721
0.066616207 -0.0047084154 -0.001586666
0.038049769 -0.0048249471 -0.0013053332
0.00089614192 -0.0034368644 0.0036111891
0.0095363529 -0.0037112187 -0.0033065088
0.057506237 0.0045378972 -0.001998333
0.063442215 0.0023963694 0.0040000002
0.04533457 0.00484927 -0.0011447147
0.029729815 0.0039678887 -0.002972024
0.074655101 -0.0021953722 -0.0042898352
0.071023554 0.0045048012 -0.0020782349
0.069766141 -0.0036564842 -0.0033778371
0.065871477 0.0032139018 0.0037822912
0.0081002619 0.0015457945 0.0047253449
0.035799775 0.0038944255 0.0030677591
0 -0.0017457224 -0.0011541008
0.074965857 -0.0045042937 0.0002267401
0.016504264 0.0048019788 0.0013607834
0.022361184 -0.0044837506 0.0021290549
0.028075196 -0.0018376613 0.00460445
0.042183999 -0.0048220274 -0.0013123828
0.0077397064 -0.0049454169 0.00041453063
0.00057515461 -0.003563812 0.0034986048
0.041327946 -0.0049494486 -0.00038391046
0.069813035 -0.0018097697 -0.0046160035
0.031256992 -0.0035051429 -0.0035587954
0.0081747686 0.00081042695 -0.004893288
0.0041343207 -0.0021411597 -0.0044787363
0.0052318242 -0.00095880579 -0.0012899972
0.015337572 0.0025994463 0.004253794
0.05231813 0.0046315086 0.0017723351
0.057298005 0.0035709054 0.0034893609
0.0025446883 0.0035787856 -0.0034790919
0.02381945 0.004418008 -0.0022877723
0.061868709 -0.0046243565 -0.0017896022
0.058240402 0.002452198 0.0040000002
0.018034063 -0.0049051605 -0.00072025659
0.018247802 0.00062896276 0.0049171816
0.064951248 -0.0049795182 -0.00015555159
0.01230008 -0.003065842 0.0038958967
0.033487149 -0.0045183226 0.0020455909
0.025228061 -0.0033500157 -0.0036778334
0.040963601 -0.0018042341 -0.0046182955
0.0093463715 -0.0015938443 -0.00020637439
0 0.0022433302 -0.0032397045
0.032542747 -0.0040291641 -0.002892172
0.0063556763 -0.0049607381 -0.00029817509
0.0096598817 0.0014476406 0.00070468732
0.01663735 0.0038654415 -0.0031055298
0.055423237 0.0024749942 -0.0043404582
0.03176146 -0.0029142501 0.0040122215
0.074999996 0.0015436992 0.003674577
0.0091337096 -0.0021264383 0.0044848351
0.061325632 0.0010567938 0.0040000002
0.035497915 0.0016613586 0.0046774768
0.00035473215 0.0048438264 8.2857077e-05
0.016645381 -0.0012001502 -0.0048419707
0.0055778641 0.0048559606 -0.0010939069
0.061371192 0.0022901478 0.0040000002
0 0.0025234958 0.00056871283
0.010274705 -5.1108789e-05 -0.0049932706
0.0098148258 0.0012589642 -0.0048342268
0.049927432 -0.0006330795 0.0049166395
0.010553963 0.0047099446 0.0015829739
0.0028416372 0.0027725585 0.0041209501
0.0012023138 0.0044113933 0.0023037412
0.025148083 -0.0026738155 0.0041967216
0.014654689 -0.0048742467 0.00095503032
0.047821384 -0.0043068202 -0.0025303382
0.065185532 -0.0038295623 0.0031522862
0.045503173 0.0043608458 0.0024257738
0.045054391 0.0020355568 0.0045224787
0.042731076 -0.002465266 0.004344488
0.014975435 0.0036155391 0.0034311961
0.040462773 -0.0044340971 0.0022489291
0.033415213 0.0032861282 0.0037268579
0 0.0039611477 0.001400533
0.0079638623 -0.0016085036 9.4969058e-05
0.069003031 0.0010708059 -0.0048590023
0.05684837 0.0027592354 -0.0041311742
0.043355495 -0.0049334564 -0.0005053624
0.055886798 0.0045184651 0.0020452475
0.012572139 -0.0030680597 -0.0038941947
0.046158452 -0.0047830851 0.001406397
0.039655056 0.0045157331 -0.0020518426
0.033228401 -0.0040265401 0.0028955913
0.028445918 0.001854928 -0.0045972979
0.063006468 0.0047904188 -0.0013886915
0.015522239 -0.0007617579 -0.004899696
0.052408125 -0.0037668855 -0.0032339657
0.061795201 -0.0023434917 -0.004394928
0.046910714 -0.0042874576 -0.002555571
0.041070353 0.0014367473 0.0047705127
0.06391973 -0.00073895464 -0.0049026986
0.053024322 -0.0016859275 0.0046672998
0.037098963 0.0044836169 0.0021293785
0.019725785 0.0018531424 0.0045980369
0.057311039 0.0045654052 -0.001931923
0.0028937988 0.00017796647 -0.0049765669
0.014179269 -0.0018762463 0.0045884675
0.062858984 0.0029996743 -0.0039466713
0.06187338 -0.0036050717 -0.0034448362
0.062017765 0.00012887857 -0.0049830303
0.059912261 -0.0036356705 -0.003404961
0.053188261 -0.00035852287 0.0049527916
0.043192953 0.0033778825 0.0036564495
0.058448445 -0.0049344632 0.0004977177
0.032267354 0.004581748 0.0018924669
0.050615739 -0.0041234437 -0.0027693096
0.006791559 -0.00026490862 -0.001586142
0.035892896 -0.0044863666 0.00212274
0.034604643 0.0048382054 0.0012287472
0.013709571 0.0038361945 -0.0031436444
0.074889489 0.00040499587 0.0040000002
0.074620292 0.0040441933 0.0026766893
0.064562082 0.0038657936 0.0031050716
0.067432798 0.00016213847 0.0040000002
0.040567528 0.0036149123 0.0034320124
0 0.0030539827 0.0029265843
0.014816775 0.0019627856 -0.0045526214
0.058849484 0.0033253205 0.0036967832
0.049628481 0.00037460669 -0.0049506743
0.054841612 0.0019422261 0.0045611374
0.065840468 -0.0028287496 -0.0040778313
0.012062856 0.0038072078 -0.0031814186
0.0082185315 0.0013961002 0.0047873505
0.032388106 -0.0022617353 -0.0044287927
0.024461569 -0.0049262149 -0.000560363
0.024307076 -0.000819106 -0.0048921448
0 0.0025689518 0.0018483426
0.036841795 -0.0016963806 -0.0046629696
0.051959056 -0.003050741 -0.0039074845
0.066314191 -0.0026079779 0.0039999997
0.051773455 0.0049576443 0.00032166863
0.00099584693 0.0039469185 -0.0029993509
0.040178642 -0.0005492483 0.0049276785
0.0061236578 -0.0049371547 0.00047728201
0.034961421 0.00080432132 -0.0048940917
0.050705776 -0.0048624971 0.0010442655
0.071298271 0.0048859185 -0.00086639362
0.0082047656 0.0032449609 0.0037584484
0.024546416 -0.0045095985 0.0020666518
0.071493819 -1.9531439e-05 -0.004997428
0.063902646 0.0048258039 0.0013032658
0.0071036159 0.0042891232 -0.0025533999
0.049749624 -0.004544246 0.0019830063
0.016101325 7.5204109e-05 -0.0049900976
0.074827306 -0.0043514087 0.0016006272
0.0068584708 -0.0039209425 -0.0030332028
0.033350855 0.0014192371 0.0047777663
0.036396276 0.004832821 0.0012696378
0.071437456 -0.0040110904 0.0029157246
0.050722655 0.0044746911 -0.0021509258
0.042094093 0.0038561211 -0.0031176764
0.05234259 0.00445288 -0.0022035835
0.021965178 0.0049511469 -0.00037101647
0.044121064 0.0026996557 0.0041769012
0.0078432187 -4.0865954e-05 0.0049946192
0.030689416 -0.00062599318 -0.0049175723
0.041841745 -0.00096211606 0.0048733139
0.01604189 0.0049154558 -0.00064206676
0.06765005 -0.0048453109 0.0011747835
0.0033129426 -0.0036113937 0.0034365985
0.0062225335 -0.00033710789 0.0049556117
0.02616886 0.0025627122 0.0042819805
0 0.0023353691 0.0005762513
0 -0.0020473918 0.0014216229
0.046009496 -0.0031665752 -0.0038185983
0.0054753055 -0.0021896793 -0.0044586393
0.069503836 -0.0049328702 -0.0005098196
0.0087900544 0.00085925299 0.0048868586
0.045046985 0.003264999 -0.0037430718
0.031215675 0.0034875399 -0.0035723031
0.043620113 0.0048429463 -0.0011927413
0.0046515772 0.00023096088 0.0015906092
0.057259835 -0.0038486498 -0.0031274131
0.0077880081 -0.00056985259 0.0015035056
0.071026027 -0.002338222 -0.004397111
0.044923328 -0.0036682922 -0.0033624496
0.062694915 0.0039259191 -0.0030267173
0.024071679 -0.00059897255 -0.0049211308
0.042682637 0.0030269539 0.0039257412
0.042930271 -0.0034279185 -0.0036180541
0.074999988 -0.00039083732 0.0023326701
0.034328721 0.0023337004 0.0043989839
0.0089895325 0.0035487132 0.003518281
0.048829459 -0.00035149013 -0.0049537178
0.0059997314 0.00010771389 0.0016068267
0.022518788 0.004265544 -0.0025841279
0.041209731 -0.0047596311 0.0014630193
0.024123333 0.0045095379 0.0020667999
0.015295447 0.0037048713 -0.0033147805
0.029235749 0.0021492934 0.0044753673
0.057669807 -0.0049233325 0.00058225059
0.021402804 0.0040895818 -0.002813437
0.073607661 -0.0027041847 -0.0041734171
0.052120853 0.00080782 -0.0048936312
0.059545148 -0.0031780156 0.0038098295
0.052026149 0.0032564909 -0.0037496006
0.0023401224 0.0046719057 0.0016748081
0.059087548 -0.0047477046 -0.001491813
0.0051814937 -0.00043463046 0.0015595312
0.066373989 0.00048220658 -0.0049365056
0.042613849 0.00030198842 0.0049602357
0.050208833 0.0021234979 -0.0044860528
0.052555803 0.00046082566 -0.004939321
0.0033094187 0.00069333328 -0.0049087056
0.027861279 -0.0014103332 0.0047814553
0.074999996 0.00084208732 0.0012457721
0.063539781 -0.0039644237 -0.0029765398
0.056205064 0.0047735781 -0.00142935
0.033566061 -0.00083191803 -0.0048904577
0.0052877897 0.0037740518 0.0032246266
0.048504669 0.0030882289 -0.0038787178
0.070449717 0.0028899268 -0.004030887
0.0030328473 -0.004803556 0.0013569751
0.068704553 -0.0048565585 -0.0010893648
0.074071832 0.0048261802 0.0013023568
0.047893427 -0.0015086463 0.0047407323
0.075000003 0.00083972013 -0.0027809064
0.017794702 -0.0010291953 -0.0048644813
0.03303073 -0.0048843282 0.00087846734
0.057449155 0.0048834058 0.00088547549
0.07390473 0.0030927064 -0.0038752819
0.074720763 0.0030204817 0.0036548239
0.017900983 0.0048065027 0.0013498637
0.068054006 0.0049357233 0.0004881511
0.009814715 0.0015930441 -0.00021245446
0.011574212 0.0041323774 0.0027576671
0.042896442 -0.0047167824 0.0015664659
0.033133358 0.0035512778 -0.0035149395
0.01053255 0.0032226022 0.0037756052
0.06223068 -0.00011681401 -0.0049846186
0.012920274 -0.0043905266 0.002354118
0.02719697 -0.0043054689 0.0025320994
0.070995644 -0.0020998945 0.0040000002
0.048582662 -0.0048177727 -0.0013226543
0.012839231 -0.0031886382 0.0038016676
0.070314102 0.0045765392 0.0019050448
0.0435066 0.0041850461 -0.0026890305
0.019190516 -0.0040107006 0.0029162324
0.011874857 -0.0045614797 0.0019413993
0.043581177 -0.0004290097 -0.0049435105
0.01122305 -0.004843751 -0.0011866301
0.039960805 -0.0019335109 -0.0045647472
9.3145791e-05 0.0040509901 0.0021197915
0.041029766 0.0049223658 -0.00058959139
0.074999996 0.0015785447 -0.0025427872
0.010851653 -0.0039032318 0.0030562826
0.0024704593 0.00048436824 0.0015389237
0.073682368 -0.0012332741 -0.0048376094
0.028103871 -0.0049485988 -0.00039036895
0.0474573 0.0046602045 0.0017030573
0.060270656 -0.004971324 0.00021778089
0.027973119 -0.0048939893 -0.00080509752
0.025458189 -0.0049189427 -0.00061559241
0.027877618 -0.0045103817 -0.002064761
0.0039343704 -0.00018129323 -0.0015971444
0.074999996 -0.0023283025 -0.002697191
0.057080794 -0.0048255664 -0.0013038387
0.0086312108 4.2063148e-05 -0.0049944613
0.032032657 -0.0049579884 -0.00031905767
0.074999996 -0.0015916302 0.0031362416
0.022980254 0.0047968309 -0.0013732112
0.027702762 -0.00076196919 -0.004899668
0.0094080893 -0.0013350878 -0.004812622
0.021501252 -0.0048903576 0.00083267869
0.036630839 -0.0049118381 0.00066954445
0.034498401 0.0046272995 0.0017824963
0.05998043 0.0025735232 0.0040000002
0.059059534 -0.00085912988 0.0039999997
0.072219424 -0.0049287514 -0.00054109812
0.052903943 0.004904951 -0.00072185288
0.046394967 -0.0049862075 -0.00010474898
0.047918215 0.0012013258 -0.0048418161
0.049175695 -0.0049581085 0.00031814422
0.00073986506 -0.0049899518 -7.63153e-05
0.074999996 -0.0012104227 -0.0008739336
0.05388131 0.0049523646 -0.00036176579
0.00075535552 -0.00068301824 -0.0049100639
0.022096725 -0.0049868366 -9.9969737e-05
0.016434107 0.0035840778 0.0034721955
0.063811183 0.0049881996 8.9622023e-05
0.01919651 -0.0045629269 0.0019379061
0.030652896 -0.0041015344 -0.0027978607
0.049059425 0.0014837952 0.0047510252
0.03224238 3.5281111e-05 -0.0049953545
0.05154394 0.002013773 -0.0045315018
0.00053222373 0.0039914846 0.0029412745
0.011787229 -0.00031869713 -0.00018484581
0.020974007 0.00030964561 0.004959228
0.02150608 -0.0026674874 0.004201578
0.046315178 -0.003640611 -0.0033985227
0.049843714 0.0046405648 0.0017504727
0.010558034 -0.00076778891 -0.0048989016
0.053984806 0.001629644 0.0046906136
0.0085702585 -0.00065117481 0.0049142567
0.052854877 -0.0021864767 0.004459966
0.029987626 0.0010753511 -0.0048584035
0.041256398 0.00086486642 -0.0048861192
0.068809062 0.0010644936 -0.0048598335
0.052331217 -0.00016214658 0.0049786498
0.036775939 0.0022578302 -0.00443041
0.042987216 -0.0042195627 0.0026440492
0.061328508 0.00036023965 0.0040000002
0.026641309 0.0049700001 -0.00022783798
0.053471554 0.0012196843 0.0048393984
0.055262625 0.0019069266 -0.0045757592
0.057623725 5.281415e-05 -0.0049930457
0.0064761252 0.004902008 0.00074420369
0.033504277 -0.0041663703 0.0027133683
0.019548269 -0.0012341733 0.0048374906
0.01132191 0.0041844617 -0.0026897921
0.00012532079 0.0013513286 0.0012920311
0.0040995572 -0.0016088899 -9.2033159e-05
0 -0.0038908687 0.0014530891
0.039306547 0.00012561018 0.0049834605
0.015245073 0.0034966555 0.0035653077
0.031598769 -0.002869315 -0.0040467032
0.071674183 0.0021143958 -0.0044898228
0.074541911 -0.0031916043 0.0037470122
0.048601151 0.00021909433 -0.0049711512
0.067410193 0.0049792654 0.00015747096
0.074999996 0.0017486692 -0.00025584389
0.07363458 -0.0010736822 -0.0048586237
0.067200504 0.003695915 -0.0033264521
0.048726711 -0.00062470185 -0.0049177432
0.025681544 -0.0048911981 -0.00082629762
0.060675275 -0.0046786601 -0.0016585022
0.0032766114 -0.0015198498 -0.0047360915
0.059945069 -0.0038357778 -0.0031441872
0.017512957 0.0020331403 0.0045234798
0.03895862 -0.002024418 -0.004527092
0.039647609 0.0039469185 -0.0029993511
0.0035979052 0.0024396365 0.0043551037
0.059571754 0.0042907442 0.0025512883
0.040423345 -0.0027022923 -0.004174869
0.070195071 0.0049019139 -0.00074491277
0.01000569 0.0049713147 -0.00021785384
0.036566548 -0.0028842294 0.0040352601
0.059927385 0.0033097626 0.0037087228
0.052665163 0.0030245229 -0.0039276029
0.049301118 -0.0025332808 -0.0043045618
0.058271319 0.0024903161 0.0040000002
0.073244967 -0.0047243894 -0.0015481022
0.068779148 -0.0019736669 -0.0045481143
0.03840515 0.0034535737 -0.0035983673
0.037619505 -0.0011805607 0.0048445505
0.039164733 0.0042392011 0.0026184572
0.070632912 0.0046579242 0.0017085624
0.070797667 0.0049223769 -0.00058950979
0.011627297 0.00034478228 0.00054214033
0.014029509 -0.0025937892 -0.0042581302
0.042141221 -0.003218384 0.0037788511
0.052106012 0.0012639312 0.0048335725
0.048150647 0.0041489201 0.0027361088
0.02525446 0.0049445969 -0.00042075809
0.064687699 -0.0049764435 0.00017890193
0.0045818873 0.0045320732 0.0020123944
0.055029497 -0.0014574105 0.0039999997
0.0011697802 -0.0035709268 0.0034893332
0.028607456 -0.00012758053 0.0049832012
0.0041206516 -0.0048345649 0.0012563963
0.039576285 -0.0049720719 -0.00021210217
0.074744381 -0.0030608859 0.0035943091
0.016652375 -0.0049414756 0.0004444645
0.017761193 -0.004150182 -0.0027344641
0.061178368 -0.0041814148 -0.002693763
0.0071738195 -0.0016022965 0.00014214187
0.015294793 0.0044588563 0.0021891554
0.00066221831 0.0034399149 -0.0036088484
0.036822665 0.0035938397 -0.0034594736
0.01314041 0.0048094136 0.0013428346
0.034995392 0.0036360535 0.0034044625
0.0086764889 -0.0011916796 0.0010869318
0.049491018 -0.0011455172 -0.0048491647
0.069967225 -0.0048557878 -0.0010952147
0.031849924 0.0030745144 -0.0038892417
0.0085508013 0.0036029126 -0.0034476505
0.0048166579 0.0021290828 -0.0044837389
0.057513651 -0.00019010562 -0.0049749683
0.016524067 -0.002732208 -0.0041519133
0.054497477 0.0010853608 -0.0048570856
0.0073408117 0.0033411079 -0.0036846688
0.057452224 0.0045600608 0.0019448263
0.070710368 0.0025364468 -0.0043021324
0.030806273 0.0026100189 0.0042456812
0.062123079 0.004513477 0.0020572895
0.05592877 0.0049090185 0.00069095712
0.051066823 0.0033988594 0.003640353
0.016367283 0.0042651403 -0.0025846541
0.022396054 -0.0029826285 -0.0039597508
0.052954555 -0.0039003137 -0.0030600857
0.040527299 -0.0017422053 0.0046439888
0.016369779 0.0018909589 0.004582373
0.051016275 0.00023785578 -0.0049686804
0.040188469 -0.0049207401 0.00060193858
0.052698977 0.0031541402 -0.0038281402
0.023515815 -0.0038818859 -0.0030841001
0.059954129 0.004122193 0.0027709391
0.061428633 -0.0048734411 -0.00096115423
0.050647028 -0.0019761799 -0.0045470735
0.044453964 -0.0049835178 0.00012517191
0.066489145 0.0038117128 -0.003175548
0.02962774 0.0018170174 0.0046130004
0.051837664 1.7581495e-05 -0.0049976851
0.019416105 -0.0037309474 0.0032807991
0.065480314 0.0011867509 0.0040000002
0 0.0024556441 -0.0030586382
0.04612197 0.0028374139 -0.004071183
0.002167122 -0.0014579347 -0.00067984185
0.011420012 -0.00035931158 0.00092918304
0.0069585633 0.00047945094 -0.0049368688
0.055461321 -0.0030134709 0.0039360989
0 -0.0028784089 -0.0033095377
0.012035832 0.0049649952 -0.00026584632
0 -0.002365787 0.0029455922
0.040891118 -0.0027956942 0.0041031977
0.018738318 0.0048804735 0.00090774405
0.020312615 -6.4193111e-05 0.0049915477
0.067700356 0.0046289577 0.0017784951
0.0022543119 -0.00036578951 0.0015728675
0.073917769 0.0044922391 0.0021085627
0.069935493 -0.0028233093 0.0039999997
0.074999996 0.0039653531 -0.00093311782
0.010091488 0.0038014506 -0.0031889211
0.038922302 0.002346091 -0.0043938514
0.023299083 -0.0033493566 0.0036783447
0.022184961 0.0010706084 0.0048590279
0.026207171 0.0028792922 0.0040390473
0.0042318483 0.00030917025 0.0015803179
0 0.002995926 -0.0029503824
0.043955997 0.0034208042 0.0036235135
0.013258883 0.0034914678 0.0035692889
0.065031983 0.004212623 -0.0026530928
0.016469261 -0.0045916666 -0.001868523
0.025131483 0.0048714867 -0.00097599463
0.0095401052 -0.0045332815 0.0020094756
0.067298718 -0.0043603205 0.0024270432
0.043172698 0.0048330328 -0.0012680287
0.054712899 0.0046564629 -0.0017120906
0.057330512 0.0048862221 0.00086408365
0.016229598 0.0040503764 -0.0028645291
0.032723594 0.0042384546 0.0026194307
0.010993297 0.0015075348 0.0047411928
0.037941489 0.0049285358 0.00054273463
0.051409472 -0.0030778411 -0.003886689
0.074999996 -0.0028748242 -3.9568546e-05
0.073061928 0.0029148229 0.0040000002
0.020414654 0.0043406966 0.0024744186
0.0045585232 0.0028698025 0.0040463288
0.00058935495 -5.1822979e-05 -0.001614181
0.0066416077 -0.0046718353 0.0016749782
0.029157471 7.0495548e-06 0.0049990723
0.048974641 -0.00073187088 -0.0049036313
0.038381867 0.0048670359 -0.0010097936
0.0044878414 0.002030507 -0.0045245709
0.020608978 0.0043503721 0.0024510603
0.027162397 0.0033800255 0.003654805
0.0033616349 5.8282734e-05 0.0016133309
0.058536042 0.0016431111 0.0040000002
0.02785222 0.0028725292 0.0040442375
0.049444921 -0.0023912075 0.0043751639
0.057646688 0.0049659619 0.00025850578
0.013299813 -0.0043873782 -0.0023617186
0.029910287 0.0011204919 -0.0048524598
0.041447025 0.0005154938 0.0049321223
0.013780784 0.0036135307 -0.0034338133
0.068589732 0.0039221924 0.003031574
0.051803257 -0.0035473281 0.0035200864
0.058873404 -0.0048685842 -0.00099803519
0.0093268147 -0.0033963223 -0.0036422999
0.053236391 -0.0021603103 -0.0044708042
0.047255885 -0.0048236814 -0.001308389
0.062968165 -0.0049739112 0.00019813633
0.068626441 -0.0026614659 0.0039999997
0.019024009 0.0023334168 -0.0043991012
0 0.0025355592 -0.0024445406
0.022930188 0.0042237984 0.0026385298
0.068241097 -0.0031931822 -0.0037981812
0.014338148 -0.0009375129 -0.0048765531
0.038691122 -0.0049227299 0.0005868313
0.015582222 -0.0043342388 -0.0024900085
0.019308697 -0.0047056535 -0.0015933344
0.068710022 -0.0043269959 -0.0025040461
0.021043798 -0.0048979037 0.0007753711
0.0066779843 0.0015887365 -0.00024519127
0.071113482 0.0045296461 0.0020182533
0.022211911 0.0045680306 -0.0019255854
0.044274185 -0.0046697645 -0.0016799771
0.07003355 -0.0032827526 0.0037294552
0.06365791 -0.002944987 -0.0039886353
0.0035180778 0.00090191216 -0.0048812414
0.037150592 0.0049495231 -0.00038334707
0.037535898 -0.0014057594 0.0047833496
0.020827744 -0.0040027788 0.0029265562
0.02948367 0.0041057994 -0.0027923023
0.022768773 0.0015395521 0.0047279308
0.055728123 0.0035427951 0.0035259938
0.047845881 0.0013719099 -0.0047973702
0.02811542 -0.0044957856 -0.0021000004
0.074999988 0.00020233393 0.0018841441
0.0053647854 0.00037161409 -0.0049510682
0.056665227 -0.0017926999 0.0039999997
0.071872808 0.00048538958 -0.0049360869
0.045020122 0.0048806113 0.00090669398
0.027933594 0.0040087854 -0.0029187284
0.074999996 7.501051e-05 -0.0025276295
0.020165261 -0.0048548742 -0.0011021559
0.035191018 -0.0048764087 -0.00093861268
0.067480572 -0.00086453825 -0.0048861625
0.046942223 0.0016608494 -0.0046776878
0.038855329 0.0025197561 0.0043149409
0.062218539 -0.00083448162 0.0039999997
0.031281456 -0.0016460395 0.0046838219
0.0049821944 0.0018858839 0.0045844754
0.062243931 -0.0040327031 -0.0028875596
0.04851329 -0.0046217046 -0.0017960041
0.01173509 0.0027611945 0.0041296701
0.026271056 -0.0015532473 0.0047222576
0.065291703 -0.0047974121 -0.0013718086
0.038099661 -0.001168396 0.0048461524
0.07109838 0.0048165862 0.0013255198
0.073207751 0.00091179478 -0.0048799403
0.066414453 -0.0034467455 0.0036036097
0.074712589 0.0046233158 -0.0012413961
0.026095545 0.0041659297 0.0027139431
0.065596223 -0.0019477401 -0.0045588538
0.050014809 0.0031306059 -0.0038461993
0.058422357 -0.00023493489 -0.0049690651
0.0094956104 0.0039219153 0.0030319346
0.051356975 -0.002790702 -0.0041070273
0.049851228 -0.0030608671 0.0038997277
0.0305779 0.0040392331 -0.0028790499
0.065537132 0.0033779382 -0.0036564071
0.074999996 0.00017531504 -0.0031249812
0.039071143 -0.0049872012 9.7201519e-05
0.074999996 -0.0026534803 0.0021250949
0.0041005653 -0.0015680644 -0.00040229101
0.022911971 0.0023675042 0.0043849815
0.032562722 0.0049232058 -0.00058321701
0.036681596 -0.0012994843 -0.0048273699
0.024288507 -7.4023817e-05 0.0049902536
0.057627242 0.0018477733 -0.0046002613
0.05829424 0.0037592342 -0.0032439362
0.0074822595 -0.00091499824 -0.0013236131
0.01865948 -0.0038599956 -0.0031126272
0.017634597 0.004696805 0.0016146956
0.030791022 0.00058909092 -0.0049224319
0.018930247 0.0032307836 -0.0037693277
0.021472873 -0.004736193 -0.0015196055
0.048950147 -0.0049213404 -0.00059738406
0.074999996 -0.00051015406 -0.001636248
0.041700229 0.0038807529 0.0030855762
0.040929008 -0.0031316474 -0.0038454004
0.072475389 0.0035139341 -0.0035520492
0.049004115 0.00097241142 -0.0048719579
0.01470951 -0.0047763269 -0.0014227135
0.025799574 0.0044881795 -0.0021183633
0.035599388 -0.0024716028 -0.0043418631
0.044321913 -0.0035964854 -0.0034560263
0.027830269 0.0039220639 -0.0030317414
0.036918793 0.0040564034 0.0028566741
0.018962378 -0.00075093895 -0.0049011209
0.066051975 -0.0018010512 0.0040000002
0.056480162 -0.0036755588 0.0033529799
0.068605348 -0.0033747994 0.0036588202
0.071688928 0.0031701096 -0.0038158856
0.0048657996 0.00072557788 -0.0014389852
0.072918616 -0.0012233475 0.0040000002
0.00020076333 -0.0021421574 -0.0041572209
0.069099613 0.0048745219 0.00095294189
0.013323292 0.002783054 -0.0041128965
0.028035296 0.0045492374 0.0019709563
0.011417237 -0.0025610982 -0.0042832159
0.03852237 -0.004842307 0.0011976007
0.055821177 0.0041297711 0.0027610634
0.026327392 -0.0048761005 0.00094095903
0.062780604 -0.0040505934 0.0028642451
0.0088430783 -0.0011285376 -0.0011597533
0.026561959 -0.0044704336 0.002161205
0.073240638 0.0040974035 -0.0028032432
0.030605379 0.0017657629 -0.0046342313
0.047629002 0.0040702517 0.0028386274
0.074999996 0.0013042787 0.0011432049
0.054806516 0.0036378379 0.0034021367
0.043014944 -0.0010732192 0.0048586847
0.038759425 -0.00045832581 0.0049396502
0.052364919 -0.0016435568 -0.0046848506
0.054826457 -0.0049161157 0.0006370609
0.044840164 0.0011846302 0.004844015
0.040784076 -0.0027542645 -0.0041349879
0.029041035 -0.0030597202 -0.0039005941
0.023707757 -0.0021605066 0.0044707232
0.019673135 -0.0037203911 0.0032945555
0.010198796 -0.0021393036 0.0044795056
0.064208321 0.0028203235 0.0040000002
0.02700578 0.0023040101 0.004411282
0.0028951131 -0.0036663804 0.0033649411
0.048005503 0.0046427534 -0.0017451878
0.021136196 -0.0047258926 0.0015444711
0.040870503 -0.0033178488 0.0037025234
0.0026279455 -0.0012482376 -0.0048356387
0.0057387268 -0.0016057948 0.00011555431
0.022700544 -0.0027286583 -0.0041546375
0.058828413 0.0049917018 -6.3022882e-05
0.062361851 0.0020358178 -0.0045223711
0.072791316 -0.0041440264 0.0027424858
0.074999996 0.0010777798 -0.0041634087
0.052171122 0.001697348 0.0046625691
0.071390554 -0.0038800051 -0.0030865511
0.01535288 -0.0010629831 -0.0048600323
0.037868068 -0.0040075681 0.0029203149
0.035429418 -0.0047810306 0.0014113574
0.024484951 0.0049473937 -0.00039951992
0.070869125 0.0048850845 0.00087272358
0.035039622 0.0026687237 -0.0042006285
0.068038404 -0.0044255606 -0.0022695381
0.064991787 -0.0048584482 -0.0010750125
0.056582052 -0.0049909013 6.9102076e-05
0.0032849112 -0.0015684147 -0.0003996288
0.037209205 -0.0020722351 -0.0045072865
0.018799471 0.0041696681 -0.0027090707
0.072246686 0.0049595111 0.00030749754
0.073760986 -0.0011667588 0.0040000002
0.068597548 -0.0019321174 0.0040000002
0.0022340617 -0.004844388 0.0011817962
0.060556773 -0.00034471657 -0.00495461
0.051984526 -0.0033990047 -0.0036402412
0.069852702 0.0016662517 0.0040000002
0.026643045 0.00057171565 0.0049247202
0.00061151612 -0.0014304176 0.0047731353
0.008527115 0.00082707987 -0.0013910775
0.0013122648 0.0048640482 0.0010324829
0.02388577 0.0046154931 -0.0018109994
0.001054579 -0.0012012917 0.0048418213
0.069303706 0.0048897099 0.00083759852
0.044563659 0.00335549 0.0036736326
0.042872801 0.0042464072 -0.0026090662
0.027285224 -0.0029850788 0.0039578709
0.021712461 -0.0021670905 -0.0044679958
0.0083025042 -0.0049416311 -0.00044328265
0.0084972521 -0.0032708196 -0.0037386054
0.006367546 -0.0044518546 0.0022060585
0.03557317 0.0014406436 0.0047688996
0.074999996 0.0019879937 0.002288766
0.051889751 0.0048895306 -0.0008389611
0.046362955 0.0030584021 -0.0039016053
0.030561946 -0.001345654 0.0048082457
0.040527705 0.0021839892 -0.0044609965
0.070592947 0.0039059459 -0.0030527455
0.040231686 -0.001120318 0.0048524826
0.050437972 -0.0028848287 -0.0040347981
0.0087082786 0.0048796292 -0.0009141519
0.054802582 0.001420968 0.0047770492
0.063494824 0.0044172285 -0.0022896538
0.070353277 -0.003455892 -0.003596588
0.044210885 0.0012090688 -0.0048407968
0.044024024 0.0046726479 0.001673017
0.061074022 0.0029336582 0.0039973464
0.0049634697 -0.0045832368 -0.0018888733
0.052726667 -0.0048986925 0.00076938298
0.067865245 0.0040195538 0.0029046952
0.039193187 -0.0036285017 -0.0034143031
0.034074184 0.004828413 -0.0012969656
0.0026224717 0.0049200859 0.0006069091
0.021200819 0.0015628174 0.0047182934
0.0067731384 -0.0012417464 0.0010216855
0.074999996 -0.0012548658 -0.0012522598
0.045538131 0.0010548609 -0.004861102
0.039450381 0.0047342884 0.0015242029
0.04826948 -0.0036792126 -0.0033482178
0.03440664 0.0042482633 -0.0026066476
0.026497593 -0.0047727013 -0.0014314662
0.074999996 -0.0014987049 0.00011629665
0.073240742 0.0011775029 0.0040000002
0.016643578 0.0049252966 -0.00056733552
0.056174289 -0.0048772315 0.00093236542
0.050306216 0.0015292689 -0.0047321902
0.038683541 -0.0025538937 0.0042887446
0.036449488 0.0035343994 -0.003536345
0.012017135 -0.00015946683 0.0049790023
0.072410889 0.0021640901 -0.0044692387
0.0066749081 0.00090992398 0.0048801862
0.068185791 -0.0044997931 0.0020903239
0.017414309 -0.0047662673 -0.0014470005
0.062102228 -0.0015995074 -0.0047030961
0.073480502 -0.0043771621 0.0023863823
0.0074175098 -0.0048516048 -0.0011269862
0.07025829 0.0046261284 0.0017853242
0.072670706 -0.0036730149 0.0033562949
0.053501803 0.0030641628 -0.003897185
0.074999988 -0.00035138012 0.0025525037
0.033934634 0.0049319989 -0.00051643437
0.0096976934 -0.0036768916 0.0033512432
0.065752499 0.0045368643 0.0020008271
0.048491307 -0.00023995135 0.0049684052
0.025213715 0.0049585993 0.00031441959
0.015311895 0.0043168259 -0.0025172983
0.060398139 0.0028047613 -0.0040962393
0.023914626 -0.00095576775 -0.0048741498
0.060800277 -0.0045412644 -0.0019902051
0.030385375 0.004917691 0.00062509585
0.03145095 0.0049830112 0.00012902479
0.0043317885 0.0042017903 0.0026672101
0.0076271263 -0.0037377886 0.0032718838
0.016061284 0.003779823 0.0032171058
0.067303836 -0.0018169995 0.0040000002
0.069737874 0.0027436987 -0.0041430965
0.0033920496 0.0048668501 0.0010112055
0.031551473 -0.0047330037 0.0015273043
0.060640331 0.00062740169 -0.0049173874
0.064400025 0.0006935214 0.0040000002
0.032296035 -0.00077848666 0.0048974934
0.022065746 -0.0049516358 0.00036729811
0.0055914666 -0.0047148899 0.0015710358
0.064128228 -0.0023441974 -0.0043946356
0.0038420097 0.0014480763 -0.00070363586
0.0051431945 -0.0006671935 -0.0014631752
0.074016422 0.0013473288 0.0040000002
0.0040661874 -0.0020821663 0.0045031724
0.014010927 -0.0044481196 -0.0022150765
0.039234497 0.0027679598 0.0041244901
0.020081555 0.0040544546 0.0028592141
0.074580953 -0.0049097314 7.0723385e-05
0.064746812 0.00059024943 0.0040000002
0.0018282762 -0.0024641505 0.0043449495
0.028166251 3.7022586e-05 0.0049951253
0.0095638726 -0.0022229352 0.0044448646
0.055568974 -0.004537879 0.0019983749
0.0056653037 -0.0014554248 0.0006858994
0.060489215 0.0033538367 0.0036749013
0.039698701 0.004813435 0.0013331259
0.033899385 -0.0030339572 0.0039203689
0.0067807445 0.0045027016 -0.0020833036
0.074999996 0.00066272944 -0.00070275285
0 -0.0029549417 -0.0019142074
0 -0.00063065789 0.0023322315
0.048568495 -0.004985414 -0.0001107765
0.042827487 -0.0049547656 0.00034353201
0.073883899 0.0013788395 -0.0047944998
0.044025637 0.0046408959 0.0017496734
0.074999996 -0.00073601841 0.0035091783
0.017157141 0.0046306094 0.0017745073
0.039658152 -0.0044669127 -0.0021697071
0.019038891 0.0049140831 -0.00065249682
0.033747874 -0.0037296305 -0.0032825153
0.0047388976 0.00031286283 0.0049588038
0.050938636 9.2863251e-05 -0.0049877726
0 0.0011850952 -0.0040127467
0.028461104 -0.004911216 0.00067426817
0.052711889 -0.0021302912 0.0044832388
0.0085256416 0.00037795969 0.0049502328
0.063611269 -0.0041460171 0.0027398919
0.04355685 0.003647045 -0.0033901383
0.02066958 0.0012449736 0.0048360685
0.040372692 0.0042249556 -0.0026370215
0.0014534263 0.0034911234 0.0035695534
0.00795379 -0.00016174787 0.0049787024
0.057561848 -0.001260516 0.0039999997
0.031082861 -4.7466088e-05 0.0049937498
0.074999996 -0.00058819505 -0.0018007029
0.015108912 0.0049759583 -0.00018258579
0.061957013 0.0032884856 0.0037250528
0.074915744 0.0032375578 -0.0032446445
0.035746563 -0.0032564979 0.0037496034
0.014320042 0.00083869864 0.0048895646
0.03450828 -0.0020470761 -0.004517707
0.043418597 -0.00032320939 -0.0049574417
0.056518834 0.0035741893 -0.0034850815
0.032629784 -0.0047185384 -0.0015622263
0.070090465 -0.0029219205 -0.004006336
0.020190364 0.00056030293 0.0049262224
0.04516102 -0.0009150267 0.0048795142
0.060873225 0.0046786331 -0.0016585675
0.0079204319 0.0011212036 -0.0048523662
0.062882029 -0.0010716161 -0.0048588961
0.074736819 -0.0047397874 0.00017772433
0.0033930307 0.0040685674 0.0028408223
0.032229036 -0.0045440518 -0.0019834749
0.026824616 0.0012277358 -0.0048383386
0.041660711 0.0026091584 0.0042463411
0.0092224572 0.0043918202 0.0023509953
0.055636976 -0.0011313062 -0.0048510358
0.07495673 -0.0015694555 0.0040000002
0.048670691 0.002276042 0.0044228667
0.021012392 0.0029221803 0.0040061367
0.00046340335 0.0015952378 0.000195785
0.046706587 -0.0031514058 -0.0038302385
0.010927871 -0.0046946886 -0.0016198052
0.031967372 -0.0044641243 -0.0021764371
0.060087543 0.0042123874 -0.0026534006
0.0076782778 -0.0045817415 -0.0018924839
0.020005517 -0.0046035652 -0.0018397965
