# .PCD v0.7 - Point Cloud Data file format
VERSION 0.7
FIELDS x y z
SIZE 4 4 4
TYPE F F F
COUNT 1 1 1
WIDTH 1000
HEIGHT 1
VIEWPOINT 0 0 0 1 0 0 0
POINTS 1000
DATA ascii
0.00061490975 3.7732465e-05 -0.006995033
0.0029566772 8.3912244e-05 -0.0069889538
0.0025486266 0.00014333885 -0.0069811302
0.0045814281 -0.00050465914 -0.0069335648
0.0021716573 0.0004732667 -0.0069376971
0.0045396159 -0.0005793178 -0.006923737
0.00071171141 0.00061055564 -0.0069196247
0.0019754106 0.00078254199 -0.0068969829
0.0021166902 -0.00099454203 -0.0068690744
0.0016774259 0.0010405858 -0.0068630134
0.0044579068 -0.0011169366 -0.0068529621
0.0010360476 -0.0011022562 -0.0068548946
0.0025656028 -0.00136199 -0.006820702
0.0026688664 0.0013067242 -0.0068279775
0.0039721909 0.0013164729 -0.0068266941
0.0027716258 -0.001392968 -0.0068166242
0.002739643 0.0015165035 -0.006800361
0.0022860514 -0.0015732812 -0.0067928866
0.0022818826 -0.0016153925 -0.006787343
0.00074006885 -0.0016801819 -0.0067788144
0.004665032 -0.0016843908 -0.0067782598
0.0036794473 0.0018939034 -0.0067274515
0.0012210283 0.0019427927 -0.0067072017
0.004852464 -0.0011271756 -0.0066991476
0.0049874759 0.00026164023 -0.0066780774
0.0049216812 0.00078932568 -0.0066744015
0.0049999999 -0.00036512883 -0.0066367509
0.0036415209 -0.0021383353 -0.0066262069
0.0049999999 0.00020718772 -0.0066031041
0.00021182382 0.00093337067 -0.0065889321
0.0049999999 0.00040163012 -0.0065626623
0.0047161668 -0.0023738423 -0.0065113092
0.00015510847 -0.0010441268 -0.006517645
0.0040394124 -0.0024492822 -0.0064974111
0.0038514254 -0.0024985501 -0.0064770044
0.001735669 0.0024982942 -0.0064771101
0.0028607456 0.0024929282 -0.0064793332
0.0035333557 0.0025176641 -0.0064690877
0.0011774636 -0.0025403788 -0.006459679
0.00012889704 -0.0016807732 -0.0064076078
0.0028699199 0.0026713037 -0.0064054495
0.00052814261 0.0026858482 -0.0063994247
0.0047468762 0.0026293683 -0.006372516
0 0.00076017075 -0.006333617
0.0044444534 0.0028331259 -0.0063384222
0.0045586741 0.0028741066 -0.0063214479
0.0013927608 0.0029056652 -0.0063083768
0.00035123798 -0.0025558351 -0.00629364
0.0020782219 -0.0029566847 -0.0062872432
0.00071538606 -0.0029859873 -0.0062751058
0.0031359096 -0.0029865389 -0.0062748776
0.0016863754 0.0029889662 -0.0062738727
3.4950135e-05 -0.0018764946 -0.0062355776
9.3740509e-06 0.0018232914 -0.0062301657
0.0022349812 0.0031624441 -0.006202017
0.0027897526 0.00316348 -0.0062015885
0.00068983046 -0.0031815483 -0.006194104
0.0016662166 0.0031970013 -0.0061877039
0.0028391033 0.0031986258 -0.006187031
0 -0.001754261 -0.006179675
0.001242167 -0.0032875077 -0.0061502154
0.0049999999 0.0016556055 -0.0061356933
0.0013132563 0.0033163226 -0.00613828
0.0031871987 -0.0033910642 -0.0061073219
0.0049999999 0.0008410656 -0.0060864105
0.0047438722 0.0034155236 -0.0060501113
0.0017862404 -0.003519695 -0.0060470859
0.0042384979 -0.0035471204 -0.0060260394
0.0014578422 -0.003559164 -0.0060167974
7.865551e-05 0.0025138732 -0.0060184966
0.0013479932 0.003565798 -0.0060117077
0.002776067 -0.0035900855 -0.0059930687
0.0049999999 -0.0016671006 -0.005998455
0.0018372664 -0.0036040284 -0.0059823687
0.0012084509 -0.0036443742 -0.0059514074
0.0016855815 0.0036585829 -0.0059405039
0.00084335916 0.0036923329 -0.0059146043
0.0027554405 -0.0037566272 -0.0058652647
0.0049999999 -0.0010715423 -0.0058611226
0.0018328596 -0.0037664545 -0.0058577224
0.00057016237 0.0037659553 -0.0058581061
3.2176536e-05 0.0028893796 -0.0058130915
0.0042446237 -0.0038396541 -0.0058015492
0 -0.0020045305 -0.0057928972
0 -0.0019078184 -0.0057844254
0 0.00067784311 -0.005763351
0.0049999999 -0.00028636682 -0.0057568792
0.0019116264 -0.0039196485 -0.005740162
0.0044238903 -0.0039162962 -0.0057427348
0 -0.00032556505 -0.0057034772
0 0.0002387369 -0.0057040877
0.0049999994 0.00012006617 -0.0056997673
0.0049999999 0.0034931479 -0.0056820335
0.0042453301 0.0040039332 -0.0056754821
0.0043334323 -0.0040370985 -0.0056500304
0.00064911094 -0.0040437514 -0.0056449254
0.00096120551 -0.0040401858 -0.0056476616
0.00126671 0.0040778802 -0.0056187352
0 0.0011205469 -0.0055288011
0.0049999999 -0.0012129128 -0.0055031315
0 -0.0019403024 -0.0054969159
0.0049999999 -0.0033880544 -0.0054733315
0.0045405463 -0.004276698 -0.0054661618
0.0035482419 -0.0043100663 -0.005440556
0.0050000004 -0.0032719052 -0.0054353722
0.0049999999 -0.0029176341 -0.0054313261
0 0.0033771144 -0.0054336172
0.00044850429 0.0042597027 -0.0054148496
0.0010688867 -0.0043562823 -0.0054050889
0 0.00098154368 -0.005385912
0.0049999999 0.0025806271 -0.0053566466
0.0050000004 0.00058548432 -0.0053224405
0.0013873328 0.0044568479 -0.0053279153
0.0017299581 0.0045004883 -0.0052944254
0.0049993424 -0.00012644938 -0.005282694
0.0049999999 0.0023381896 -0.0052883704
0.0024122591 0.0045069843 -0.0052894405
0.0049999999 0.00024400574 -0.0052761366
0 -0.00040197445 -0.0052524242
0.004802566 0.0043819118 -0.0052572601
0.0049999994 0.00138266 -0.0052434774
0.00047960755 -0.0045550643 -0.0052270624
0 -0.001518136 -0.0052278945
0.0035704449 -0.0046440619 -0.0051842472
0.0049999999 -0.0039359881 -0.0051794033
0.0049835797 0.00085517485 -0.005170987
0.0037533049 0.0046558683 -0.0051751868
0.0049999999 -0.0032197544 -0.0051132785
0.0049999999 -0.002060466 -0.005100023
0.0049999999 0.0038183965 -0.0051065437
0.0042788396 -0.0047560143 -0.0050983345
0.0049284394 0.0010282984 -0.0050930525
0 0.0033030461 -0.005088564
0.0049999999 0.0032463593 -0.0050674528
0.0029049427 0.0047970079 -0.0050668768
0 0.0011075288 -0.0050556785
0.0048382217 0.0011240559 -0.0049902215
0.0039865458 -0.0049028043 -0.0049856878
0.0038531753 0.00013425942 -0.004982322
0.0049999999 0.0033045139 -0.0049822466
0 -0.0009627635 -0.0049751028
0.0049999999 -0.0022426022 -0.0049568224
0.0044011311 -0.00038081536 -0.0049498565
0 0.0037937381 -0.0049361996
0 0.0030895763 -0.0048962352
0.0038269812 -0.0050082328 -0.0048734262
0.0033930964 0.0007303154 -0.0048751864
0.0045174067 0.00094044779 -0.0048761666
0.00056338991 -0.0050116857 -0.0048689279
0.004822426 0.001549419 -0.0048552249
0.0047524865 0.0049581425 -0.0048532328
0.004985963 0.0020265447 -0.0048330864
0.0011523353 0.005036965 -0.0048359847
0 -0.0032595112 -0.0048164958
0 -0.0028524953 -0.0047743069
0 0.0034687608 -0.004753036
0 -0.0029312777 -0.0047375406
0 -0.00075477903 -0.0047362493
0.00086616009 -0.0051224702 -0.004724564
0.0026063488 -0.0051358743 -0.0047070966
0 -0.0012000764 -0.0047037546
0.0040620756 -0.0016506537 -0.0046819109
0.0030544221 0.00010766905 -0.0046888962
0.0037627956 0.0016336432 -0.0046889568
0.0030502281 -0.00016089197 -0.0046662423
1.8834418e-05 0.0045400937 -0.0046627871
0 0.0017436908 -0.004652855
0.0048098159 0.0020382584 -0.0046392088
0.0030507308 -0.00051033817 -0.0046221078
0.0040594446 0.0017926267 -0.0046231039
0.0049999999 0.0027467466 -0.0046271025
0.00031177641 -0.0049683759 -0.0046188668
0.0036914337 0.0018866071 -0.0045841765
4.6298373e-05 -0.0046697301 -0.0045757662
0.0049999999 0.0034491695 -0.0045642643
0.0048950044 -0.0050128405 -0.0045498968
0 -0.0028032938 -0.0045457007
0 -0.004522034 -0.0045385086
0.0049077235 -0.002533518 -0.0045391261
0.0018213509 0.0052799559 -0.0045193429
0.0031149557 -0.0015612841 -0.0045021116
0.0031241355 -0.0016560698 -0.004472706
0.0045225862 0.0021674244 -0.0044678575
0.0021351338 -0.0053371773 -0.0044447766
0 0.00068755558 -0.00444709
0.0016230512 0.005335317 -0.0044472027
0.004845914 0.0051683607 -0.0044271541
0.0029999998 0.00033825735 -0.004416856
0 0.0015489827 -0.0044185612
0 -0.0014392526 -0.0043940768
0 0.00054995134 -0.0043912898
0 0.00069788413 -0.004362179
0.003003431 0.001148326 -0.0043616556
0 0.002442396 -0.0043229568
0.00080073724 0.005428425 -0.0043258732
0.0042629824 -0.0054549612 -0.0042912937
0.0031567093 -0.0021809379 -0.0042902632
0.0039310553 -0.0025742354 -0.0042731347
0.0039911745 -0.0025680396 -0.0042778896
0 0.0028271982 -0.0042660222
0.0034006406 -0.0026237506 -0.0042018858
0.0030556745 -0.0020910173 -0.0041858759
0 0.0036646873 -0.0041547837
0.0018975119 -0.0055814162 -0.0041265097
0.00034243613 0.0054044332 -0.004100577
0.0014645108 0.0055993889 -0.0041030906
0.0033361346 -0.0027320173 -0.0040972205
0 0.0017289956 -0.0040885117
0.004039085 -0.0028434601 -0.0040665432
0.0016407613 -0.0056377915 -0.0040530479
0.0032579605 0.0027962944 -0.004021727
0.0029999996 -0.001891946 -0.0040023844
0.0029999996 -0.0013364184 -0.0040012579
0.004343525 0.0056777778 -0.0040009408
0.0045994786 -0.0056892699 -0.0039859661
0.0036190883 0.0029875943 -0.0039559407
0.0049918205 -0.0053527365 -0.0039493022
0.0030615563 0.002577648 -0.0039327419
0 0.0039869472 -0.0039366139
0.0049999994 0.0051659951 -0.0039007314
0.0049999999 0.0050905324 -0.003892513
0.00025863454 -0.0054657082 -0.0038842303
0 0.00016332722 -0.003880959
0 0.0025145162 -0.0038886641
0.0044781561 -0.0030967023 -0.0038722155
0 0.0029024577 -0.0038747708
0.0049999999 0.0050301799 -0.0038667761
0.0029999998 0.00058701757 -0.0038540179
0.0017575825 0.0057887426 -0.0038563439
0.0020477555 -0.005804515 -0.0038357899
0.004692697 -0.0058092806 -0.0038295805
0 0.00090962654 -0.003828539
0 -0.0021051846 -0.0038102281
0.00028567895 0.0055501461 -0.0038182708
0 -0.0026599565 -0.0037988552
0.0044938908 0.0031945091 -0.0037971628
0.0018028959 -0.0058527132 -0.0037729831
0.0030581341 0.0027583707 -0.0037781287
0.00040922835 -0.0057418845 -0.0037695838
0 -0.0020574371 -0.0037430984
0 -0.001735077 -0.003717117
0.00036681216 -0.00573724 -0.0037065616
0 0.0036207309 -0.0036851112
0.00058268436 -0.0059247673 -0.0036790895
0.0029999998 -0.0017938669 -0.0036324589
0.0020393524 -0.0059739118 -0.0036150487
0.0049999999 -0.0050409227 -0.0036147831
0.0034932124 -0.0034319861 -0.0036126629
0 -0.0050664181 -0.0036043397
0 0.00036717535 -0.0035942758
0.0039273165 -0.0034738316 -0.0035828219
0 -0.0028029031 -0.0035611917
0.0013692385 -0.0060309502 -0.0035407227
0 0.002754342 -0.0035370919
0.0049999999 0.0050334311 -0.0035280003
0.00047522792 -0.0060234023 -0.0035102176
0.0049999999 -0.0043847058 -0.0034845157
0.0043474212 -0.0035742761 -0.0034849681
0 -0.00047721073 -0.0034462416
0.0038240475 -0.0036179107 -0.0034281053
0.0037620701 0.0061101858 -0.0033841489
0.0022730145 -0.0061277258 -0.0033418036
0.0049999999 0.0052187825 -0.0033477852
0.003 0.0005356741 -0.0033293492
0 0.0022466565 -0.0033118229
0.0015706038 -0.0061501698 -0.0032876178
0.0049892138 -0.0058442787 -0.0032768392
0.0029999998 -0.00035773221 -0.0032735884
0 -0.0021282414 -0.0032576912
0.0042511187 0.0037483727 -0.0032580907
0 -0.005543136 -0.003244434
0.0049004187 -0.0059549715 -0.003239644
0.00054911844 -0.006181309 -0.0032124408
0.0038569984 -0.0061870897 -0.0031984823
0.0035563747 0.0038134125 -0.0031733324
0.0040452629 0.0062058573 -0.003153173
0.0014250301 0.006214757 -0.0031316862
0 -0.00015764571 -0.0031210692
0.0038210675 -0.0038711755 -0.0030980583
0.00044517292 0.0061695119 -0.0030988648
0.0029999996 0.00066966191 -0.003089668
0.0015654706 0.0062373923 -0.0030770374
0 -0.0050685424 -0.0030644415
0.0046971482 0.003894126 -0.0030681493
0.0033710615 -0.0062450268 -0.0030586077
0.0049999999 0.0048880302 -0.0030566596
0.0029999998 -0.0019745603 -0.0030437463
0.0037787396 0.0039098216 -0.0030476954
0 -0.003369903 -0.0030313779
0 -0.0047688731 -0.0030279758
0.0049999999 0.005394815 -0.0030153703
0 0.0056752856 -0.0030002457
0.0029999998 -0.0019129997 -0.0029983236
0.0026198307 0.0062693516 -0.0029998799
0 -0.0037615648 -0.0029481591
0.00080726284 -0.0063099097 -0.0029019637
0.0028232774 -0.0063119521 -0.0028970318
0.003 -0.0023044432 -0.002885896
0.003 0.0032205435 -0.0028746533
0.0050000004 -0.0057437201 -0.0028652276
0.0034953956 -0.0040702038 -0.002836681
0.0030473415 0.0036664652 -0.0028383061
0.0041291383 -0.0063466057 -0.0028133686
0.0029999998 0.0006264011 -0.0028021922
0 -0.0002459345 -0.0027935039
0.0011005015 -0.0063621872 -0.0027757508
0.0029999998 0.0026077956 -0.002776542
0 0.0035778354 -0.0027734698
0.0019487363 -0.0063660149 -0.0027665088
0.0049999999 -0.0045266938 -0.0027661137
0 0.0010678661 -0.0027606201
0.0029999998 0.001293722 -0.0027254391
0.0046855058 -0.0063924133 -0.0027027752
0.0029999998 -0.001799152 -0.0027069021
0 0.0032610295 -0.0027038986
0 -0.00063897687 -0.0026969677
0.0037223611 0.0064088413 -0.0026631141
0.0038178922 0.0064091575 -0.0026623509
0 -0.0033670508 -0.0026545383
0 0.0055454187 -0.0026474146
0.0016272322 0.0064201839 -0.00263573
0.0032227847 0.0041161194 -0.0026254717
0.0045033284 -0.0042496161 -0.0026048848
0 -0.0036029383 -0.0026094359
0.0033621476 -0.0064378302 -0.0025931282
0.0048366799 0.0063131745 -0.0025399642
0.0021934223 0.0064654574 -0.0025264281
0.00021664002 0.0061734878 -0.0024971415
0 -0.0047176308 -0.0024845919
0.0043295305 0.0043377914 -0.0024814331
0.0016705053 0.0064858869 -0.002477105
0 -0.0030981305 -0.0024637934
0.0029999998 -0.0032854723 -0.0024158403
0 -0.0010942123 -0.0024121366
0.00029440125 -0.0063058254 -0.0023791187
0.00068171922 0.0065303785 -0.0023696912
0.0029999998 -0.0036806606 -0.0023390166
0 0.0021150892 -0.0023242126
0.00031647718 -0.0063592405 -0.0023073598
0 -0.0048522842 -0.0023050408
0 0.0028498753 -0.0022802518
0 0.00027169229 -0.0022647502
0 -0.0046789069 -0.0022411156
0.0029999998 -0.0037794497 -0.0022461652
0 -0.0026173927 -0.0022432802
0.0014574114 6.1925061e-07 -0.0022499186
0.0022640794 -0.0065868455 -0.0022333639
0.0020888979 0.00015689753 -0.0022293339
0.002886038 0.00020547281 -0.0022229354
0.0021161749 0.00021445318 -0.0022217524
0.0011730401 0.0004203592 -0.0021946307
0 0.0059173894 -0.0021913464
0.001480378 0.00045915804 -0.0021895203
0 0.002427055 -0.0021766534
0.00055086846 -0.006621052 -0.0021507812
0 0.0042272876 -0.0021503132
0.00061092683 -0.0066288332 -0.0021319943
0 -0.0015356196 -0.0021368091
0 0.0052699363 -0.002134973
0.0029999996 0.00077421183 -0.002114363
0.0040013865 -0.0044956906 -0.0021002297
0 0.0023467108 -0.0021061031
0.0026111556 0.00076394039 -0.0020980935
0 -0.0047807759 -0.0020829884
0.001617459 0.00088567415 -0.002047691
0.0016583023 0.00090285763 -0.0020405764
0.00043255123 0.00092456583 -0.0020315882
0 0.0029316896 -0.0020337517
0.00039578381 -0.00094756798 -0.0020220643
0.0030626042 0.0042419103 -0.0020227367
0 0.0025283324 -0.0020008748
0.0011000955 0.0010066524 -0.001997601
0.0011963664 -0.0066983765 -0.0019640976
0.003 -0.0032422889 -0.0019509559
0.0027536843 0.0011100048 -0.0019548088
0 0.0059284456 -0.0019599949
0.0022526421 0.0067067281 -0.0019439334
0.0029999998 -0.0025848758 -0.001938363
0.003 0.0018228027 -0.0019232577
0.00020226142 0.0063963174 -0.0019219159
0.00060564291 0.0011731096 -0.0019116817
0.0029999998 0.0028559794 -0.0019180746
0 0.0048847198 -0.0018917682
0 -0.0028801223 -0.00188913
0 0.0047720959 -0.0018882874
0.0035426759 -0.0046049845 -0.0018363703
0 -0.0033213459 -0.0018349618
0.0049999999 0.0060453112 -0.0018140686
9.1203605e-05 0.0063380944 -0.0017747299
0.0013970847 -0.0014146327 -0.0017263413
0.0025555755 0.0014312067 -0.0017136225
0.0021760876 0.0067740809 -0.0017161311
0.0029476115 -0.0014533333 -0.001696643
0 0.0041545932 -0.0016950712
0.00053227722 -0.0014724819 -0.0016819488
0.00032414851 0.0066018519 -0.0016885361
0.0029999998 0.0023083535 -0.0016692958
0.0027771501 -0.0015105925 -0.0016527034
0 0.0056445268 -0.0016571328
0.0034274822 0.004669548 -0.001630167
0.003834357 0.0046899649 -0.0016312094
0.0029232653 -0.0067910207 -0.0015874599
0.00019349567 -0.0015937368 -0.0015874336
0.0048940214 0.0049290839 -0.0015565966
0 0.0025900903 -0.001542298
0.0029999998 -0.0020869065 -0.0015335572
0.0049407743 0.0049917139 -0.0015265221
0.0036883994 -0.0047437255 -0.0015014209
0.003 -0.0041594603 -0.001496434
0.00031731263 0.0016882578 -0.0014642603
0 -0.0048873015 -0.0014295683
0.0029999998 -0.0027580888 -0.0014215364
0.00033647096 0.0017195166 -0.0014235261
0.0048986124 -0.0066228611 -0.0013560567
0.0029999998 0.0024023938 -0.0013284544
0.0029999998 -0.0021419805 -0.0013157069
0 -0.0021388307 -0.0013080116
0.0015241407 -0.0018244099 -0.0012868362
0 -0.002735015 -0.0012406792
0 -0.0029410063 -0.0012252255
0.0049999999 -0.0064416137 -0.001191213
0.0023418372 -0.0019025367 -0.001185027
0 0.0039814687 -0.0011891641
0.0023331516 -0.006847159 -0.0011610175
0.0028458061 -0.0068475385 -0.0011581379
0 -0.003223849 -0.00115267
0.0021841221 -0.0019316609 -0.001147074
0 0.0058905133 -0.0011447767
0.0029176138 0.0068488391 -0.0011482498
0 -0.003365567 -0.001074011
0.0029999998 0.0027324583 -0.0010728545
0.0034828845 -0.0068595442 -0.001066932
0 -0.0040478609 -0.001057906
0.0029999998 0.0038010236 -0.0010587918
0.0039627627 -0.0048641916 -0.0010313938
0.0037790034 0.0048640897 -0.0010321701
0.0029999996 0.0032357641 -0.0010037146
0.0020014264 0.0020038344 -0.00099159777
0.0010053491 -0.0068707252 -0.00098200527
0 0.0057327864 -0.00098858285
0 0.0046017896 -0.00097772793
0.0024603324 -0.0068735392 -0.00096062821
0.0046812464 -0.0068770475 -0.00093397603
0.0049999999 -0.0053930418 -0.00091077806
0.0024132538 0.0068794219 -0.00091593765
0.00022729082 -0.00204027 -0.00090359745
0.0042089028 0.0068822885 -0.00089416979
0.0029039856 -0.0068829064 -0.00088947196
0.0030112248 -0.004425969 -0.00088056683
0.00041823398 -0.0020534922 -0.00087166333
0.0029999998 0.0022610412 -0.00086078455
0 -0.0038105862 -0.00082883169
0.003 -0.0029785673 -0.00082141173
0 0.0029534122 -0.00075793883
0.0029759461 0.0069009 -0.00075278879
0.0035232725 -0.0069044419 -0.00072588626
0.0049999999 0.0053380551 -0.00070065836
0 -0.0021774864 -0.00069182832
0.003 0.0040020263 -0.00069419108
0.001342822 -0.0021329497 -0.00067975523
0.0026146341 0.0021354733 -0.00067366019
0 -0.0039998917 -0.00065570703
0.0029223615 0.0021453965 -0.00064969342
0.0029999998 0.0039895992 -0.00063846592
0 0.0062329303 -0.00060068729
0.00016725987 0.0065897149 -0.00058904837
0 0.0034138204 -0.00056875852
0.0048088683 0.0050373157 -0.00054340769
0.0029999996 0.0038257409 -0.00052572327
0.0030474467 0.0046079592 -0.00052475469
0.0047654537 -0.0068674204 -0.00050987437
0.0018612075 0.0069348156 -0.00049515505
0.00089242304 -0.0021870343 -0.00047803138
0 0.0046134936 -0.00047914989
0 0.0049942657 -0.0004457084
0.0048740837 -0.0067689572 -0.00043264375
0.0047148159 0.0069285561 -0.00043015537
0.004309555 0.0069426615 -0.00043555748
0 -0.0030287735 -0.00042994131
0 0.0061717769 -0.00042836557
0.0029999998 -0.0027869244 -0.00029022305
0 0.002290844 -0.00029983497
0 0.0043849465 -0.00029780265
0.0044195447 -0.0049651186 -0.00026490484
0.0031516463 -0.0048032119 -0.00023876439
0 0.0064459494 -0.00020735024
0.0029999998 -0.0039183116 -0.00017829261
0.0030291034 -0.0045904554 -0.00013774663
0.0019992187 -0.002237919 -9.1719136e-05
0.0029999998 0.0042599835 -8.9499415e-05
0.00039411095 0.0068824962 -8.8230103e-05
0.0041944059 -0.0069918935 -6.1579172e-05
0.00040246625 -0.0022433114 -5.0782386e-05
0.0046654926 -0.0049939617 -4.5862584e-05
0.0029999998 -0.0024722645 -4.2376247e-05
0.0049999999 0.0053843199 -1.3957862e-05
0 -0.0060111503 -9.6831682e-06
0 0.0062254504 -2.8895965e-06
0.0022858018 0.0069994917 -3.8656917e-06
0.003992266 0.0069989744 -7.7948607e-06
0.00048781396 0.006986537 9.7048742e-06
0.00081265962 -0.0022478034 1.6676873e-05
0.0014454947 0.0069931303 5.2184088e-05
0.0040713325 -0.0069910516 6.7977904e-05
0.001956068 -0.006988287 8.8976711e-05
0.0029999998 0.0029646931 9.2350558e-05
0.0031301619 0.0047997721 0.00010170676
0.0037151966 0.0069858702 0.00010733997
0.0020082532 -0.0022311318 0.00014324719
0.0029999998 0.0023819238 0.00017379705
0.0034726842 0.0049676942 0.00018975399
0.0034000631 -0.0049409699 0.00024493493
0.0048141372 -0.006852509 0.00025336046
0.0029999998 0.002576442 0.00025016323
0.0016157142 -0.0069649322 0.00026638192
0.0049999999 0.0054280125 0.0002976197
0.0009524374 -0.0022066263 0.00032929063
0 0.0063247001 0.00034851333
0.0043210881 0.006954174 0.00034810937
0 -0.0033346349 0.00035233807
9.6419149e-05 -0.0022018834 0.00036529702
0.0020802487 0.0022000351 0.00037932931
0.0029999998 0.0037398783 0.0003784713
0 -0.0046067662 0.00038677853
0.0015198441 0.0021994705 0.00038361546
0.0029999998 0.0026204924 0.00040419065
0.0020617694 -0.0021948325 0.00041882729
0.0016331383 -0.0021921336 0.00043931737
0.0049999999 -0.0059216209 0.0004466908
0 0.0053707324 0.00047603378
0.00066531217 0.0069379923 0.00047102643
0 -0.0045231027 0.00048797944
0.00054849364 -0.0021802471 0.00052955869
3.1222491e-05 -0.006459225 0.00054682419
0.0015662549 0.0021779295 0.00054715405
0.0029999996 0.0028389627 0.00057523325
0.0029999998 -0.0022912575 0.00060299505
0.0029999998 0.0025473658 0.00060960825
0.0026732036 0.0069209626 0.00060038734
0.0035184466 0.0049188379 0.00061638647
0.003904643 0.0069179265 0.00062344898
0.0048363353 0.0067779054 0.0006514453
0.0029999998 -0.0029506919 0.00067448377
0.0029999998 0.0032367946 0.00067868223
0.0034047554 -0.0048840377 0.00068688515
0.0013814858 -0.0021294032 0.00068832038
0.0049999999 -0.0052126627 0.00072127418
0.0021485977 0.0020931817 0.00077580393
0.0029999998 -0.0040607397 0.00078352238
0.003 0.003284761 0.00078298751
0.0021671432 0.002083231 0.00079983671
0 0.0034872305 0.00079546432
0.004148514 -0.0048936005 0.00080804899
0.0033759824 -0.0048579499 0.00082646625
0 0.0032611352 0.00082979363
0.0017776323 -0.0020683554 0.00083576475
0.0012348469 0.0020640546 0.00084615231
0 -0.0032544052 0.00085599534
0.0009361023 -0.0020479106 0.00088514347
0 -0.0062746173 0.00089454517
0.0017108052 -0.0020438177 0.00089502876
0.0032514143 -0.0048135822 0.00090991642
0.00010744961 0.0064870361 0.00091461005
0.0049999999 -0.006466371 0.00093954062
0.0043391781 -0.0068760496 0.00094156043
0.0030081167 0.004403227 0.00096526928
0 0.0060737538 0.00097072724
0.0049883542 0.0065827817 0.0009788241
0.00014741722 -0.0065168347 0.00099178462
0.0037487792 0.0048640366 0.0010325724
0 -0.0038030103 0.0010465767
0 0.0061529623 0.0010519769
0.0019300379 -0.0019628908 0.0010904843
0.0024386405 -0.001946062 0.0011283075
0.0029999996 -0.0028985341 0.0011531595
0.0029999998 -0.003057654 0.0011622744
0.0017812258 -0.0068413788 0.0012049261
0.0029999998 -0.0040868064 0.0012019197
0.0029999996 0.001993648 0.001207051
0.0029999998 0.0042819516 0.0012094835
0.0026480458 0.0068414416 0.0012044526
0.00065225404 0.006838995 0.0012230336
0.00074293406 0.0018486416 0.0012552594
0.0041308203 -0.0048336126 0.0012636257
0 -0.0045933658 0.0012653223
0.0022036191 0.0018389839 0.0012678445
0.0017039503 -0.0068273428 0.0013115492
0.00035112654 -0.0018034722 0.0013141208
0.00078238215 -0.0068228748 0.0013454856
0 -0.0042885351 0.0013538359
0.0047062524 -0.0047966139 0.0013899341
0.00026500982 0.0017412071 0.0013952606
0 -0.0059112883 0.0014084702
0 -0.0056590559 0.0014098427
0.0049853218 0.0050897938 0.0014051467
0 0.004664781 0.0014248062
0.0025406771 0.0017014779 0.0014470327
0.0023098651 -0.0068086237 0.0014537397
0.0029796313 0.0016971704 0.0014526461
0.00070631003 -0.006804842 0.0014824707
0.0010476625 0.0068039326 0.0014893742
0.0049999999 -0.0062357206 0.001496603
0.0018420075 -0.0016619189 0.0014985832
0.0029999998 0.003221984 0.0014948262
0 0.0057863132 0.0014926592
0 -0.00312296 0.0015118789
0.0024086051 -0.0016360807 0.001532254
0.0040441807 0.0067982408 0.0015326075
0.003 0.0034581353 0.0015587935
0.0035175849 0.0067959167 0.0015502664
0.0043399907 -0.0047193011 0.001560386
0.0039789164 -0.006792454 0.0015765673
0.0041113319 -0.0067923144 0.001577628
0 -0.0030760488 0.0015764653
0.003135009 -0.0045099361 0.0015943631
0.0020606939 0.0067867902 0.0016195881
0.0030238705 -0.004250735 0.0016270825
0.0018458574 0.0067835841 0.001643948
0.0017419877 -0.0015054562 0.0016566449
0.00058403093 0.0014684644 0.0016850316
0.0031546508 0.0044934903 0.0016849715
0.0031324683 -0.0044648517 0.0016966279
0.002703157 0.0014336037 0.001711783
0 0.0049197506 0.0017198622
0.0029999998 -0.0023048106 0.001731809
0.0050000004 -0.0051993462 0.0017698004
0.0049999999 0.0056186952 0.0017810038
0 -0.0034707608 0.0018085202
0.0019077462 0.0012828978 0.0018274322
0.00045777761 0.0012746082 0.0018337935
0.0048307599 0.0066128932 0.0018316983
0.0010814583 0.0012620671 0.0018434173
0.0015048225 0.001253363 0.0018500965
0.0029543324 -0.0067409994 0.0018611947
0.0021295622 0.0012304961 0.0018676444
0.0049999999 0.0061970158 0.0019085346
0.00018216776 0.0011721574 0.0019124124
0.0029999998 -0.0032312567 0.001941653
0 -0.001159596 0.0019484399
0 0.0037295616 0.0019669712
0.0004931115 0.0066896481 0.0019673244
0 -0.0041958052 0.001976517
0.0027175194 0.0066935029 0.0019758646
0.00033023639 0.0010331332 0.0019866368
0.00092356734 -0.001007885 0.0019970906
0 -0.0061340909 0.0020244203
0.0011897264 0.00093495147 0.0020272881
0.0023894473 0.0066635441 0.002048193
0 -0.00591926 0.0020554955
0.003 -0.0027842608 0.0020604334
0 -0.0060082115 0.0020765872
0.0022092357 -0.00082788384 0.0020716186
0.0012646257 -0.00081929867 0.002075173
0.0026752721 0.00081574707 0.0020766435
0.0049999999 -0.006050433 0.0020853111
0.0049999999 0.0048718704 0.002102315
0.0032965152 -0.0066362382 0.0021141167
0.0030583988 -0.004182186 0.0021262874
0.00017998867 -0.00064983172 0.002145339
0.00022883886 0.00063070521 0.0021532585
0.003 -0.0025111514 0.0021665613
0.0035287561 0.0066163098 0.0021622283
0.0027691659 0.00058399205 0.0021725995
0.0022889154 0.00051527144 0.0021821291
0 -0.0050810217 0.0021929345
0.0017139519 0.00038024297 0.0021999148
0.0020741152 0.0004137838 0.0021954968
0.00025190786 0.00032678488 0.0022069565
0.0022307169 -0.0001799662 0.0022262952
0.0024862937 0.00019543765 0.0022242574
0.0026145321 -9.8581979e-05 0.0022370152
0.0042461017 -0.0065827551 0.0022432404
0 0.00059821276 0.0022591499
0.0034196139 0.0044065886 0.0022595492
0.0029999998 0.0016962672 0.0022885718
0 -0.0039988016 0.0023321165
0.0030062019 0.003847548 0.002352278
0 -0.0040939543 0.0023649102
0.0049999999 0.0054352107 0.0023657656
0.0037669875 0.0043789684 0.0023820226
0.0029999998 -0.0012283783 0.0024064421
0.0029999998 -0.00098739809 0.0024007463
0.00029750992 -0.0062796776 0.0024503018
0 0.0010144298 0.0024521619
0 0.0053819614 0.0024696749
0 0.0023852524 0.002478942
0.0049999999 -0.0053180587 0.0024855803
0.0043594097 0.0043240581 0.0025078738
0 -0.0040842146 0.0025100224
0 -0.0038414742 0.0025259787
0 -0.0056063817 0.0025555934
0.003 -0.0020185534 0.0025511226
0.0030801031 -0.0064401939 0.0025874206
0.0017793506 -0.00643413 0.0026020601
0.0043955743 -0.0042353193 0.0026235157
0.0029999998 -0.001446242 0.0026388734
0.0012750429 -0.0064132209 0.0026525413
0.0029999998 0.0021772548 0.0026577492
0 0.0014827817 0.0026749261
0.0037334319 -0.0063972669 0.0026910594
0.0049999999 -0.0054956679 0.0026938168
0 -0.004940615 0.0027371328
0.0041092625 0.0041379184 0.0027504466
0.0019047507 0.0063620042 0.0027761923
0 0.002666296 0.0027810188
0 0.0055546132 0.0027958315
0.0015744629 0.0063530914 0.0027977088
0.0037042282 -0.0040949844 0.0028063967
0.00066120137 0.0063501955 0.0028047014
0.0049999999 -0.0048603355 0.0028157721
0 -0.0041722367 0.0028152284
0.003 0.0030157201 0.0028250634
0 -0.0024280068 0.0028306085
0 -0.003392989 0.002852753
0.0032083795 0.0038833534 0.0029053809
0.003751382 0.0063049016 0.0029140529
0.003 -0.0025700666 0.00295509
0 0.0048459731 0.0029551024
0.0032201458 -0.0038209546 0.003005879
0 -0.003570796 0.0030014345
0 0.00050155091 0.0030070366
0.0032912469 -0.0038684942 0.0030105414
0 -0.0041896012 0.003050243
0.0029999998 -0.0029394203 0.0030618496
0.0050000004 0.0051556299 0.0030672087
0.0029999998 0.00097261288 0.0030808195
0.0038872694 -0.003874491 0.0030937367
0.0038877781 0.0062204022 0.0031180589
0.00053236389 -0.0062136278 0.0031344129
0.004044394 -0.0038454004 0.0031316474
0.0039507039 -0.0038302385 0.0031514058
0.00055064599 -0.0062000914 0.0031670928
0 -0.0043928432 0.0031807458
0.0047177006 -0.0061482685 0.003246346
0.0049999999 -0.0041882121 0.0032588609
0 -0.0045733121 0.0032818273
2.8422965e-05 0.0056123883 0.003318195
0.0034366192 0.0036574861 0.0033488884
0.0049999999 0.0051398459 0.0033800993
0.0038651153 -0.0036402412 0.0033990047
0 -0.0022196826 0.003393271
0.00080887991 0.0061024837 0.003402746
0.0038265223 0.003627938 0.0034150383
0 0.0036832909 0.0034473499
0.0029999998 0.00085300853 0.0034588634
0.0040745218 0.0035951836 0.0034577225
0 -0.0040723067 0.0034647686
0.0049999999 0.0043036174 0.0034640343
0.004830067 -0.0059028151 0.0034958818
0 -0.00070618291 0.0035129085
0 0.0010211444 0.0035247044
0.0034197618 0.003486118 0.0035465639
0 -0.001744172 0.0035545032
0.0029999998 -0.0020543365 0.0035722395
0.0029999998 -0.0016931726 0.0035789958
0.00026989897 -0.0057099345 0.0035843365
0.0013490267 -0.0059690988 0.0036213205
0.00059841969 0.0059656561 0.0036258069
0 -0.0019605672 0.0036655809
0.0035220005 -0.0058958274 0.0037168004
0.0043924572 0.0032819121 0.0037300931
0.00028019774 0.0056057191 0.0037368976
0.0049999999 -0.0039938986 0.003775483
0.0023356818 -0.0058297981 0.0038028439
0.0049999999 -0.0053707566 0.0038259504
0 -0.0030012454 0.003846715
0.0040698303 0.003128964 0.0038474593
0.003 5.1936033e-05 0.003871588
0 -0.0011713682 0.0038976802
0 0.0028305971 0.0038977868
0.0019658788 0.0057586157 0.0038956022
0.0049374048 -0.0054481295 0.0039135953
0 -0.0038536161 0.0039131194
0.0041051675 0.0056782486 0.0040003285
0.00012215605 -0.0051661097 0.0040524364
0 0.0023606601 0.004055473
0.0034642159 0.0056111165 0.0040878085
0.0034769711 -0.0056057819 0.004094759
0 0.0021697236 0.0040994626
0.0027266312 -0.0055986224 0.004104089
0 -0.00089564756 0.0041091652
0.0031128281 -0.0055889273 0.0041167224
0.0039981031 -0.0055802688 0.0041280058
0 0.0040166378 0.0041278712
0 -0.0047131549 0.0041432534
0.0049999999 0.0032518827 0.0041419305
0.0039403802 -0.0055452529 0.0041736346
0.002550669 0.0055252877 0.0041996511
0.0041444167 -0.0055205883 0.0042057759
0 -0.0024262799 0.0042050811
0.0029999998 0.0014965001 0.0042081806
0.0032685839 -0.0025499575 0.0042142817
0.00040436015 0.0053711627 0.0042447434
0 -0.0039645908 0.0042568068
0 -0.0012660845 0.0042683156
0.0017228493 -0.0054604667 0.0042841192
0.002667604 0.0054541822 0.0042923093
0 -0.0041259206 0.0043091909
0 0.00166691 0.0043119853
0.0031748055 -0.0021537244 0.0043209498
0.0049999999 0.0044106115 0.0043414254
0.0043204622 0.0024354768 0.0043568271
0.0014784954 -0.0053881332 0.0043783775
0.0034567574 -0.0023577821 0.0043765777
0 -0.0010196269 0.0043872446
0.0030027393 0.00090820214 0.0043906826
0.0037889655 0.0053775739 0.0043921378
0.00081918051 0.005360005 0.0044150306
0 -0.001526099 0.0044293408
0.0037402611 0.0022765887 0.00442264
0 0.0010809186 0.004456826
0.0014167564 0.0053317933 0.0044517945
0.0044706645 -0.0021642402 0.0044691763
0.0049999994 -0.0028704922 0.0045052338
0.0046859686 0.0052935588 0.0045016175
0.0036109684 0.0020359603 0.0045223115
0 0.002548842 0.0045291046
0 -0.0039054039 0.0045494665
0.0049999999 0.0043254546 0.004580393
0.0032626744 0.0052231997 0.0045933025
0 -0.0031962651 0.0046277344
0.0040605157 -0.0051902551 0.0046362323
0.0041926987 -0.0017669552 0.0046337373
0.0049999999 -0.0047710645 0.0046408405
0.0049999999 -0.0047105397 0.004641762
0 -0.0032403513 0.0046795574
0.0043713227 -0.0016019262 0.0047020949
0.0046982295 0.001598654 0.00470345
0.0038854862 0.0015388695 0.004728213
0.0029113195 -0.0051112054 0.0047392431
0.0041430858 0.0051034968 0.0047492869
0.0040932572 -0.0013849512 0.0047919685
0.0043019569 -0.0013441199 0.0048088813
0.0029946843 0.005057307 0.0048094774
0.0005877798 0.0050612567 0.0048043309
0.00064567255 0.0050625904 0.0048025926
0 -0.0028854567 0.0048118229
0.0012166457 -0.0050471062 0.0048227706
0.003156973 -0.0050449446 0.0048255869
0.0033679856 0.0010728625 0.0048233634
0.0022128096 -0.0050350842 0.0048384364
0.0040357565 -0.0012160438 0.0048398781
0 -0.0026448474 0.004861909
0 0.0031813937 0.0048614689
0.0015577277 -0.0049930923 0.0048931553
0.0043114335 0.00073373702 0.0049033859
0.0042952728 0.00067850773 0.0049106576
0.0032801861 -5.9411061e-05 0.0049332674
0.0042916504 0.00046780254 0.0049384022
0 0.0016658487 0.0049303384
0.0049999999 0.0038223481 0.0049321097
0.0047656777 0.00091098587 0.0049457247
0 -0.00153299 0.0049647545
0.0043703611 -0.00025118352 0.0049669258
0 0.002565685 0.0049652732
0.0023873604 0.0049174018 0.0049744858
0.0012611682 0.0048448555 0.0050301584
0.0030235611 -0.0048251338 0.005045292
0.0049999994 -0.0040547755 0.0050451518
0 0.0024484717 0.005050512
0.00078042026 0.0048091915 0.0050575263
0.0044496027 0.0048186616 0.0050502596
0.0042840806 -0.0047726729 0.0050855507
0.0049999999 -0.0037789447 0.0050936397
0 0.00015614129 0.0050938721
0.0013132017 0.0047615576 0.0050940812
0.00040389725 -0.0045897937 0.0051058065
0.0048625446 -0.0004492607 0.0051033888
0.0050000004 0.0040552691 0.0051168408
0.0049219769 -0.0043287501 0.0051488434
0.0048656054 0.0001364487 0.0051476392
0 0.0024622025 0.0051406785
0.0012951468 -0.0046697184 0.0051645585
0.0024306769 -0.0046115438 0.005209201
0.0049999999 -0.0035437674 0.005200855
0.0049290424 -0.00020473586 0.0052020848
0.00068002049 0.0046159304 0.0052058357
0 -0.00054577593 0.005214937
0.0040154941 -0.004593946 0.0052227061
0.0049999999 -0.00073197077 0.0052306196
0.0049750856 -0.00019232351 0.0052497638
0.0042229379 -0.0045172949 0.0052815285
0.0049813357 4.1944909e-06 0.0052807839
0.0049999999 0.00015147722 0.005283474
0.0022999104 -0.0044944603 0.0052990504
0.0049999999 -0.0017432884 0.0052985698
8.4143845e-05 0.0037948973 0.0053162151
0.0048066159 0.0042743599 0.0053347182
0.00026816534 0.0040583969 0.005343962
0 -0.0031555051 0.0053724824
0.0039584842 0.0043698144 0.0053947042
0.0034195057 -0.0043589887 0.0054030125
0.003909294 -0.0043219654 0.0054314239
0.0018063029 -0.00431774 0.0054346668
0.0049999999 -0.0037100969 0.0054497467
0 0.0030934289 0.0054573538
0.00057098962 0.0042922292 0.0054542432
0.0022615325 0.0042839539 0.0054605943
0.00055547943 0.0042618723 0.0054775388
0.0002443855 0.003841687 0.0054805484
0 -0.0024598977 0.0054924702
0.0049999999 0.0019079935 0.0054948041
0.0049999999 0.0023857532 0.005541374
0.0049999999 0.00080863881 0.0055598384
0.0013253279 -0.0041273236 0.0055807917
0.0011754762 0.0040974105 0.005603747
0.003308859 -0.004022649 0.0056611197
0 0.0012175632 0.0056622559
0 -0.00044023737 0.0056864889
0 0.0016322413 0.0057551037
0.0049999999 0.0031688861 0.0057726172
0 -0.0020860953 0.0058044847
0.00030495561 0.0035240194 0.0058000204
0.0031421785 0.0038298161 0.0058090994
0.0049999999 -0.0015158115 0.005814868
0.0008661492 -0.0038095133 0.0058246795
0.00053480046 -0.0037834572 0.0058446759
0.0033615786 0.0037552402 0.0058663292
0.0049999999 0.0019180253 0.0058801286
0.00073146896 0.0037287672 0.0058866441
0.0003789328 0.0035168775 0.0058979508
0.0036810299 -0.0036972673 0.005910818
0.0049999999 0.00047466432 0.0059245396
0.0027184079 -0.0036503307 0.0059468369
0 0.00022869349 0.0059419372
0.0049999999 0.0022904058 0.0059504439
0.00050723978 0.0036273431 0.0059644771
0.0029162492 -0.0036004391 0.005985124
0.0031341217 -0.0035777993 0.0060024969
0.0049999999 0.0022246628 0.0060109552
0.002298994 -0.0035006367 0.0060617123
0.00017675584 0.0025990314 0.0060884887
0.0049999999 -0.0025878106 0.0061139218
0 -0.001248003 0.0061138012
0.002434127 0.0033356673 0.0061302674
0.0049999999 0.0014310615 0.0061461898
0.0022262414 -0.0032620898 0.006160744
0.00024628532 -0.0025619199 0.0061784708
0.0019925337 -0.0031141026 0.0062220404
0.0012668363 -0.0031010979 0.0062274267
0.002609716 -0.0030708825 0.0062399423
0.0022859855 -0.0030470013 0.0062498339
0.003461909 -0.0030406846 0.0062524509
0.0024757588 -0.0030215071 0.0062603937
0.00055756676 0.0030129128 0.0062639536
0.0050000004 -0.0020105555 0.0062826304
0.0020158936 0.0029282465 0.0062990231
0.0034396446 0.0029120962 0.0063057123
0.0028209144 0.0029221151 0.0063015628
0.0020538648 -0.0028906509 0.0063145952
0.00046903998 0.0027512761 0.0063390983
7.185191e-06 0.0012198148 0.0063465787
0.00091312971 -0.0026986776 0.0063941111
0.0009074157 -0.0026494572 0.0064144987
0.0018401048 0.0025240474 0.0064664427
0.0032250786 -0.0025143824 0.0064704465
0.0010379887 0.0024747045 0.0064868815
0.00015082632 -0.0010937937 0.0065068235
0.0029844805 -0.0023519408 0.0065377303
0.0025524073 0.002345921 0.006540224
0.0039153532 -0.002321875 0.0065501835
6.4518557e-05 -1.6009757e-05 0.0065624113
0.0023235823 -0.0021870858 0.0066060144
0.0045138481 -0.0021633334 0.0066158525
0.0046287687 -0.0021673113 0.0066142054
0.00018989883 -0.00054143474 0.0066186222
0.0015400861 0.0021101949 0.0066378624
0.0019755389 -0.0020040169 0.0066818423
0.0013064856 -0.0019917628 0.006686918
0.003940193 0.0019522703 0.0067032757
0.0032290157 -0.001851677 0.0067449422
0.0031537123 -0.001831705 0.0067532142
0.0037113421 -0.0018253344 0.0067558531
0.0045590973 -0.0018120237 0.006761366
0.0024388081 -0.0016009038 0.0067892503
0.00123713 0.0015797395 0.0067920364
0.00046870956 0.0012317334 0.0068065589
0.0047389311 0.0010968405 0.006816675
0.0029103081 -0.0013650298 0.006820302
0.0021150399 0.0012521328 0.0068351636
0.0020972148 0.0011492758 0.0068487045
0.003587736 0.0011768334 0.0068450766
0.0022561322 -0.0011100139 0.0068538729
0.0007835658 -0.001097969 0.0068554594
0.00066252588 0.0010675252 0.0068594664
0.0013058058 0.0010750357 0.0068584778
0.0040632416 0.00099956722 0.0068684127
0.0045724907 0.0010492066 0.0068618776
0.0046722265 0.00067260861 0.0069114552
0.0012418882 -0.00046611461 0.0069386391
0.0020502107 0.00052874006 0.0069303946
0.0013869145 -0.00041448229 0.0069454364
0.0033657448 0.00038640248 0.0069491323
0.003832767 0.00042927629 0.0069434885
0.00075726496 -0.00027843387 0.0069633462
0.0036585014 -0.00027520294 0.0069637718
0.0035838629 -0.00026871657 0.0069646253
0.00074375985 -0.00025431317 0.006966521
0.0045502465 0.00016935718 0.0069777058
0.0018000752 0.00014336091 0.0069811274
