# .PCD v0.7 - Point Cloud Data file format
VERSION 0.7
FIELDS x y z
SIZE 4 4 4
TYPE F F F
COUNT 1 1 1
WIDTH 1000
HEIGHT 1
VIEWPOINT 0 0 0 1 0 0 0
POINTS 1000
DATA ascii
0.002285802 -3.8659973e-06 -0.0069994917
0.003992266 -7.7951663e-06 -0.0069989744
0.0014454948 5.2183783e-05 -0.0069931303
0.00048781402 9.7045695e-06 -0.006986537
0.0037151969 0.00010733966 -0.0069858702
0.0043210885 0.00034810911 -0.006954174
0.0043095555 -0.00043555777 -0.0069426615
0.0018612078 -0.00049515534 -0.0069348156
0.00066531223 0.00047102611 -0.0069379923
0.0047148163 -0.00043015563 -0.0069285561
0.0026732038 0.00060038711 -0.0069209626
0.0039046435 0.00062344869 -0.0069179265
0.0029759465 -0.00075278914 -0.0069009
0.0042089033 -0.00089417008 -0.0068822885
0.00039411098 -8.8230401e-05 -0.0068824962
0.002413254 -0.00091593788 -0.0068794219
0.0029176141 -0.0011482502 -0.0068488391
0.0026480462 0.0012044524 -0.0068414416
0.00065225404 0.0012230334 -0.006838995
0.0010476626 0.0014893741 -0.0068039326
0.0040441812 0.0015326074 -0.0067982408
0.0035175851 0.0015502661 -0.0067959167
0.0020606942 0.0016195878 -0.0067867902
0.0018458574 0.0016439477 -0.0067835841
0.002176088 -0.0017161313 -0.0067740809
0.0048363358 0.00065144507 -0.0067779054
0.0022526423 -0.0019439337 -0.0067067281
0.0027175196 0.0019758646 -0.0066935029
0.00049311155 0.0019673244 -0.0066896481
0.0023894475 0.0020481928 -0.0066635441
0.0048307604 0.0018316981 -0.0066128932
0.0035287563 0.0021622281 -0.0066163098
0.00032414854 -0.0016885363 -0.0066018519
0.00016725989 -0.00058904861 -0.0065897149
0.0049883542 0.00097882387 -0.0065827817
0.00068171934 -0.0023696914 -0.0065303785
0.0016705054 -0.0024771052 -0.0064858869
0.00010744962 0.00091460982 -0.0064870361
0.0021934225 -0.0025264283 -0.0064654574
0 -0.00020735052 -0.0064459494
0.0016272323 -0.0026357304 -0.0064201839
0.0037223613 -0.0026631143 -0.0064088413
0.0038178926 -0.0026623514 -0.0064091575
0.00020226142 -0.0019219161 -0.0063963174
0.0019047511 0.002776192 -0.0063620042
0.001574463 0.0027977086 -0.0063530914
0.00066120148 0.002804701 -0.0063501955
9.1203612e-05 -0.0017747303 -0.0063380944
0 0.00034851304 -0.0063247001
0.0048366804 -0.0025399644 -0.0063131745
0.0037513825 0.0029140527 -0.0063049016
0.0026198309 -0.0029998799 -0.0062693516
0.0015654708 -0.0030770376 -0.0062373923
0 -0.00060068752 -0.0062329303
0 -2.8898687e-06 -0.0062254504
0.0038877781 0.0031180589 -0.0062204022
0.0014250303 -0.0031316867 -0.006214757
0.0040452634 -0.0031531733 -0.0062058573
0.0050000004 0.0019085342 -0.0061970158
0.00021664004 -0.0024971417 -0.0061734878
0 -0.00042836586 -0.0061717769
0.00044517295 -0.0030988653 -0.0061695119
0 0.0010519767 -0.0061529623
0.0037620706 -0.0033841492 -0.0061101858
0.00080887991 0.0034027458 -0.0061024837
0 0.00097072695 -0.0060737538
0.0050000004 -0.0018140689 -0.0060453112
0.00059841975 0.0036258067 -0.0059656561
0 -0.0019599949 -0.0059284456
0 -0.0021913464 -0.0059173894
0 -0.0011447771 -0.0058905133
0.0017575826 -0.0038563439 -0.0057887426
0 0.001492659 -0.0057863132
0.001965879 0.0038956015 -0.0057586157
0 -0.00098858308 -0.0057327864
0.0043435255 -0.0040009413 -0.0056777778
0 -0.0030002461 -0.0056752856
0.0041051679 0.0040003285 -0.0056782486
0 -0.0016571329 -0.0056445268
0.0050000004 0.0017810034 -0.0056186952
2.8422966e-05 0.0033181948 -0.0056123883
0.0034642164 0.0040878081 -0.0056111165
0.0002801978 0.0037368969 -0.0056057191
0.0014645109 -0.0041030906 -0.0055993889
0.00028567898 -0.0038182714 -0.0055501461
0 0.0027958313 -0.0055546132
0 -0.0026474148 -0.0055454187
0.0025506692 0.0041996511 -0.0055252877
0.0026676042 0.0042923088 -0.0054541822
0.0050000004 0.0023657654 -0.0054352107
0.0008007373 -0.0043258732 -0.005428425
0.0050000004 0.00029761947 -0.0054280125
0.00034243616 -0.004100577 -0.0054044332
0.0050000004 -0.0030153706 -0.005394815
0.0050000004 -1.3958097e-05 -0.0053843199
0 0.0024696749 -0.0053819614
0 0.00047603357 -0.0053707324
0.00040436024 0.0042447434 -0.0053711627
0.003788966 0.0043921378 -0.0053775739
0.00081918063 0.0044150306 -0.005360005
0.0016230515 -0.0044472027 -0.005335317
0.0050000004 -0.00070065859 -0.0053380551
0.0014167565 0.0044517945 -0.0053317933
0.0046859696 0.004501617 -0.0052935588
0.0018213509 -0.0045193434 -0.0052799559
0 -0.0021349732 -0.0052699363
0.0032626749 0.0045933025 -0.0052231997
0.0050000004 -0.0033477852 -0.0052187825
0.0048459149 -0.0044271541 -0.0051683607
0.0050000004 -0.0039007314 -0.0051659951
0.0050000004 0.0030672085 -0.0051556299
0.0050000004 0.0033800991 -0.0051398464
0.0041430863 0.0047492869 -0.0051034968
0.0050000004 -0.003892513 -0.0050905324
0.0049853218 0.0014051464 -0.0050897938
0.0005877798 0.0048043309 -0.0050612567
0.00064567261 0.0048025926 -0.0050625904
0.0029946843 0.0048094774 -0.005057307
0.0011523354 -0.0048359847 -0.005036965
0.0050000004 -0.0038667761 -0.0050301799
0.0050000004 -0.0035280008 -0.0050334311
0.0048088687 -0.00054340786 -0.0050373157
0.0049407752 -0.0015265222 -0.0049917139
0 -0.00044570866 -0.0049942657
0.0034726844 0.00018975376 -0.0049676942
0.0047524869 -0.0048532328 -0.0049581425
0.0048940224 -0.0015565968 -0.0049290839
0.003518447 0.00061638624 -0.0049188379
0 0.0017198621 -0.0049197506
0.0023873604 0.0049744858 -0.0049174018
0.0050000004 -0.0030566596 -0.0048880302
0 -0.0018917683 -0.0048847198
0.0050000004 0.002102315 -0.0048718704
0.0037790039 -0.0010321704 -0.0048640897
0.0037487794 0.0010325722 -0.0048640366
0 0.0029551021 -0.0048459731
0.0012611683 0.0050301584 -0.0048448555
0.0044496031 0.0050502596 -0.0048186616
0.00078042032 0.0050575263 -0.0048091915
0.0029049432 -0.0050668768 -0.0047970079
0.0031301624 0.00010170654 -0.0047997721
0 -0.0018882875 -0.0047720959
0.0013132019 0.0050940812 -0.0047615576
0.0038343575 -0.0016312099 -0.0046899649
0.0034274824 -0.0016301672 -0.004669548
0 0.001424806 -0.004664781
0.0037533054 -0.0051751868 -0.0046558683
0 -0.00047915013 -0.0046134936
0.00068002049 0.0052058357 -0.0046159304
0 -0.00097772817 -0.0046017896
0.003047447 -0.00052475493 -0.0046079592
1.883442e-05 -0.0046627871 -0.0045400937
0.0017299583 -0.0052944254 -0.0045004883
0.0024122593 -0.0052894405 -0.0045069838
0.003154651 0.0016849713 -0.0044934903
0.001387333 -0.0053279153 -0.0044568479
0.0050000004 0.0043414254 -0.0044106115
0.0030081174 0.00096526893 -0.004403227
0.0034196144 0.0022595492 -0.0044065886
0.004802566 -0.0052572601 -0.0043819118
0 -0.00029780285 -0.0043849465
0.0037669879 0.0023820226 -0.0043789684
0.0039584846 0.0053947042 -0.0043698144
0.004329531 -0.0024814333 -0.0043377914
0.0043594101 0.0025078736 -0.0043240581
0.0050000004 0.004580393 -0.0043254546
0.0050000004 0.0034640338 -0.0043036174
0.00057098968 0.0054542432 -0.0042922297
0.003 0.0012094832 -0.0042819516
0.0022615325 0.0054605943 -0.0042839539
0.0048066159 0.0053347182 -0.0042743599
0.00055547949 0.0054775388 -0.0042618732
0.00044850435 -0.0054148496 -0.0042597027
0.003 -8.9499605e-05 -0.0042599835
0.0030626045 -0.0020227369 -0.0042419103
0 -0.0021503135 -0.0042272876
0 -0.0016950715 -0.0041545932
0.0041092625 0.0027504466 -0.0041379184
0.0032227847 -0.0026254721 -0.0041161194
0.0011754765 0.005603747 -0.0040974105
0.0012667101 -0.0056187352 -0.0040778802
0.0050000004 0.0051168408 -0.0040552691
0.00026816537 0.005343962 -0.0040583974
0 0.0041278712 -0.0040166378
0.0042453306 -0.0056754821 -0.0040039332
0.003 -0.00069419126 -0.0040020263
0 -0.0039366139 -0.0039869472
0 -0.0011891645 -0.0039814687
0.003 -0.00063846604 -0.0039895992
0.0037787401 -0.0030476956 -0.0039098216
0.0046971487 -0.0030681493 -0.0038941258
0.0032083795 0.0029053804 -0.0038833537
0.0030062022 0.0023522775 -0.003847548
0.0002443855 0.0054805484 -0.003841687
0.003 -0.00052572344 -0.0038257409
0.0050000004 0.0049321097 -0.0038223481
0.0031421788 0.0058090994 -0.0038298164
0.0050000004 -0.0051065437 -0.0038183965
0.0035563747 -0.0031733329 -0.0038134123
0.003 -0.001058792 -0.0038010236
0 -0.0049361996 -0.0037937381
8.4143852e-05 0.0053162151 -0.0037948978
0.00057016243 -0.0058581061 -0.0037659551
0.0033615788 0.0058663292 -0.0037552407
0.0042511187 -0.0032580912 -0.0037483727
0.003 0.00037847116 -0.0037398783
0 0.001966971 -0.0037295616
0.00073146896 0.0058866441 -0.0037287672
0.00084335916 -0.0059146043 -0.0036923327
0 0.0034473496 -0.0036832909
0 -0.0041547837 -0.0036646873
0.0030473419 -0.0028383061 -0.0036664649
0.0016855816 -0.0059405039 -0.0036585827
0.0034366194 0.0033488881 -0.0036574861
0 -0.0036851112 -0.0036207309
0.0038265225 0.0034150379 -0.003627938
0.00050723983 0.0059644771 -0.0036273433
0.0040745223 0.0034577223 -0.0035951838
0 -0.00277347 -0.0035778354
0.0013479933 -0.0060117077 -0.0035657976
0.00030495561 0.0058000204 -0.0035240196
0.00037893283 0.0058979508 -0.0035168775
0.0050000004 -0.0056820335 -0.0034931477
0 0.00079546421 -0.0034872305
0.0034197622 0.0035465632 -0.0034861185
0 -0.004753036 -0.0034687608
0.003 0.0015587932 -0.0034581353
0.0050000004 -0.0045642643 -0.0034491692
0.0047438727 -0.0060501113 -0.0034155229
0 -0.00056875875 -0.0034138204
0 -0.0054336172 -0.0033771142
0.002434127 0.0061302674 -0.0033356678
0.0013132563 -0.00613828 -0.0033163223
0 -0.005088564 -0.0033030461
0.0050000004 -0.0049822466 -0.0033045136
0.0030000005 0.00078298734 -0.003284761
0.0043924577 0.0037300931 -0.0032819123
0 -0.0027038988 -0.0032610295
0 0.00082979351 -0.0032611352
0.0050000004 0.00414193 -0.0032518827
0.0050000004 -0.0050674528 -0.0032463593
0.003 -0.0010037149 -0.0032357641
0.003 0.00067868206 -0.0032367946
0.003 -0.0028746536 -0.0032205433
0.003 0.0014948259 -0.0032219843
0.0016662168 -0.0061877039 -0.0031970008
0.0028391038 -0.006187031 -0.0031986255
0.0044938913 -0.0037971633 -0.0031945091
0 0.0048614689 -0.0031813937
0.0022349814 -0.006202017 -0.0031624441
0.0027897528 -0.0062015885 -0.00316348
0.0050000004 0.0057726172 -0.0031688863
0.0040698308 0.0038474591 -0.003128964
0 0.0054573538 -0.0030934294
0 -0.0048962352 -0.0030895763
0.003 0.0028250632 -0.0030157201
0.00055756688 0.0062639536 -0.003012913
0.0016863755 -0.0062738727 -0.0029889662
0.0036190888 -0.0039559407 -0.0029875939
0.003 9.2350427e-05 -0.0029646931
0 -0.00075793901 -0.0029534122
0 -0.0020337519 -0.0029316896
0.002015894 0.0062990231 -0.002928247
0.0028209146 0.0063015628 -0.0029221154
0.0034396448 0.0063057123 -0.0029120964
0.001392761 -0.0063083768 -0.002905665
0 -0.0038747708 -0.0029024577
3.217654e-05 -0.0058130915 -0.0028893794
0.0045586741 -0.0063214479 -0.0028741064
0.003 -0.0019180748 -0.0028559794
0 -0.0022802521 -0.0028498753
0.0044444539 -0.0063384222 -0.0028331256
0.003 0.00057523313 -0.0028389627
0 0.0038977868 -0.0028305971
0 -0.0042660222 -0.0028271982
0.003257961 -0.004021727 -0.0027962944
0.0030581341 -0.0037781289 -0.0027583705
0 -0.0035370921 -0.002754342
0.00046904001 0.0063390983 -0.0027512764
0.0050000004 -0.0046271025 -0.0027467464
0.003 -0.0010728546 -0.0027324583
0.00052814273 -0.0063994247 -0.0026858479
0.0028699201 -0.0064054495 -0.0026713035
0 0.0027810186 -0.002666296
0.0047468767 -0.006372516 -0.0026293683
0.003 0.0004041905 -0.0026204924
0.003 -0.002776542 -0.0026077956
0 -0.0015422982 -0.0025900903
0.00017675586 0.0060884887 -0.0025990317
0.0050000004 -0.0053566466 -0.0025806271
0.0030615567 -0.0039327419 -0.0025776478
0.003 0.00025016314 -0.002576442
0 0.0049652732 -0.002565685
0.003 0.00060960808 -0.0025473658
0 0.0045291046 -0.002548842
0 -0.0020008748 -0.0025283324
0.0018401049 0.0064664427 -0.0025240479
0.0035333564 -0.0064690877 -0.0025176641
7.8655517e-05 -0.0060184966 -0.0025138729
0 -0.0038886641 -0.0025145162
0.0017356691 -0.0064771101 -0.002498294
0.0028607461 -0.0064793332 -0.0024929282
0.0010379888 0.0064868815 -0.0024747048
0 0.0051406785 -0.0024622027
0 -0.0043229568 -0.002442396
0 0.005050512 -0.0024484717
0.0043204622 0.0043568271 -0.002435477
0 -0.0021766536 -0.002427055
0.003 -0.0013284545 -0.0024023938
0.003 0.00017379691 -0.0023819238
0 0.002478942 -0.0023852524
0.0050000004 0.005541374 -0.0023857534
0 0.0040554726 -0.0023606601
0 -0.0021061031 -0.0023467108
0.0025524078 0.006540224 -0.0023459212
0.0050000004 -0.0052883704 -0.0023381896
0.003 -0.0016692959 -0.0023083535
0 -0.00029983511 -0.002290844
0.0050000004 0.0059504439 -0.002290406
0.0037402613 0.00442264 -0.0022765889
0.003 -0.00086078461 -0.0022610412
0 -0.0033118229 -0.0022466565
0.0050000004 0.0060109552 -0.002224663
0.0020802489 0.00037932923 -0.0022000351
0.0015198442 0.00038361532 -0.0021994705
0.001566255 0.00054715393 -0.0021779295
0.003 0.0026577488 -0.0021772548
0.0045225867 -0.0044678575 -0.0021674244
0 0.0040994626 -0.0021697236
0.0029223617 -0.00064969348 -0.0021453965
0.0026146341 -0.00067366031 -0.0021354733
0 -0.0023242126 -0.0021150892
0.0015400863 0.0066378624 -0.0021101951
0.0021485977 0.00077580375 -0.0020931817
0.0021671434 0.00079983653 -0.002083231
0.001234847 0.00084615219 -0.0020640546
0.0048098164 -0.0046392088 -0.0020382581
0.0036109688 0.0045223115 -0.0020359606
0.004985963 -0.0048330864 -0.0020265444
0.0020014264 -0.00099159789 -0.0020038344
0.003 0.0012070509 -0.001993648
0.003940193 0.0067032757 -0.0019522706
0.0012210284 -0.0067072017 -0.0019427924
0.0050000004 0.0058801286 -0.0019180255
0.0050000004 0.0054948041 -0.0019079937
0.0036794476 -0.0067274515 -0.0018939031
0.0036914342 -0.0045841765 -0.0018866069
0.00074293418 0.0012552593 -0.0018486417
0.0022036191 0.0012678443 -0.0018389841
9.3740518e-06 -0.0062301657 -0.0018232912
0.003 -0.0019232577 -0.0018228026
0.0040594451 -0.0046231039 -0.0017926265
0 -0.004652855 -0.0017436908
0.00026500985 0.0013952604 -0.0017412072
0 -0.0040885117 -0.0017289956
0.00033647098 -0.0014235263 -0.0017195166
0.0025406773 0.0014470326 -0.0017014781
0.0029796315 0.0014526461 -0.0016971705
0.003 0.0022885716 -0.0016962672
0.00031731266 -0.0014642604 -0.0016882578
0 0.0043119853 -0.00166691
0 0.0049303384 -0.0016658488
0.0050000004 -0.0061356933 -0.0016556052
0.0037627961 -0.0046889568 -0.0016336429
0 0.0057551037 -0.0016322414
0.00469823 0.00470345 -0.0015986542
0.0012371303 0.0067920364 -0.0015797396
0.0048224265 -0.0048552249 -0.0015494188
0 -0.0044185612 -0.0015489827
0.0038854864 0.004728213 -0.0015388697
0.0027396432 -0.006800361 -0.0015165033
0.003 0.0042081806 -0.0014965003
0 0.0026749261 -0.0014827817
0.00058403099 0.0016850316 -0.0014684646
0.0025555757 -0.0017136228 -0.0014312067
0.0027031575 0.001711783 -0.0014336038
0.0050000004 0.0061461898 -0.0014310618
0.0050000004 -0.0052434774 -0.00138266
0.0039721914 -0.0068266941 -0.0013164725
0.0026688667 -0.0068279775 -0.0013067239
0.003 -0.0027254391 -0.0012937218
0.0019077463 0.0018274322 -0.0012828979
0.00045777764 0.0018337935 -0.0012746083
0.0010814584 0.0018434173 -0.0012620674
0.0015048226 0.0018500965 -0.0012533632
0.0021150401 0.0068351636 -0.0012521331
0.0021295624 0.0018676444 -0.0012304962
0.00046870962 0.0068065589 -0.0012317337
0 0.0056622559 -0.0012175634
7.1851914e-06 0.0063465787 -0.001219815
0.00060564297 -0.0019116817 -0.0011731095
0.00018216777 0.0019124124 -0.0011721575
0.0035877363 0.0068450766 -0.0011768338
0.0030034313 -0.0043616556 -0.0011483259
0.0020972153 0.0068487045 -0.001149276
0 -0.0055288011 -0.0011205469
0.0048382226 -0.0049902215 -0.0011240557
0.0027536848 -0.0019548088 -0.0011100047
0 -0.0050556785 -0.0011075287
0.0047389325 0.006816675 -0.0010968407
0 0.004456826 -0.0010809186
0.0033679858 0.0048233634 -0.0010728628
0.0013058059 0.0068584778 -0.0010750359
0 -0.0027606201 -0.0010678661
0.00066252594 0.0068594664 -0.0010675254
0.001677426 -0.0068630134 -0.0010405856
0.0045724912 0.0068618776 -0.0010492068
0.00033023642 0.0019866368 -0.0010331334
0.0049284394 -0.0050930525 -0.0010282983
0 0.0035247044 -0.0010211444
0 0.0024521619 -0.00101443
0.0011000956 -0.001997601 -0.0010066521
0.0040632421 0.0068684127 -0.00099956745
0 -0.005385912 -0.00098154345
0.003 0.0030808195 -0.0009726134
0.0045174072 -0.0048761666 -0.00094044756
0.00021182383 -0.0065889321 -0.00093337038
0.0011897265 0.0020272881 -0.00093495159
0.00043255126 -0.0020315882 -0.00092456571
0.0047656782 0.0049457247 -0.00091098604
0 -0.003828539 -0.00090962654
0.0016583024 -0.0020405764 -0.00090285757
0.0030027393 0.0043906826 -0.00090820238
0.0016174591 -0.002047691 -0.00088567403
0.0049835797 -0.005170987 -0.00085517461
0.003 0.0034588634 -0.00085300882
0.0050000004 -0.0060864105 -0.00084106543
0.0026752723 0.0020766435 -0.00081574719
0.0050000004 0.0055598384 -0.0008086391
0.0019754106 -0.0068969829 -0.0007825417
0.0049216817 -0.0066744015 -0.00078932539
0.003 -0.002114363 -0.00077421177
0 -0.006333617 -0.00076017051
0.0026111561 -0.0020980935 -0.00076394028
0.0033930966 -0.0048751864 -0.00073031517
0.004311434 0.0049033859 -0.00073373731
0 -0.004362179 -0.00069788413
0 -0.00444709 -0.00068755558
0 -0.005763351 -0.000677843
0.0042952728 0.0049106576 -0.00067850796
0.004672227 0.0069114552 -0.00067260885
0.003 -0.0030896682 -0.00066966168
0.00022883889 0.0021532585 -0.00063070527
0.003 -0.0028021922 -0.00062640099
0.00071171153 -0.0069196247 -0.00061055541
0 0.0022591499 -0.00059821288
0.0050000004 -0.0053224405 -0.0005854842
0.003 -0.0038540179 -0.00058701722
0.0027691659 0.0021725995 -0.00058399217
0 -0.0043912898 -0.00054995134
0.003 -0.0033293488 -0.00053567387
0.002050211 0.0069303946 -0.00052874041
0.0022889154 0.0021821291 -0.00051527156
0 0.0030070366 -0.00050155091
0.0021716575 -0.0069376971 -0.00047326638
0.0050000004 0.0059245396 -0.00047466459
0.0042916508 0.0049384022 -0.00046780275
0.0014803781 -0.0021895203 -0.00045915792
0.0011730402 -0.0021946307 -0.00042035902
0.0038327673 0.0069434885 -0.00042927658
0.0020741154 0.0021954968 -0.00041378388
0.0050000004 -0.0065626623 -0.00040162983
0.001713952 0.0021999148 -0.00038024309
0.0033657451 0.0069491323 -0.00038640277
0 -0.0035942758 -0.00036717535
0.003 -0.004416856 -0.00033825712
0.00025190788 0.0022069565 -0.000326785
0 -0.0022647502 -0.0002716922
0.0049874764 -0.0066780774 -0.00026163994
0.0050000004 -0.0052761366 -0.00024400551
0 -0.0057040877 -0.00023873667
0 0.0059419372 -0.00022869385
0.0021161751 -0.0022217524 -0.00021445307
0.0050000004 -0.0066031041 -0.00020718748
0.002886038 -0.0022229354 -0.00020547271
0.0024862939 0.0022242574 -0.00019543774
0 -0.0038809588 -0.00016332722
0.004550247 0.0069777058 -0.00016935749
0.0020888981 -0.0022293339 -0.00015689741
0 0.0050938721 -0.00015614141
0.0050000004 0.005283474 -0.00015147743
0.0025486269 -0.0069811302 -0.00014333853
0.0018000754 0.0069811274 -0.00014336122
0.0038531756 -0.004982322 -0.0001342592
0.0048656058 0.0051476392 -0.00013644894
0.0050000004 -0.0056997673 -0.00012006606
0.0030544223 -0.0046888962 -0.00010766884
0.0029566775 -0.0069889538 -8.3911938e-05
0.003 0.003871588 -5.1936273e-05
0.0006149098 -0.006995033 -3.7732159e-05
0.0014574116 -0.0022499186 -6.1915216e-07
0.0049813362 0.0052807839 -4.1947219e-06
6.4518565e-05 0.0065624113 1.600947e-05
0.0032801866 0.0049332674 5.9410842e-05
0.0026145324 0.0022370152 9.8581877e-05
0.0049993428 -0.005282694 0.00012644962
0 -0.0031210692 0.00015764571
0.0030502283 -0.0046662423 0.00016089219
0.0022307171 0.0022262952 0.00017996608
0.0049750865 0.0052497638 0.00019232331
0.0049290429 0.0052020848 0.00020473561
0 -0.0027935039 0.0002459345
0.0043703616 0.0049669258 0.00025118332
0.00074375991 0.006966521 0.00025431288
0.0035838634 0.0069646253 0.00026871625
0.00075726502 0.0069633462 0.00027843358
0.0036585014 0.0069637718 0.00027520262
0.0050000004 -0.0057568792 0.00028636708
0 -0.0057034772 0.00032556523
0.003 -0.0032735884 0.00035773244
0.0050000004 -0.0066367509 0.00036512906
0.0044011311 -0.0049498565 0.00038081559
0 -0.0052524242 0.00040197457
0.0013869146 0.0069454364 0.000414482
0.0048625451 0.0051033888 0.00044926046
0 0.0056864889 0.00044023711
0.0012418884 0.0069386391 0.00046611429
0 -0.0034462416 0.00047721073
0.0045814286 -0.0069335648 0.00050465949
0.003050731 -0.0046221078 0.00051033834
0 0.005214937 0.00054577581
0.00018989884 0.0066186222 0.00054143445
0.0045396159 -0.006923737 0.00057931803
0 -0.0026969677 0.00063897687
0.00017998867 0.002145339 0.00064983155
0 0.0035129085 0.00070618291
0.0050000004 0.0052306196 0.00073197053
0 -0.0047362493 0.00075477903
0.0012646258 0.002075173 0.00081929856
0.0022092357 0.0020716186 0.0008278836
0 0.0041091652 0.00089564756
0.00039578383 -0.0020220643 0.0009475681
0 -0.0049751028 0.0009627635
0.003 0.0024007463 0.00098739809
0.0021166906 -0.0068690744 0.00099454238
0.00092356745 0.0019970906 0.0010078849
0 0.0043872446 0.0010196269
0.0001551085 -0.006517645 0.001044127
0.0050000004 -0.0058611226 0.0010715423
0 -0.0024121366 0.0010942123
0.00015082634 0.0065068235 0.0010937934
0.00078356592 0.0068554594 0.0010979688
0.0010360477 -0.0068548946 0.0011022566
0.0044579073 -0.0068529621 0.0011169369
0.0022561327 0.0068538729 0.0011100137
0.0048524644 -0.0066991476 0.0011271759
0 0.0019484399 0.0011595959
0 0.0038976802 0.0011713682
0 -0.0047037546 0.0012000765
0.0050000004 -0.0055031315 0.0012129131
0.0040357565 0.0048398781 0.0012160436
0.003 0.0024064421 0.0012283782
0 0.0061138012 0.0012480028
0 0.0042683156 0.0012660845
0.003 -0.0040012579 0.0013364187
0.0043019573 0.0048088813 0.0013441197
0.002565603 -0.006820702 0.0013619903
0.0029103083 0.006820302 0.0013650294
0.0040932577 0.0047919685 0.0013849509
0.002771626 -0.0068166242 0.0013929682
0.0013970848 -0.0017263413 0.0014146328
0 -0.0043940768 0.0014392526
0.003 0.0026388736 0.0014462419
0.0029476115 -0.001696643 0.0014533334
0.00053227728 -0.0016819488 0.0014724821
0.0017419879 0.001656645 0.001505456
0 -0.0052278945 0.0015181365
0.0027771504 -0.0016527034 0.0015105928
0.0050000004 0.005814868 0.0015158114
0 0.0044293408 0.001526099
0 -0.0021368091 0.0015356197
0 0.0049647545 0.00153299
0.003114956 -0.0045021116 0.0015612844
0.0022860514 -0.0067928866 0.0015732815
0.00019349568 -0.0015874336 0.001593737
0.0043713227 0.0047020949 0.0016019259
0.0024388086 0.0067892503 0.0016009036
0.0022818828 -0.006787343 0.0016153927
0.0024086053 0.0015322543 0.0016360807
0.0040620756 -0.0046819109 0.001650654
0.0031241355 -0.004472706 0.0016560699
0.0050000004 -0.005998455 0.0016671009
0.0018420076 0.0014985834 0.0016619189
0.00074006885 -0.0067788144 0.0016801821
0.0046650325 -0.0067782598 0.0016843909
0.00012889704 -0.0064076078 0.0016807735
0.003 0.0035789958 0.0016931724
0 -0.0037171168 0.001735077
0 0.0035545032 0.001744172
0.0050000004 0.0052985698 0.0017432881
0 -0.006179675 0.0017542612
0.0041926987 0.0046337373 0.001766955
0.003 -0.0036324589 0.0017938672
0.003 -0.0027069021 0.0017991521
0.00035112657 0.0013141209 0.0018034722
0.0045590978 0.006761366 0.0018120235
0.0015241409 -0.0012868362 0.0018244101
0.0037113423 0.0067558531 0.0018253343
0.0031537125 0.0067532142 0.0018317048
0.003229016 0.0067449422 0.0018516765
3.4950139e-05 -0.0062355776 0.0018764948
0.003 -0.0040023844 0.0018919462
0 -0.0057844254 0.0019078187
0.0023418374 -0.001185027 0.0019025367
0.003 -0.0029983236 0.001913
0.0021841226 -0.001147074 0.0019316609
0 -0.0054969159 0.0019403026
0.0024386407 0.0011283077 0.001946062
0.0019300381 0.0010904844 0.0019628908
0 0.0036655809 0.0019605672
0.003 -0.0030437463 0.0019745606
0.0013064857 0.006686918 0.0019917625
0 -0.0057928972 0.0020045305
0.0019755391 0.0066818423 0.0020040167
0.003 0.0025511226 0.0020185534
0.0050000004 0.0062826304 0.0020105552
0.00022729083 -0.00090359739 0.00204027
0.0009361023 0.00088514359 0.0020479106
0.0017108055 0.00089502888 0.0020438177
0 -0.0037430984 0.0020574371
0.00041823401 -0.00087166321 0.0020534922
0.003 0.0035722395 0.0020543362
0.0050000004 -0.005100023 0.002060466
0.0017776325 0.00083576492 0.0020683554
0.003 -0.0015335572 0.0020869069
0 0.0058044847 0.002086095
0.0030556747 -0.0041858759 0.0020910176
0 -0.0038102276 0.0021051846
0 -0.0032576914 0.0021282414
0.001381486 0.00068832049 0.0021294032
0.0036415211 -0.0066262069 0.0021383353
0 -0.0013080115 0.002138831
0.0013428221 -0.00067975512 0.0021329497
0.003 -0.0013157069 0.0021419805
0.0031748058 0.0043209498 0.0021537242
0.004470665 0.0044691763 0.00216424
0.0045138486 0.0066158525 0.0021633331
0.0046287687 0.0066142054 0.002167311
0 -0.0006918282 0.0021774864
0.0031567095 -0.0042902632 0.0021809381
0.00089242315 -0.00047803123 0.0021870343
0.0005484937 0.00052955881 0.0021802471
0.0023235825 0.0066060144 0.0021870856
0.0020617696 0.0004188274 0.0021948325
0.0016331385 0.00043931746 0.0021921336
0.00095243746 0.00032929075 0.0022066263
9.6419157e-05 0.00036529714 0.0022018834
0 0.003393271 0.0022196826
0.0019992189 -9.1719026e-05 0.002237919
0.0020082532 0.00014324729 0.0022311318
0.0050000004 -0.0049568224 0.0022426024
0.00040246628 -5.0782284e-05 0.0022433114
0.00081265968 1.6676973e-05 0.0022478034
0.003 0.00060299516 0.0022912575
0.003 -0.002885896 0.0023044434
0.003 0.0017318091 0.0023048106
0.0039153537 0.0065501835 0.0023218747
0.0034567576 0.0043765777 0.0023577816
0.0029844809 0.0065377303 0.0023519404
0.0047161672 -0.0065113092 0.0023738425
0 0.0028306085 0.0024280066
0 0.0042050811 0.0024262799
0.0040394128 -0.0064974111 0.0024492824
0 0.0054924702 0.0024598972
0.003 -4.2376141e-05 0.0024722645
0.0038514258 -0.0064770044 0.0024985506
0.003 0.0021665615 0.0025111514
0.0032250788 0.0064704465 0.0025143819
0.004907724 -0.0045391261 0.0025335185
0.0011774638 -0.006459679 0.0025403791
0.0032685841 0.0042142817 0.0025499573
0.00035123801 -0.00629364 0.0025558351
0.0039911745 -0.0042778896 0.0025680398
0.00024628534 0.0061784708 0.0025619194
0.0039310558 -0.0042731347 0.0025742357
0.0030000005 0.0029550903 0.0025700666
0.003 -0.001938363 0.002584876
0.0050000004 0.0061139218 0.0025878106
0 -0.0022432802 0.0026173927
0.003400641 -0.0042018858 0.0026237508
0 0.004861909 0.0026448474
0.00090741582 0.0064144987 0.0026494572
0 -0.0037988552 0.0026599565
0.00091312983 0.0063941111 0.0026986776
0.0033361348 -0.0040972205 0.0027320175
0 -0.0012406791 0.002735015
0.003 -0.0014215363 0.0027580888
0.003 -0.0002902229 0.0027869244
0.003 0.0020604334 0.0027842605
0 -0.0045457007 0.0028032938
0 -0.0035611915 0.0028029031
0.0040390855 -0.0040665432 0.0028434603
0 -0.0047743069 0.0028524953
0.0050000004 0.0045052338 0.0028704919
0 -0.00188913 0.0028801223
0 0.0048118229 0.0028854567
0.003 0.0011531597 0.0028985341
0.002053865 0.0063145952 0.0028906506
0.0050000004 -0.0054313261 0.0029176346
0 -0.0047375406 0.002931278
0.003 0.0030618496 0.0029394201
0 -0.0012252254 0.0029410063
0.0020782221 -0.0062872432 0.0029566851
0.003 0.00067448395 0.0029506919
0.003 -0.00082141155 0.0029785673
0.00071538612 -0.0062751058 0.0029859876
0.0031359098 -0.0062748776 0.0029865389
0 0.003846715 0.0030012454
0 -0.0004299412 0.0030287735
0.002475759 0.0062603937 0.0030215068
0.002285986 0.0062498339 0.0030470011
0.0034619095 0.0062524509 0.0030406842
0.003 0.0011622746 0.003057654
0 0.0015764656 0.0030760488
0.002609716 0.0062399423 0.0030708821
0.004478157 -0.0038722153 0.003096703
0 -0.0024637934 0.0030981305
0.0012668364 0.0062274267 0.0031010977
0.0019925337 0.0062220404 0.0031141024
0 0.001511879 0.00312296
0 0.0053724824 0.0031555048
0.00068983046 -0.006194104 0.0031815488
0 0.0046277344 0.0031962648
0.0050000004 -0.0051132785 0.0032197547
0 -0.0011526699 0.003223849
0.003 0.0019416532 0.0032312567
0.003 -0.0019509557 0.0032422889
0 0.0046795574 0.0032403513
0 -0.0048164958 0.0032595112
0 0.00085599552 0.0032544052
0.0022262416 0.006160744 0.0032620896
0.0050000004 -0.0054353722 0.0032719055
0.0012421671 -0.0061502154 0.0032875082
0.003 -0.00241584 0.0032854723
0 -0.0018349617 0.0033213461
0 0.00035233825 0.0033346349
0 -0.0030313777 0.003369903
0 -0.0026545383 0.0033670508
0 -0.0010740109 0.003365567
0.0050000004 -0.0054733315 0.0033880544
0.0031871991 -0.0061073219 0.0033910645
0 0.0028527533 0.003392989
0.0034932126 -0.0036126627 0.0034319861
0.0039273165 -0.0035828217 0.0034738318
0 0.0018085202 0.0034707608
0.0022989942 0.0060617123 0.0035006364
0.0017862405 -0.0060470859 0.0035196955
0.0042384989 -0.0060260394 0.0035471206
0.0050000004 0.005200855 0.0035437671
0.0014578424 -0.0060167974 0.0035591642
0.0043474217 -0.0034849679 0.0035742766
0 0.003001435 0.003570796
0.0031341219 0.0060024969 0.0035777991
0.002776067 -0.0059930687 0.0035900858
0.0018372666 -0.0059823687 0.0036040288
0 -0.0026094359 0.0036029383
0.0029162494 0.005985124 0.0036004391
0.0038240477 -0.0034281053 0.0036179107
0.001208451 -0.0059514074 0.0036443744
0.0038651158 0.0033990052 0.0036402412
0.0027184081 0.0059468369 0.0036503305
0.003 -0.0023390162 0.0036806609
0.0036810304 0.005910818 0.0036972668
0.0050000004 0.0054497467 0.0037100969
0.0027554405 -0.0058652647 0.0037566277
0.0018328599 -0.0058577224 0.003766455
0 -0.0029481594 0.0037615648
0.003 -0.0022461649 0.0037794497
0.0050000004 0.0050936397 0.0037789447
0.00053480052 0.0058446759 0.003783457
0 0.0010465768 0.0038030103
0.00086614932 0.0058246795 0.0038095133
0 -0.00082883157 0.0038105862
0.0032201461 0.0030058792 0.0038209544
0.0042446242 -0.0058015492 0.0038396541
0.0039507044 0.0031514061 0.0038302382
0 0.0025259787 0.003841474
0.0040443945 0.0031316474 0.0038454002
0 0.0039131194 0.0038536161
0.0032912469 0.0030105417 0.0038684942
0.003821068 -0.0030980578 0.0038711755
0.0038872699 0.0030937372 0.003874491
0 0.0045494665 0.0039054039
0.0019116268 -0.005740162 0.0039196485
0.0044238907 -0.0057427348 0.0039162962
0.0029999998 -0.00017829244 0.0039183116
0.0050000004 -0.0051794033 0.0039359881
0 0.0042568068 0.0039645908
0 -0.00065570686 0.0039998917
0 0.0023321167 0.0039988016
0.0050000004 0.0037754832 0.0039938986
0.0033088594 0.0056611197 0.004022649
0.0043334332 -0.0056500304 0.004037099
0.000649111 -0.0056449254 0.0040437519
0.00096120563 -0.0056476616 0.0040401863
0 -0.0010579058 0.0040478609
0.0050000004 0.0050451518 0.0040547755
0.003 0.00078352267 0.0040607397
0.0034953959 -0.002836681 0.0040702038
0 0.0034647689 0.0040723067
0.003 0.0012019199 0.0040868064
0 0.0025100226 0.0040842146
0 0.0023649102 0.0040939543
0.0037042282 0.0028063972 0.0040949844
0 0.0043091909 0.0041259206
0.001325328 0.0055807917 0.0041273236
0.003 -0.0014964335 0.0041594603
0 0.0028152287 0.0041722367
0.0030583993 0.0021262874 0.004182186
0 0.003050243 0.0041896012
0.0050000004 0.0032588611 0.0041882121
0 0.0019765173 0.0041958052
0.0043955748 0.0026235159 0.0042353193
0.0045033284 -0.0026048846 0.0042496161
0.0030238705 0.0016270827 0.004250735
0.0045405463 -0.0054661618 0.0042766985
0 0.0013538362 0.0042885351
0.0035482422 -0.005440556 0.0043100663
0.0018063032 0.0054346668 0.0043177395
0.0049219774 0.0051488434 0.0043287501
0.0039092945 0.0054314239 0.0043219654
0.0010688868 -0.0054050889 0.0043562823
0.0034195061 0.0054030125 0.0043589887
0.0050000004 -0.0034845152 0.0043847063
0 0.0031807462 0.0043928432
0.003011225 -0.0008805666 0.004425969
0.0031324688 0.0016966282 0.0044648517
0.0040013865 -0.0021002295 0.0044956906
0.0022999106 0.0052990504 0.0044944603
0.0031350094 0.0015943634 0.0045099361
0.0042229379 0.0052815285 0.0045172945
0 -0.0045385086 0.004522034
0.0050000004 -0.0027661133 0.0045266938
0 0.00048797968 0.0045231027
0.00047960761 -0.0052270624 0.0045550643
0 0.0032818276 0.0045733121
0.00040389725 0.0051058065 0.0045897937
0.0030291036 -0.00013774644 0.0045904554
0 0.0012653226 0.0045933658
0.0040154946 0.0052227061 0.004593946
0.0035426761 -0.0018363701 0.0046049845
0 0.00038677873 0.0046067662
0.0024306774 0.005209201 0.0046115438
0.0035704451 -0.0051842472 0.0046440619
4.6298377e-05 -0.0045757662 0.0046697301
0.0012951469 0.0051645585 0.0046697184
0 -0.0022411156 0.0046789069
0 -0.0024845917 0.0047176308
0.0043399916 0.0015603863 0.0047193011
0 0.0041432534 0.0047131549
0.0050000004 0.004641762 0.0047105397
0.0036883999 -0.0015014205 0.0047437255
0.0042788405 -0.0050983345 0.0047560148
0 -0.0030279756 0.0047688731
0.0050000004 0.0046408405 0.0047710645
0.0042840815 0.0050855507 0.0047726729
0 -0.0020829882 0.0047807759
0.0047062528 0.0013899343 0.0047966139
0.0031516468 -0.00023876417 0.0048032119
0.0032514143 0.00090991671 0.0048135822
0.0030235616 0.005045292 0.0048251338
0.0041308203 0.0012636259 0.0048336126
0 -0.0023050406 0.0048522842
0.0033759824 0.00082646648 0.0048579499
0.0039627636 -0.0010313935 0.0048641916
0.0050000004 0.0028157728 0.004860335
0 -0.001429568 0.0048873015
0.0034047558 0.00068688532 0.0048840377
0.0041485145 0.00080804923 0.0048936005
0.0039865463 -0.0049856878 0.0049028043
0.0034000631 0.00024493516 0.0049409699
0 0.0027371331 0.0049406146
0.00031177644 -0.0046188668 0.0049683759
0.0044195452 -0.00026490464 0.0049651186
0.004665493 -4.5862365e-05 0.0049939617
0.0015577278 0.0048931553 0.0049930923
0.0038269816 -0.0048734262 0.0050082328
0.00056338997 -0.0048689279 0.0050116857
0.0048950049 -0.0045498968 0.0050128405
0.0022128099 0.0048384364 0.0050350842
0.0050000004 -0.0036147831 0.0050409241
0.0012166458 0.0048227706 0.0050471062
0.0031569735 0.0048255869 0.0050449446
0 -0.0036043394 0.0050664181
0 -0.0030644413 0.0050685424
0 0.0021929347 0.0050810217
0.00291132 0.0047392431 0.0051112054
0.00086616009 -0.004724564 0.0051224702
0.0026063488 -0.0047070966 0.0051358743
0.00012215605 0.0040524364 0.0051661097
0.0050000004 0.0017698006 0.0051993462
0.0040605161 0.0046362323 0.0051902551
0.0050000004 0.00072127441 0.0052126627
0.0050000004 0.0024855805 0.0053180587
0.0021351341 -0.0044447766 0.0053371773
0.0049918215 -0.0039493018 0.0053527365
0.0050000004 0.0038259504 0.0053707566
0.0014784957 0.0043783779 0.0053881332
0.0050000004 -0.00091077783 0.0053930418
0.0049374048 0.0039135953 0.0054481295
0.0042629829 -0.0042912932 0.0054549612
0.00025863457 -0.00388423 0.0054657082
0.0017228494 0.0042841192 0.0054604667
0.0050000004 0.0026938168 0.0054956679
0.0041444171 0.0042057759 0.0055205883
0 -0.003244434 0.005543136
0.0039403802 0.0041736346 0.0055452529
0.001897512 -0.0041265097 0.0055814162
0.0031128284 0.0041167224 0.0055889273
0.0039981036 0.0041280058 0.0055802688
0.0027266315 0.004104089 0.0055986224
0 0.0025555936 0.0056063817
0.0034769713 0.0040947599 0.0056057819
0.0016407615 -0.0040530474 0.0056377915
0 0.0014098429 0.0056590559
0.004599479 -0.0039859661 0.0056892699
0.000269899 0.0035843367 0.0057099345
0.00036681219 -0.0037065612 0.00573724
0.00040922841 -0.0037695838 0.0057418845
0.0050000004 -0.0028652274 0.0057437201
0.0020477558 -0.0038357899 0.005804515
0.004692697 -0.0038295803 0.0058092806
0.002335682 0.0038028439 0.0058297981
0.0049892142 -0.0032768389 0.0058442787
0.001802896 -0.0037729829 0.0058527132
0.0035220007 0.0037168006 0.0058958274
0.004830068 0.0034958823 0.0059028151
0 0.0014084703 0.0059112883
0 0.002055496 0.00591926
0.00058268441 -0.003679089 0.0059247673
0.0050000004 0.00044669103 0.0059216209
0.0049004187 -0.0032396438 0.0059549715
0.0013490267 0.0036213205 0.0059690988
0.0020393524 -0.0036150485 0.0059739118
0 0.0020765874 0.0060082115
0 -9.6829053e-06 0.0060111503
0.00047522795 -0.0035102174 0.0060234023
0.0013692387 -0.0035407222 0.0060309502
0.0050000004 0.0020853116 0.006050433
0.0022730147 -0.0033418033 0.0061277258
0 0.0020244205 0.0061340909
0.0047177011 0.003246346 0.0061482685
0.0015706039 -0.0032876173 0.0061501698
0.0005491185 -0.0032124408 0.006181309
0.0038569989 -0.0031984819 0.0061870897
0.0005506461 0.003167093 0.0062000914
0.00053236389 0.0031344132 0.0062136278
0.0050000004 0.0014966034 0.0062357206
0.0033710618 -0.0030586077 0.0062450268
0 0.0008945454 0.0062746173
0.00029750995 0.002450302 0.0062796776
0.0008072629 -0.0029019632 0.0063099097
0.00029440128 -0.0023791185 0.0063058254
0.0028232776 -0.0028970318 0.0063119521
0.0041291388 -0.0028133676 0.0063466057
0.00031647721 -0.0023073598 0.0063592405
0.0011005016 -0.0027757506 0.0063621872
0.0019487364 -0.0027665086 0.0063660149
0.0046855067 -0.0027027747 0.0063924133
0.0037334322 0.0026910601 0.0063972669
0.0012750431 0.0026525415 0.0064132209
0.0033621481 -0.0025931278 0.0064378302
0.0017793506 0.0026020603 0.00643413
0.0050000004 -0.0011912127 0.0064416137
0.0030801033 0.0025874211 0.0064401939
3.1222495e-05 0.00054682442 0.006459225
0.0050000004 0.00093954091 0.006466371
0.00014741723 0.00099178485 0.0065168347
0.0022640796 -0.0022333635 0.0065868455
0.0042461022 0.0022432406 0.0065827551
0.00055086851 -0.0021507808 0.006621052
0.00061092689 -0.0021319939 0.0066288332
0.0048986124 -0.0013560563 0.0066228611
0.0032965154 0.0021141167 0.0066362382
0.0011963665 -0.0019640974 0.0066983765
0.0029543329 0.001861195 0.0067409994
0.0048740837 -0.00043264346 0.0067689572
0.0029232656 -0.0015874596 0.0067910207
0.0039789174 0.0015765677 0.006792454
0.0041113324 0.0015776282 0.0067923144
0.0023098656 0.0014537402 0.0068086237
0.00070631009 0.0014824708 0.006804842
0.0017039505 0.0013115495 0.0068273428
0.00078238221 0.0013454858 0.0068228748
0.0023331519 -0.0011610172 0.006847159
0.0028458063 -0.0011581376 0.0068475385
0.0017812259 0.0012049263 0.0068413788
0.0034828847 -0.0010669318 0.0068595442
0.0048141377 0.00025336075 0.006852509
0.0047654542 -0.00050987408 0.0068674204
0.0010053492 -0.00098200503 0.0068707252
0.0024603326 -0.00096062798 0.0068735392
0.0046812468 -0.0009339758 0.0068770475
0.0043391781 0.00094156072 0.0068760496
0.002903986 -0.00088947173 0.0068829064
0.0035232727 -0.00072588597 0.0069044419
0.0016157144 0.00026638227 0.0069649322
0.0019560682 8.8977016e-05 0.006988287
0.0041944063 -6.1578867e-05 0.0069918935
0.004071333 6.7978217e-05 0.0069910516
