# .PCD v0.7 - Point Cloud Data file format
VERSION 0.7
FIELDS x y z
SIZE 4 4 4
TYPE F F F
COUNT 1 1 1
WIDTH 1000
HEIGHT 1
VIEWPOINT 0 0 0 1 0 0 0
POINTS 1000
DATA ascii
0.0022231089 0.00031964024 -0.0084579242
0.0034153066 -0.0006128223 -0.0084193312
0.0035754396 9.1839058e-05 -0.008412471
0.00338544 -0.00070348231 -0.0084073963
0.00063895003 0.00081127253 -0.0083932066
0.0026148038 0.00111439 -0.008353306
0.001654779 -0.0012077014 -0.0083410228
0.0024461353 0.0012497376 -0.0083354898
0.0033270768 -0.0013563286 -0.0083214575
0.00088289124 -0.0013385019 -0.0083238045
0.0025073572 0.0013397709 -0.0083236378
0.0015110205 0.001347689 -0.0083225947
0.0026161748 0.0013897709 -0.0083170552
0.0033860379 0.0014236998 -0.0083125895
0.0025888979 0.0016072231 -0.0082884319
0.0023059589 0.0016252995 -0.0082860515
0.0021225899 -0.0016915215 -0.0082773343
0.001775751 -0.001910481 -0.0082485108
0.0006714777 -0.0020402935 -0.0082314229
0.0034750232 -0.0020454046 -0.0082307504
0.0020366954 0.0020259407 -0.0082333134
0.0034179215 0.0021541812 -0.0082164314
0.0019574116 0.0021976614 -0.0082107084
0.00041335609 0.0015762079 -0.0082058646
0.0036860006 -0.0010699345 -0.0081731444
0.0024936784 -0.0023104735 -0.0081646368
0.0037138069 0.0012415531 -0.0081227589
0.0010384101 0.0024013119 -0.0081270086
0.00023369343 -0.0012526113 -0.0080688
0.00037850568 0.0022625001 -0.0080541233
0.0039549419 -4.5386928e-06 -0.0080444608
0.0038098847 0.0011657901 -0.0080366498
0.00026662418 0.0017811368 -0.0080321468
0.0010998155 0.002636963 -0.0080293911
0.0038581202 0.0011648259 -0.0079885377
0.0035291666 -0.0028159672 -0.0079239402
0.0010979747 0.0029090021 -0.007916701
0 -0.00042018804 -0.0078918925
0.0010355233 0.0029757652 -0.0078890445
0.0026666829 0.0030572095 -0.0078553073
0.0010804099 -0.0031132514 -0.0078320904
0 0.0010242691 -0.0078288345
0 -0.0013922037 -0.0077915015
0.0021927999 0.0032437646 -0.0077780276
0.00052010186 0.0032614251 -0.007770712
0.0016329426 -0.0032966067 -0.0077561373
0.0037923853 0.0025450799 -0.0077536725
0.0016849925 0.0033155247 -0.0077483011
0.0039727627 0.0021309606 -0.0077316281
0.0016121727 0.0034210354 -0.0077045942
0.0017204884 -0.003448185 -0.0076933475
0 0.00041604677 -0.0076912311
0.0030674487 0.0034928783 -0.0076748338
0.0011376864 0.0035283356 -0.0076601459
6.2930827e-05 -0.0024278236 -0.0076469677
0.003104216 -0.0035797665 -0.00763884
0.0039999997 -0.0022067425 -0.0075890897
0 0.00026076508 -0.0075868065
0 -0.0011591018 -0.0075777574
0.0039999997 0.001680252 -0.0075356318
0 8.4990388e-05 -0.0074944831
0.0018929358 0.0039842906 -0.0074712685
0.0010808974 0.0040269718 -0.0074535888
0.0039999997 -0.0017776554 -0.0074316352
0.0039810478 0.0028652635 -0.0074185729
0.0039900718 0.0029240185 -0.0073845503
0.0039999997 0.0024024374 -0.0073702447
0.00087762804 -0.0042977966 -0.0073245247
0 0.002595562 -0.0073225019
0.00014123517 0.0034525392 -0.0073065441
0.0011057095 0.0043298998 -0.0072998912
0.0039999997 -0.0019759119 -0.0072857328
0.0039999997 0.00074336305 -0.0072526
0 -0.00066667155 -0.0072389352
0 0.001260173 -0.0072295838
0.001346844 0.0044425707 -0.0072134365
0.0039999997 -0.0020543572 -0.0072093252
0 0.0033107698 -0.0071876221
0.00012466047 0.0037104003 -0.0071819415
0.00074525655 0.0044835536 -0.0071819886
0.0016923089 -0.0044861641 -0.0071799853
0.0032692864 -0.0045623402 -0.0071215332
0.0032771502 -0.004553753 -0.0071281227
0.00048382569 -0.0045376029 -0.0071203047
0.00055011595 0.0045729559 -0.0071133883
0 -0.00047305351 -0.0070844502
0 0.0022246009 -0.0070709824
0.0039999997 -0.00032481158 -0.0070393775
0.0024663832 -0.0046876017 -0.0070254174
0.0037953439 -0.0042111981 -0.0070218984
0.0034476116 -0.0047700601 -0.0069621443
0 -0.0019043584 -0.0069606346
0.0039999997 0.0011736506 -0.0069529745
0.00039458563 -0.0046489164 -0.0069233864
0 -0.0022516185 -0.0069286302
0 0.0039434694 -0.0069268518
0.0031752358 0.0048619364 -0.0068916464
0.0038043114 -0.0044041537 -0.0068626422
0.0018970845 -0.0049162596 -0.0068499618
0.00104765 0.0049517318 -0.0068227439
0.0039999997 -0.0037447263 -0.0068044844
0.0039999997 0.0020268394 -0.0067846165
0 0.0030802621 -0.006782352
0 0.0032506003 -0.0066795163
0 0.0026122865 -0.0066544563
0.0017280144 -0.0052090432 -0.0066253017
0 -0.0042410395 -0.0066130413
0 -0.00082933309 -0.0065350593
0 0.00027319242 -0.0065343506
0 -0.0013852449 -0.0064873355
0.0023747638 -0.0054126098 -0.0064690998
0.0039999997 0.0029864707 -0.0064692162
0.0011338091 0.0054119192 -0.0064696292
0.0013785416 0.0054649138 -0.0064289663
0.0018658997 0.0054728021 -0.0064229136
0 0.0040264279 -0.0064103357
0.0023821429 -0.0055477521 -0.0063654017
0.0039999997 -0.001913743 -0.0063434499
0 -0.0018345256 -0.0063362536
0 -0.0014636379 -0.0063334247
0 0.00093011226 -0.0063355793
0.0039999997 0.0027510696 -0.0063356222
0.0039999997 0.0035378004 -0.0063393046
0 0.0045039365 -0.0063217594
0.0039999997 -0.0010498286 -0.006299804
0.0039999997 -0.0025012915 -0.0062649404
0 -0.0044132364 -0.0062333099
0.0039999997 -0.0029111612 -0.0062236101
0.0039999997 0.0017113499 -0.0062199053
0.0039999997 -0.0030830004 -0.0061631417
0 0.0044772215 -0.0061647738
0.0022178164 0.0058249831 -0.0061526755
0.0039999997 -0.0015468126 -0.0060700108
0.0039999997 -0.00067617447 -0.0060324692
0.0033065041 -0.0060207383 -0.0059969276
0 -0.0016298036 -0.0059952289
0.0038872983 0.0054007526 -0.0059942529
0.0015324539 -0.0060352781 -0.0059779789
0 -0.0031033256 -0.0059793964
0.0039999997 -0.0014658846 -0.0059761805
0.0039999997 0.0049419436 -0.0059324689
0 0.0045948601 -0.0059067938
0.0039999997 -0.0017531593 -0.0058963057
0.0039999997 0.0026674022 -0.0058702766
0.0038219511 -0.0056779408 -0.005863226
0.0039999997 -0.0041461512 -0.0058599557
0 0.00034281984 -0.0058276309
0.0039999997 -0.00012493829 -0.0058122068
0.0039999997 -0.0022707239 -0.0057806685
0.0039999997 -0.0028849558 -0.0057624113
0 0.00062024622 -0.0057584369
0.0039999997 0.0021334242 -0.0057577025
0.0039999997 -0.0037231054 -0.0057443706
0.0012955441 -0.0062317858 -0.0057218838
0.0039999997 0.0020915929 -0.0057278285
0.0039999997 0.0052966899 -0.0057231849
0.0022519687 0.0062621427 -0.0056823227
0 0.0031577707 -0.0056489357
0.0015446015 -0.0063067488 -0.0056241909
0 -0.0027748437 -0.0056276298
0 -0.0021840516 -0.0056198342
0.0039999997 0.0056645153 -0.0056120856
0 9.6359021e-05 -0.0055912496
0.0038649801 -0.0058842092 -0.0055805175
0.0039999997 -0.0040596058 -0.0055899443
0.0039999997 0.0043816585 -0.0055712424
0.0026017267 0.0063424343 -0.0055776848
0.0039999997 0.00086765224 -0.005541116
0.0039999997 0.0053438353 -0.0055050645
0.0039999997 0.0029549748 -0.0054824576
0 0.001815749 -0.0053714775
0 -0.005467922 -0.0053522666
0 0.0056977444 -0.0053404397
0.0013905778 0.0065352316 -0.0053264252
0.0039999997 0.0010194763 -0.0053170007
0.0039999997 0.00077626418 -0.0052797277
0.0039999997 0.0053545851 -0.005261811
0.0018686418 -0.0065898271 -0.0052552749
0 -0.0011964506 -0.0052567301
0.0039999997 0.005222491 -0.0052151047
0.0039999997 1.1863709e-05 -0.0052037691
0 -0.005129491 -0.0051914593
0.0039999997 -0.0058657355 -0.0051486059
0.00022089045 -0.0063904529 -0.0050605605
0.0038662215 -0.0062885364 -0.0050515318
0 0.0047913939 -0.0050533046
0.0039999997 0.0042559337 -0.0050087404
0.0032851875 0.0067799315 -0.0050075259
0.00014078831 -6.6272078e-05 -0.0049912739
0.0023054094 -2.7867345e-05 -0.0049963305
0.0039999997 -0.0036401059 -0.0049856333
0.0039250073 0.0001143824 -0.0049849395
0.0020655873 -0.00030756378 -0.0049595013
0.00060864352 0.00035365272 -0.0049534333
0 0.0042050118 -0.0049543572
0.002803538 0.00038073343 -0.0049498673
0.0033707558 0.00066964095 -0.0049118255
0.0039999997 -0.0053026765 -0.0049072644
0.0038623267 0.0007273911 -0.0049042213
0.0024937654 0.00087762653 -0.0048844386
0.0028229177 -0.00097179465 -0.0048720394
0.001975859 -0.0068920841 -0.0048613655
0.0029579536 -0.0068884408 -0.004866113
0.0037425878 0.00098954234 -0.0048697027
0.0026978203 0.0068929838 -0.0048601921
0 -0.0051675923 -0.0048432057
0.0032490871 -0.0011744688 -0.0048453519
0.0028227489 0.0011598411 -0.0048472788
0.0035560783 0.0068360944 -0.0048430148
0.0010020417 -0.0069098114 -0.0048382636
0.0029986096 0.0012788144 -0.004831613
0.0039999997 -0.002596925 -0.0047983504
0.003192476 0.0014130526 -0.0047803284
0 -0.0038677244 -0.0047649588
0.0039999997 -0.0061535714 -0.0047567361
0.0039999997 -0.0025398447 -0.0047332463
0.00059256575 0.001528965 -0.0047323164
0 0.0019830309 -0.0047365231
0.0020327591 -0.0016075911 -0.0046997485
0.0035528857 0.0069564283 -0.0046913922
0 -0.0040828246 -0.0046888734
0.0037497142 0.0016336432 -0.0046889568
0.0023871721 -0.0016681906 -0.004674647
0.0035243996 -0.007009103 -0.0046691252
0.0028179688 -0.0070564533 -0.0046471548
0 -0.0033799955 -0.0046326611
0.0039999997 0.0048958226 -0.0046150987
0.00047369316 -0.0070576393 -0.0046027666
0.0039999997 0.0057494985 -0.0046024895
0.00052929635 0.0018502373 -0.0045992411
0.002346376 0.0018562956 -0.0045967316
0.0026727528 0.0018866071 -0.0045841765
0.0038128411 0.0019184767 -0.004570975
0 0.0044740262 -0.0045605963
0.00041196536 0.0019474594 -0.0045589698
0.0039999997 -0.0063019004 -0.0045428094
0.0039999997 -0.0039099883 -0.0045331283
0.0023742064 0.0020078875 -0.00453394
0.0038383882 0.0020585745 -0.0045129443
0.001438096 -0.0021234974 -0.0044860528
0.0039999997 0.0030293136 -0.0044883792
0 0.0051022493 -0.0044858647
0.00094371638 -0.0021434461 -0.0044777896
0.000324975 0.0021411832 -0.004478727
0.0039999997 -0.0063759149 -0.0044634328
0.0011154428 -0.0021839887 -0.0044609965
0.002288437 -0.002207181 -0.0044513894
0.0011575777 -0.0022578298 -0.00443041
0 0.0050337571 -0.0044224197
0 -0.004444499 -0.0044126194
0.0026322305 0.0023115727 -0.0044081495
0.00073314254 0.002323647 -0.0044031478
0.0011031622 0.0023217145 -0.0044039483
0.0039999997 0.0045883586 -0.0044073644
0.00044873601 -0.0023334161 -0.0043991012
0.0030340459 0.0072552427 -0.0043880865
0.00020627689 0.0023923882 -0.004374675
0.0028858772 -0.0024749937 -0.0043404582
0.0039999997 0.0055267657 -0.0043424419
0.0013158775 -0.0072972141 -0.004333389
0.0015448845 -0.0073057865 -0.0043222173
0 -0.0060871872 -0.004325625
0 0.004984057 -0.0043249382
0.003064719 -0.0025468022 -0.0042941864
0 0.0033155791 -0.0042929947
0.0025770478 -0.0025531028 -0.0042893514
0.00021521152 0.0069999238 -0.0042570191
0 0.0038653975 -0.004244701
0.0039999997 -0.0056232456 -0.0042344835
0 0.006712981 -0.0042309924
0 -0.0038599498 -0.0042246245
0.0037203988 -0.0026946771 -0.0041807131
0.00043577235 0.0073394519 -0.0041361139
0.00016760908 -0.0070410199 -0.0041259378
0.0012852615 0.0027997484 -0.0041000852
0.0039999997 -0.0031276534 -0.0040928475
0 0.0033496893 -0.0040949048
0.0022481128 0.0074277129 -0.0040894365
0.0026324552 0.0028277098 -0.0040786299
0 -0.0029954056 -0.0040442375
0.00048706029 0.0074334727 -0.0040420098
0.0012096837 -0.002889107 -0.0040315157
0 0.0056560738 -0.0040081567
0.0033547962 -0.0029469272 -0.003987147
0.0037132383 -0.002946201 -0.0039877039
0.0039999997 0.0057204789 -0.00397638
0.0003969617 0.0029875943 -0.0039559407
0 0.0068814633 -0.0039404803
0.00027309393 -0.0031498773 -0.003831411
0 0.0054957969 -0.0038357507
0.0011826672 -0.0031625226 -0.003821708
0.0011025248 -0.0075420397 -0.003813447
0 -0.0061767702 -0.0038133541
0.0010691414 -0.0075447336 -0.0038069442
0.0039999997 -0.0052963225 -0.0037909718
0.0039999997 -0.0040064631 -0.0037941062
0.0033129714 0.0031945091 -0.0037971628
0.00045047255 0.0032082577 -0.0037866128
0.0020355249 0.0032091858 -0.0037859003
0.0019392669 -0.0032274139 -0.0037719128
0.0039999997 0.0050199456 -0.0037792658
0.0009210367 0.00323168 -0.0037686389
0 0.005468314 -0.0037341439
0.00077080028 -0.0075786533 -0.003725061
0.003323857 -0.0032979089 -0.0037178181
0.002673259 -0.0033086459 -0.0037095789
0.0039925389 -0.0070728078 -0.0036702261
0.0039999997 0.0069500282 -0.0036671709
0 -0.0054090358 -0.0036109306
0 0.0045010536 -0.003554954
0 -0.0048851911 -0.0035411743
0.0039999997 0.0054762601 -0.0035443811
0.0035988954 -0.0035619824 -0.0035009896
0 0.0061211437 -0.0035004688
0.0013444063 -0.0035725515 -0.0034872161
0.00067471521 -0.0035903985 -0.0034639579
0.000130721 -0.0072942823 -0.0034548719
0 0.0037890619 -0.0034431296
0.0012693903 -0.003641617 -0.0033972117
0.0039999997 -0.0049970727 -0.0033876144
0.00059487432 0.0036741034 -0.0033548768
0.00091223075 -0.0036842858 -0.0033416066
0 0.0043509458 -0.0033147112
0 -0.0066935429 -0.0033048207
0 -0.0063005867 -0.0033017346
0.00043861658 0.0037176167 -0.0032981711
0.0025037299 0.0037483727 -0.0032580907
0.0012249908 -0.0037680494 -0.0032324491
0.00017857265 -0.0074399575 -0.0032271564
0 -0.0055523668 -0.0032153681
0.0011300766 0.0077890703 -0.0032171058
0.0011983133 0.007789454 -0.0032161793
0.00028703507 -0.003788498 -0.0032058007
0.0037929413 -0.0074876035 -0.0031859733
0.00018791562 0.0038134125 -0.0031733324
0.0021480385 -0.0038215467 -0.0031627323
0.0039999997 -0.003970542 -0.0031536985
0 -0.0056224111 -0.0031355941
0.0038481392 -0.0038742144 -0.0030940976
0 0.0049432651 -0.0030845753
0.0030710704 -0.0078461096 -0.003079413
0.00092913298 0.0039098216 -0.0030476954
0.0021676829 -0.0039167334 -0.0030386883
0.002791052 0.0039436207 -0.0030036492
0 0.0070719649 -0.0030080224
0.0036508881 -0.0039663576 -0.0029740189
0 0.0046041249 -0.0029774185
6.9575573e-05 0.0039858161 -0.0029486616
0.003989927 0.0073977886 -0.0028924323
0.0032154287 -0.0079285176 -0.0028804748
0.0012492689 -0.0079299733 -0.0028769614
0.0035663089 -0.0040577785 -0.002854882
0 -0.0066449926 -0.0028379299
0 -0.0062536444 -0.0028310583
0.0039999997 -0.0059924792 -0.0028304688
0 -0.0042691277 -0.0027924832
0.0022351276 -0.0041121985 -0.0027839637
0.0024373271 -0.0079717189 -0.0027761871
0.0039999997 -0.0044136983 -0.0027793967
0.003874667 -0.0075835274 -0.0027426563
0.00012290599 0.0075801075 -0.0027446237
0.0039999997 -0.0072537721 -0.0027278347
0.0039999997 -0.0045709983 -0.0027229351
0.0027389494 0.0079976534 -0.0027135771
0 -0.0072981426 -0.0027094251
0.0039999997 0.0066386736 -0.0026938715
0.0038029361 0.0076810983 -0.0026929181
0.0038288857 0.0041910815 -0.0026811648
0 0.0051190932 -0.0026802002
0 0.0062195482 -0.0026885548
0.0037559583 0.0077352286 -0.0026839543
0 -0.004959994 -0.0026576482
0.0039999997 0.0059212963 -0.0026561047
0.0035604748 -0.0042169611 -0.0026474399
0.002839264 0.0080251424 -0.0026472204
6.2898376e-05 -0.0075781499 -0.0025938645
0.0011486403 -0.0042778631 -0.0025680743
0.002784851 0.004277972 -0.0025679322
0.0034649153 -0.0080657601 -0.002549167
0.0027877653 -0.0042976923 -0.0025422331
0.0032703711 0.0042977068 -0.002542214
0.0033513801 0.0080780182 -0.0025195733
0.0021851792 0.0043282113 -0.0025024607
0.0028532057 0.0043317839 -0.0024959343
0.0039999997 0.0067273173 -0.0024581901
0.0034356355 0.0043582357 -0.0024320753
0.003651276 -0.004364125 -0.0024178573
0.0039999997 -0.0073553156 -0.0023976942
0.0021966333 -0.0081343809 -0.0023835131
0.002177601 0.0043761041 -0.0023889367
0.0011699494 0.0081521273 -0.0023406702
0.00014680008 0.0077805594 -0.0023226058
0 0.0058988393 -0.0023193953
0 0.0070773703 -0.0023134197
0.0034668529 -0.0081704855 -0.0022963553
0.0032957632 0.0044186125 -0.0022863124
0.0039999997 -0.0073683048 -0.0022768932
0.0028150922 0.0044295262 -0.0022599637
0.0026690359 -0.0044475296 -0.0022165007
0.0013220191 0.0044735759 -0.0021536194
0.00069258682 -0.0082187271 -0.0021367373
0.0039999997 0.0051840702 -0.0021211794
0.0039999997 0.0050314334 -0.002112272
0.0039999997 -0.0057760975 -0.0021058461
0 -0.0076824347 -0.0020836233
0.0016972055 0.0082256757 -0.0020839476
0.0039999997 -0.0063616629 -0.0020689811
0.00032414851 0.0080531109 -0.0020589125
0.0025259468 -0.0045298301 -0.0020178095
0.0011673543 0.0045509781 -0.0019667547
0 0.006054827 -0.0019586403
0 0.0074568209 -0.0019426271
0 0.0070236307 -0.0019228118
0 -0.0064807562 -0.0019114008
0.0039999997 -0.0069079776 -0.0018955632
0.0027591465 -0.0045805913 -0.0018952609
0.00067592569 -0.0045884759 -0.0018762256
0.0025339497 -0.0046068868 -0.0018317783
0 -0.0066565308 -0.0018089622
0.0039999997 -0.0054523954 -0.0017844487
0.0037077577 0.0080600949 -0.0017634414
0.0023430919 -0.0082691899 -0.0017533934
0.0013723379 -0.0082735857 -0.0017200027
0.001815242 -0.0082780831 -0.0016858338
0.0027035158 0.0046753925 -0.0016663905
0.002507638 -0.0082826521 -0.001651119
0.0011145239 0.0046899649 -0.0016312094
0.0015259638 -0.004693931 -0.0016216347
0 -0.00511972 -0.0016193042
0.0021808096 -0.0046965457 -0.0016153227
0 0.0057486556 -0.0016061073
0.0031721536 -0.0047121919 -0.0015775491
0.0039999997 -0.0065900013 -0.0015592016
0.0039999997 -0.0062256022 -0.0015556972
0.0024047655 -0.004738919 -0.0015130233
0 -0.0067242444 -0.0014799369
0.0024942113 -0.0047562225 -0.0014712494
0.0039212527 -0.00475806 -0.0014668119
0.0038443811 -0.0079654278 -0.0014447266
0 -0.0060558808 -0.0013852585
0.0039999997 0.0070537068 -0.0013628048
0.0037394571 -0.0048048529 -0.0013538457
0 -0.0065339725 -0.0013425065
0.00037038699 -0.0048098727 -0.001341726
0.0038894012 -0.0079344474 -0.0013380606
0.0037771324 -0.0048220614 -0.0013123009
0 -0.0060970606 -0.0013074386
0.0037467764 0.0080848197 -0.0012791918
0.0033254761 0.0083333002 -0.001266369
0.0029067609 0.0048382543 -0.0012283759
0.0039999997 -0.005193918 -0.0011494017
0.0039999997 0.0055832961 -0.0011182167
0.002725855 -0.0048541911 -0.0011073452
0.00023337291 -0.0080888318 -0.0010979063
0 -0.0054977965 -0.0010380476
0.0033499054 0.0083680768 -0.0010021803
0.00012039941 0.0048692189 -0.00099321792
0 -0.0054102875 -0.00097670092
0 0.0071834112 -0.00095199444
0.0039999997 -0.0052933218 -0.00094388984
0.0039999997 -0.0076596807 -0.00092723646
0.00022659726 -0.0081112785 -0.00087593042
0 -0.0063559674 -0.00086517778
0 -0.0052239504 -0.00086976727
0.0016885852 -0.0048855669 -0.0008690604
0.0039999997 -0.007347791 -0.00084015593
0 0.0076812129 -0.0008212885
0.0021261051 -0.008402219 -0.0007428166
0.0028305689 -0.0084021278 -0.00074351073
0.00071829819 -0.0049058725 -0.0007148516
0.00016725987 0.0080731018 -0.00071529846
0.003456322 -0.0049075377 -0.00070220442
0 0.0076967664 -0.00064030482
0.0039999997 0.0070916838 -0.00063964358
0.0039861966 -0.0049189483 -0.00061554753
0.0035935009 -0.0083267009 -0.00060620642
0.0015751215 -0.0049204561 -0.00060409686
0.0039999997 -0.0069650165 -0.0005943664
0.0014515822 0.0049284468 -0.00054340769
0 -0.0078365514 -0.00052044104
0.0020650851 -0.0049304832 -0.00052794791
0.0039999997 -0.0070911013 -0.00049920473
0.0031971412 -0.0049353661 -0.00049086189
0.0030383444 0.0049431929 -0.00043142261
0.0039999997 -0.0077535082 -0.00042646943
0.0038024453 0.0049511259 -0.00037117442
0.0039999997 0.0054051266 -0.00032685653
0.0039999997 0.0076591116 -0.00028173201
0.00060196861 -0.0084749814 -0.0001900585
0.0039999997 0.0069309152 -0.00012463775
0 0.0068535195 -0.00011272617
0.00039411095 0.008380007 -0.00010714037
0.0039999997 -0.0065985238 -1.0222599e-05
0.0039999997 0.0078375535 -1.1712666e-05
0.0039999997 0.0078898892 -1.3139477e-06
0.0017755728 0.0084993821 -4.6942218e-06
0.0029944757 0.0084987553 -9.4655261e-06
0 -0.0072426992 3.9223073e-07
0.0039999997 -0.0068285442 3.6508234e-05
0.0039999997 0.0059160809 3.0821764e-05
0.0039999997 -0.0066772103 4.7465575e-05
0.0022895103 -0.0049892077 8.1964638e-05
0.0031695121 0.0049878601 9.2199174e-05
0.0017458589 -0.0049868273 0.00010004507
0.0032793714 0.0084833177 0.0001267309
0.0028793071 -0.004979468 0.00015592907
0.0003488393 -0.0049771406 0.00017361033
0.0032173456 0.0084767044 0.00017697096
0.0031036295 0.0084725423 0.00020858539
0.0022341008 -0.0049662981 0.0002559468
1.8760889e-05 -0.0079779578 0.00030993254
0.0028408426 -0.0049490295 0.00038709442
0.00051394809 0.0049452092 0.00041610972
0 -0.0065056155 0.00046989735
0 -0.0053025354 0.0004720093
0.0039999997 0.0071592811 0.00048179578
0.0028895244 0.0049316972 0.00051872898
0 -0.0072421962 0.00056023017
0.0039999997 -0.0055061001 0.00057610055
0.00017609431 0.0080995085 0.00058173051
0.0016464624 0.0049171546 0.00062917121
0 -0.0068146996 0.00064484263
0.0039821398 -0.0049129156 0.0006613619
0 0.0071800691 0.00069151673
0.0039999997 -0.0067503639 0.00070324173
0.00045733646 0.0083604027 0.00073635683
0.0011775838 0.0083994912 0.00076354045
0.0039999997 -0.0063791932 0.00077365915
0 -0.0074878009 0.0008011217
0.0030804591 -0.0083898194 0.00083700789
0.00063004653 -0.0048864442 0.00086239621
0.0039999997 0.0071124751 0.00089177972
0.0033848558 0.0083807325 0.00090603495
0.0039439779 -0.0079357047 0.00091392751
0.0027325263 0.008379533 0.00091514643
0.0014385669 0.0048779598 0.00092683377
0.0038327677 0.0080446778 0.00093098788
0.0039999997 0.0049770917 0.00095382711
0.0039999997 0.0074541825 0.00095824979
0.0030054839 -0.0083669089 0.0010110566
0 -0.005021282 0.0010181228
0.0039999997 0.006521224 0.0010150877
0.0019935938 -0.0083626388 0.0010434951
0.0020938478 -0.0048601124 0.0010623735
0 -0.0057779378 0.0010974357
0 0.0049734418 0.0010921282
0.0039999997 0.0065649762 0.0010997048
0.0039999997 -0.0053482815 0.0011442562
0.00077936903 0.0083482843 0.0011525434
0.0016429337 -0.0083448105 0.0011789252
0.0036877496 0.0048379372 0.0012307829
0 -0.0067942911 0.0012533198
0.001610238 0.0048352755 0.0012509973
0.0005606357 -0.0048241261 0.0013073151
0.002839569 0.004826209 0.0013022878
0.0020591335 -0.0083246119 0.0013323658
0.0039999997 -0.0059173591 0.0013604936
0 -0.0057172035 0.0013932502
0.0019882109 -0.0083131287 0.0014196013
0.0033766576 0.0047531226 0.0014787328
0.0039999997 -0.0067572026 0.0014931968
0.00051914231 -0.0047438424 0.0015011366
0.0010140884 0.0047442298 0.0015002028
0.0039999997 -0.0072184633 0.0015304299
0.0039999997 0.0072238543 0.0015345765
0.00064733729 -0.0082965773 0.0015453446
0.0026379619 -0.0082919775 0.0015802826
0 -0.0069188173 0.0015937703
0.0039999997 -0.0053804219 0.0016067906
0.0022879723 0.0046970029 0.001614219
0.0037103994 -0.0080761928 0.001621146
0.00055297778 0.0046943137 0.00162071
0.0039999997 -0.0058582723 0.001636202
0.0039999997 0.0054734214 0.0016320959
0.0012363462 0.0046735429 0.0016708563
0.0039999997 0.0068727685 0.0016750686
0.0027797848 -0.0046497672 0.0017282561
0 -0.0067842822 0.0017340744
0 0.0059918216 0.001739107
0 0.0069544087 0.0017323138
0.0010755054 -0.008270612 0.0017425913
0.0022763184 -0.0046440377 0.0017420884
0.0017588438 0.0082664043 0.0017745513
0.0036466534 0.0046197893 0.0018006292
0 -0.0056203119 0.0018286217
0.0028533803 -0.0046111802 0.0018214135
0.0021503945 0.0082509667 0.0018918299
0.00038690088 0.0045784754 0.0019003699
0.0039999997 0.0073469528 0.0019177269
0.00094110315 -0.0082447492 0.0019390536
0.0037360098 0.0080089206 0.0019375832
0.0037310643 -0.0044922223 0.0021086019
0 -0.0064724763 0.0021102324
0.0016260813 -0.0044703279 0.0021614602
0.0030094211 0.0044697234 0.0021629201
0.0039999997 0.004812011 0.0021803579
0 0.0057586194 0.0021901869
0.0011953262 -0.0044527515 0.0022038936
0 -0.0071076625 0.0022266789
0.0038035142 -0.0044454075 0.0022216234
0.003837477 -0.0078344913 0.002233142
0.0033294624 0.008193749 0.0022401982
0 -0.0072111511 0.0022534754
0 -0.0053844312 0.0023040634
0.0009425907 -0.008160294 0.0023209576
0 0.0051934291 0.0023313556
0.0039999997 0.0074456609 0.0023419203
0.0023781254 0.0043856623 0.002365863
0.0032222997 0.0081321029 0.0023890114
0.0003690288 -0.0043753423 0.0023907765
0.0025093395 -0.0043461542 0.0024612427
0.00038787641 -0.0079290289 0.0025887771
0.00035136455 0.0042616711 0.0025891748
0.003794031 0.0077298894 0.0025982333
0.0039999997 0.004279071 0.0026020128
0.0039999997 -0.0051194709 0.0026287551
0.0021630782 0.00423367 0.0026256659
0.0014000221 -0.0080228802 0.0026526796
0.00022044661 0.0042047095 0.0026634054
0.0036497633 -0.007849236 0.0026838896
0.0039414894 -0.0075301919 0.0026982867
0.0019921609 -0.0041834689 0.002691085
0.0010738388 0.0079878997 0.0027371251
0 -0.0048331195 0.0027571847
0 0.004675929 0.0027913104
0.0018188133 0.0079376586 0.0028584092
0.0038007591 0.0076124901 0.0028642218
0.0039999997 0.0068535386 0.0028756291
0.00064331089 0.0040026512 0.0029267222
0.002752386 -0.0079065971 0.0029333911
0.0039686854 0.0073952395 0.0029536239
0.0025245124 -0.0078948066 0.0029618528
0 0.006590955 0.0030108499
0.0039999997 0.0068160091 0.0030137296
0 -0.0047913669 0.0030260698
0.0021021529 0.0039230036 0.0030305167
0.0039108829 0.0039102738 0.0030471059
6.760921e-05 0.0038958685 0.0030658788
0 0.0055678557 0.0030938745
0.00011726541 -0.0038657642 0.00310511
8.1766251e-05 -0.0073813233 0.003117932
0 0.0044846176 0.0031149082
0.0018378743 -0.0038419692 0.0031361184
0 -0.0057464982 0.0031483022
0.0017223675 -0.0078137862 0.0031574403
0.0007165001 -0.0038010266 0.0031894743
0.0016335583 0.0078036613 0.0031818838
0.002584079 0.0037905285 0.0032031548
0.0034126164 0.0077758259 0.0032490788
0.0030790644 0.0037525021 0.0032527095
0 0.0057488088 0.0032577226
0.0039999997 0.0055751465 0.0032787111
0.0020834203 -0.0037183659 0.0032971948
0 -0.0061172727 0.0033416054
0.0038982509 0.0073023131 0.0033604491
0.0039577098 -0.0072332537 0.003373119
0.0017891945 -0.0077210516 0.0033813044
0.0039999997 0.0057994472 0.0033876901
0.00077447796 0.003638624 0.0034011127
0.0010224262 -0.0036213738 0.0034235928
0.00026706699 0.0036125146 0.0034351372
0.00072492217 0.0035929668 0.003460611
0.0023657123 0.0076575871 0.0035345121
0.0010860722 -0.0076534501 0.003544498
0.0011548261 0.007652862 0.003545919
0 -0.0066139936 0.0035785215
0.0013928892 0.0034856535 0.0035737506
0.0039999997 0.0046567186 0.0035776952
0.0033909676 -0.0034692585 0.0035863316
0.00079350162 0.0076332185 0.0035933373
0.0021579741 0.0034347086 0.0036128436
0 -0.0062832395 0.0036836888
0.00033474594 -0.0033261748 0.0036961278
0.0021635352 -0.00323401 0.0037668515
0.0028352106 -0.0032263636 0.0037727191
0.0039999997 0.0059538339 0.003807043
0 -0.0033193624 0.0038121187
0.0032765523 -0.00316845 0.003817159
0.0034708732 -0.0031411033 0.003838144
0.0039999997 -0.0067764428 0.0038880552
0.00083560392 -0.0030829173 0.0038827937
0 -0.0053074323 0.0039033657
0.0036474173 -0.0073317257 0.0039392607
0.0016667971 -0.0029865298 0.0039567575
0 -0.006749331 0.0039607678
0.0021740934 -0.0074715409 0.0039836336
0.0028780957 -0.0029452906 0.0039884024
0.0034193082 -0.0029409954 0.0039916988
0.0034876294 0.0029066463 0.0040180567
0.0017016547 -0.0028913138 0.0040298225
0.0036575482 -0.0028804298 0.0040381742
0.0005626998 0.0074463538 0.0040444368
0.0039999997 -0.0053629009 0.0040646428
0 0.0032747569 0.0040620901
0.0020453262 0.0028276583 0.004078669
0.0033318899 -0.0074264854 0.0040923986
0 -0.0059337863 0.0040939664
0.0026215441 0.0074257352 0.0040942105
0.0015699619 -0.007415209 0.0041196207
0.0036669539 0.0027735457 0.004120192
0.00040140757 -0.0072860592 0.0041759838
0.0032996284 0.0073906542 0.0041788989
0.0030094418 0.0026830784 0.0041896137
0.0017327882 -0.0026730516 0.0041973083
0 0.0058662323 0.0041902955
0.00083064334 0.0073811002 0.0042019626
0.0039999997 -0.0051510786 0.0042205825
0.0039999997 0.0038623672 0.0042281323
0.0039999997 0.0045849169 0.0042304117
0 -0.0065153767 0.0042685354
0 0.0032744734 0.0043343748
0.0039999997 -0.0039726752 0.0043727504
0.0035115485 -0.0023805823 0.0043795649
0.0018954225 0.0072650369 0.0043753237
0 -0.0051951841 0.0043844525
0 -0.0051442096 0.004381008
0.0027559018 -0.0023493832 0.0043924879
0.0039999997 -0.004174687 0.004422294
0.0022679595 -0.0022729735 0.004424138
0.0012610629 -0.0072000748 0.0044599827
0.00054429646 -0.0022074347 0.0044512847
0.0011295574 -0.0071877944 0.0044759861
0.0017930837 0.0021422552 0.0044782828
0.0039999997 -0.0038904992 0.0044856085
0.0014913124 -0.0021151223 0.004489522
0.0039999997 -0.0056399759 0.0044971351
0.0014420872 -0.0021005773 0.0044955467
0.0010592986 0.0020774216 0.0045051374
0.0036562986 -0.0020186631 0.0045294762
0.0023436565 -0.0071408348 0.0045371866
0.0032325655 0.002009663 0.0045332043
0.00027712947 -0.0019878517 0.0045422395
0.00012143695 0.0019924708 0.0045403256
0.0014715681 0.0071384329 0.0045403168
0.0039999997 -0.0042873574 0.0045541427
0.00041479024 -0.0019310476 0.0045657684
0.0030669621 -0.0018484346 0.0045999871
1.7554631e-06 -0.0018106259 0.0046156486
2.6450354e-05 0.0017418003 0.0046441569
0.003651286 -0.00165669 0.0046794103
0.0025236085 0.0016460388 0.0046838224
0.00082593568 0.001579834 0.0047112452
0.001270719 0.0015512966 0.004723066
0.0039999997 0.0020467087 0.0047260267
0.0017309061 -0.0015310677 0.0047314451
0.0032274763 -0.0015224022 0.0047350344
0.0039999997 0.0018864358 0.0047534145
0.00061701296 -0.0069683278 0.0047620018
0.0036260805 0.0014498242 0.0047650971
0.0033087216 0.0069692712 0.0047607734
0.0029894295 -0.0069615087 0.0047708889
0.0027618331 0.0013895236 0.0047900747
0.0039999997 0.0057414835 0.0047981194
0.00030295149 -0.0066868053 0.0048079775
0.0039999997 0.0054067587 0.0048083127
0.0018497814 0.0069253813 0.0048179724
0.00078211207 -0.0013040922 0.0048254617
0.00083310512 -0.0012367434 0.0048371525
0.001846484 0.0011435277 0.0048494264
0.0034067088 0.0011421413 0.004849609
0.0033923881 0.001169772 0.0048459712
0.0039999997 0.0012339557 0.0048582554
0 -0.0012786856 0.0048647709
0.0015758267 0.0008716525 0.004885226
4.739581e-05 -0.00081765966 0.0048923353
0.0036065427 -0.00080717111 0.0048937164
0.0012799626 -0.00076551613 0.004899201
0.0016725071 0.00079288421 0.0048955968
0.0039999997 0.0031102384 0.0048920638
0.0034242556 0.0068693948 0.004890935
0.0029833135 -0.00065004401 0.0049144062
0.002866331 -0.00060876919 0.0049198405
0.0039999997 -0.0060087447 0.0049285917
0.00088938099 -0.00056188082 0.0049260147
0.0029708797 0.00056153582 0.0049260599
0.0030857129 -0.00045987836 0.0049394462
0 0.0041075372 0.0049428777
0.0029428138 -0.0068141529 0.0049629267
0.00042661242 -0.00024849386 0.0049672797
0.003054901 -0.00023627716 0.0049688886
0.0034385098 0.00025676293 0.004966191
0.00084468059 0.00029606486 0.0049610161
0.00024501423 0.0001988853 0.0049738125
0 0.00030950565 0.004974633
0.0019848528 -0.0001255328 0.0049834708
0 -0.0030522796 0.0050125504
0.00072533434 0.0067585809 0.0050353506
0.00036707066 0.0065813926 0.005049808
0.0039999997 -0.00016664619 0.0050561968
0.0039999997 0.00016850901 0.0050501958
0 0.0046730661 0.0050664502
0 -0.0050616111 0.0050787902
0.0018006735 -0.0067187906 0.0050872061
0 -0.0043121539 0.005090768
0 -0.0014441726 0.0050958828
0.0028311945 0.0066879713 0.0051273708
0.0004616252 -0.0066317134 0.00513819
0 -0.0033329828 0.0051322407
0.0039999997 0.001600428 0.0051378547
0.0039999997 -0.0043206397 0.0051612887
0.0039999997 0.00057602802 0.0051780273
0.00075151731 0.0066505815 0.0051760976
0 -0.00020301378 0.0051860251
0.0033090364 -0.0066232067 0.0052117729
0 0.0035915398 0.0052109016
0.0025318258 -0.006586676 0.0052593816
0 -0.003297549 0.0052562887
0.00014571448 0.006143311 0.0052602752
0.0035882755 0.0064742784 0.0052620969
0.0039999997 -0.0022308768 0.005308209
0 -0.0047927629 0.0053189569
0.00084899738 0.006535097 0.0053266003
0.0034138109 -0.0065304679 0.0053326339
0.0034860196 -0.0065177428 0.005349217
0.0039999997 0.0036974978 0.0053571551
0.0022952491 0.0065114247 0.0053574508
0 0.00055510929 0.0053616362
0 0.0043876222 0.0053735785
0.0010048631 0.0064974655 0.0053756423
0.0024638656 0.0064973445 0.0053758007
0 -6.3211803e-05 0.0053982385
0 0.00012256313 0.0053930436
0 0.0034097028 0.0053959466
0 0.0012674809 0.005403765
0 -0.0014170967 0.0054177949
0.0032031571 0.0064666462 0.0054158079
0.0039999997 -0.0039157202 0.0054226578
0 0.0025333061 0.005428372
0.0039999997 0.0033486257 0.0054387297
0 -0.0036376903 0.0054493328
0.0019842077 0.0064408621 0.0054494105
0.00208123 -0.0064263595 0.0054683099
0.0029826581 -0.0064213993 0.0054747746
0 -0.0032457449 0.0054969033
0 0.0051173926 0.0054998454
0.00066019385 0.006409605 0.0054901452
0 0.0044047781 0.0055025239
0 0.00058886805 0.0055182129
0 -0.0037825112 0.0055433358
8.5314969e-05 -0.0058285282 0.0055721458
0.0039999997 -0.0042880918 0.0056149587
0.0023771822 -0.0062922454 0.0056430921
0.0039999997 -0.0030511804 0.0056528994
0.0039999997 0.00034478746 0.0056638257
0.0032951753 0.0062733698 0.0056676911
0.0039999997 0.00036268338 0.0056932708
0.0019209202 0.0062165218 0.0057417769
0.0039999997 0.0033363907 0.0057802983
0.0039999997 -0.0010823894 0.0058640838
0.0039014341 -0.0055177109 0.0058868518
0 0.0051171808 0.0058836355
0.00098575628 0.0060924236 0.0059035043
0.003407683 0.0060909321 0.0059054489
0 -0.0035513502 0.005922264
0 0.004652835 0.0059319767
0 0.0028881121 0.005947168
0.0039999997 -0.0024422738 0.0059642508
0.0039999997 0.00090400811 0.0059610908
0 -0.002630566 0.0059751989
0.0039999997 -0.0011704048 0.006028201
0.003807001 -0.0054647564 0.0060454728
0 -0.0014673248 0.0060451948
0 0.0020502978 0.0060681193
0.0039999997 -0.0026159536 0.0060937516
0 -0.0018867606 0.0061104745
0 0.0031577903 0.0061111143
0 0.00068030006 0.0061578513
0.0039999997 -0.0024940306 0.0061710263
0.0039999997 0.002611798 0.006207332
0 0.0028836366 0.0062058861
0.0039999997 0.0040364913 0.0062185433
0.0031697634 0.0057124035 0.0062390603
0.00029407078 -0.0053706015 0.0062440019
0 0.0001921878 0.0062693791
0.00014382444 -0.005083445 0.0062766019
0.0039999997 0.0027208934 0.0062747821
0.0039999997 -0.0017656459 0.0063144085
0 0.003030421 0.0063269832
0.0018478869 -0.005580314 0.0063404171
0.0012688561 0.0055792877 0.0063412036
0.0039999997 0.0027861183 0.0063624787
0.00034298841 -0.0051774746 0.0064533134
0 -0.0021672603 0.0064557386
0 -0.0045982245 0.0064681028
0.0039999997 0.0034706213 0.0064808223
0.0039999997 0.0024760177 0.0065010143
0.0021838038 0.00534706 0.0065193982
0 -0.0023115969 0.0065213153
0.0039999997 0.00021085239 0.0065450864
0.0020754235 0.0053192684 0.0065407231
0.0033608454 0.0053122686 0.006546095
0.0039999997 0.0024150482 0.0065507926
0.0012361951 -0.0052914959 0.0065620341
0.0039999997 -0.004281153 0.0065981396
0.0038497916 0.0046731234 0.0065994342
0 -0.0038837048 0.0066122613
0.0031846601 0.0052227946 0.0066147503
0.0039999997 -0.00060984294 0.0066276193
0.001560535 0.0051801731 0.0066474546
0.00032230656 0.0048797163 0.0066559748
0.0036595361 0.0048799766 0.0066784625
0 0.0038073035 0.0067167114
0.003055667 -0.00506014 0.0067395591
0 -0.0030275632 0.0067599281
0.0035585207 -0.004935178 0.0067623137
0.0039999997 -0.0041393363 0.0067990567
0 -0.0037047367 0.0068376237
0.0039999997 -0.0032080251 0.0068667904
0 -0.00071203796 0.0068670255
0.0039999997 0.0035340181 0.0069195731
0.0039999997 0.00029409406 0.0069305226
0.0039999997 -0.0014249809 0.0069696833
0 -0.00054183748 0.0069987145
0.0025317194 -0.0047078398 0.0070098885
0.0039999997 0.0022901834 0.0070210146
0 -0.0029441274 0.0070596514
0.0039999997 0.00056676916 0.0070740446
0 0.0020088975 0.0070831697
0.0029599338 -0.0045794067 0.0071084388
0.0039999997 0.0027348206 0.0071049766
0 -0.0019345136 0.0071194759
0 -0.0025675227 0.007143951
0.0036511067 0.0041971561 0.0072129169
0.0025342514 0.0044405502 0.0072149858
0.0032711609 0.0044070161 0.0072407178
0.00039468371 -0.0041646203 0.0072835507
0 0.0002814318 0.0073131365
0.0039999997 -0.0025606924 0.0073372014
0.0039999997 0.0017087472 0.0073387134
0.0032652712 -0.004256878 0.0073559224
0.00073083414 0.0042554885 0.0073569887
0.00034890877 -0.0038140032 0.0073796618
0.0039999997 -0.0020160442 0.0074008461
0.0014488447 0.0041403119 0.007406638
0.0036922665 0.0035206976 0.0074569839
0 0.0023885258 0.0075083789
0.0028993473 0.0038702067 0.0075185276
0.0028393206 0.0038823492 0.0075134975
0.0029233834 -0.0038371421 0.0075322241
0.0038729627 0.0028372072 0.0075461906
0.00018046242 -0.0028746477 0.0075880024
0.0010733368 -0.0036792171 0.0075976443
0.00054311112 0.0036841633 0.0075955945
0.0023455769 0.0036507151 0.0076094498
0.0039999997 -0.0014753152 0.0076159481
0 -0.00077770336 0.0076269703
0.0039999997 -0.0020644744 0.0076328036
0.0033122571 0.0035937482 0.0076330486
0.0029862938 0.0035619568 0.0076462175
0.0035193483 0.0033982664 0.0076932618
0.0039999997 0.00064045057 0.0077556879
0.0039999997 0.00084607041 0.0077605271
0.0011089301 0.0032746408 0.0077652368
0.0035917854 -0.0030137498 0.0077748131
0.00028342081 -0.002701669 0.0077701523
0.0029879208 -0.0030423417 0.0078614661
0.0039999997 -0.00071389182 0.0078611756
0.0017682525 -0.003003842 0.0078774141
0.00042154099 -0.0027297447 0.0079067536
0.0022139517 0.0029113456 0.0079157297
0.003651771 0.002499345 0.0079235239
0.00036495362 -0.0024539307 0.0079602785
0.0025741153 0.0027932646 0.0079646436
0.0013216933 -0.0027232971 0.0079936283
0.00050442474 0.0027177343 0.0079959314
0.0039833216 -7.3781535e-05 0.0080069657
0.00015453037 -0.00089970004 0.0080360826
0.0038863404 -0.00051682361 0.0080456268
0.0039377818 -0.00014176854 0.0080435565
0.0038367221 -0.00076745194 0.0080622528
0.0027889155 0.002435975 0.0081126485
0.0024354989 0.0023721368 0.0081390925
0.0020168563 -0.0023544449 0.008146422
0.0022513794 -0.0023333225 0.0081551718
0.00084401312 -0.0023195145 0.0081608919
0.0014951072 -0.0022850325 0.0081751756
0.00043575536 -0.0018109198 0.0081973691
0.00034597851 0.0011617271 0.0081930524
0.0005097242 0.0020702621 0.0082274787
0.0026118599 0.0020303372 0.0082327332
0.00347349 0.001916118 0.0082477685
0.0036079006 -0.0010479559 0.0082541509
0.00097462075 -0.0016796484 0.008278897
0.0026483296 -0.0016201067 0.008286735
0.00088932103 0.0016174272 0.0082870871
0.0036756594 -0.00025060546 0.0082913516
0.00081631774 0.0014464093 0.008309599
0.0026034368 0.0013644448 0.0083203893
0.0014714152 0.00124737 0.0083358008
0.0015414816 -0.0011919979 0.0083430903
0.0015118185 0.0011534786 0.0083481604
0.00068095146 -0.0010850827 0.0083571635
0.0020502328 -0.0010836559 0.0083573516
0.0022353742 -0.00096074637 0.0083735306
0.0025179945 0.0009374572 0.0083765965
0.0015208734 0.00079527515 0.0083953133
0.0025240337 0.00082065532 0.0083919717
0.0013240961 -0.00042701786 0.0084437886
0.00074913894 -0.00013609187 0.0084820855
0.003137765 -0.00010100019 0.0084867049
