# .PCD v0.7 - Point Cloud Data file format
VERSION 0.7
FIELDS x y z
SIZE 4 4 4
TYPE F F F
COUNT 1 1 1
WIDTH 1000
HEIGHT 1
VIEWPOINT 0 0 0 1 0 0 0
POINTS 1000
DATA ascii
0.0017755729 -4.6945934e-06 -0.0084993821
0.0029944759 -9.4658981e-06 -0.0084987553
0.0032793714 0.00012673051 -0.0084833177
0.0032173458 0.00017697059 -0.0084767044
0.0031036297 0.00020858498 -0.0084725423
0.0011775839 0.00076353998 -0.0083994912
0.00039411098 -0.00010714074 -0.008380007
0.003384856 0.00090603443 -0.0083807325
0.0027325265 0.00091514597 -0.008379533
0.0033499056 -0.0010021807 -0.0083680768
0.00045733651 0.00073635642 -0.0083604027
0.00077936909 0.001152543 -0.0083482843
0.0033254763 -0.0012663694 -0.0083333002
0.0017588439 0.0017745508 -0.0082664043
0.0021503947 0.0018918294 -0.0082509667
0.0016972056 -0.0020839483 -0.0082256757
0.0033294624 0.0022401977 -0.008193749
0.0011699495 -0.0023406707 -0.0081521273
0.0032223 0.002389011 -0.0081321029
0.00017609433 0.00058173027 -0.0080995085
0.0037467768 -0.0012791922 -0.0080848197
0.0033513801 -0.0025195738 -0.0080780182
0.00016725989 -0.00071529887 -0.0080731018
0.0037077579 -0.0017634416 -0.0080600949
0.00032414854 -0.0020589128 -0.0080531109
0.003832768 0.00093098753 -0.0080446778
0.0028392645 -0.0026472206 -0.0080251424
0.0037360098 0.0019375829 -0.0080089206
0.0027389496 -0.0027135776 -0.0079976534
0.0010738388 0.0027371247 -0.0079878997
0.0018188134 0.0028584087 -0.0079376586
0.0040000002 -1.3142926e-06 -0.0078898892
0.0040000002 -1.171301e-05 -0.0078375535
0.0016335583 0.0031818831 -0.0078036613
0.0011300767 -0.0032171065 -0.0077890703
0.0011983133 -0.0032161798 -0.007789454
0.00014680008 -0.0023226063 -0.0077805594
0.0034126169 0.0032490783 -0.0077758259
0.0037559588 -0.0026839548 -0.0077352286
0.0037940315 0.0025982328 -0.0077298894
0 -0.00064030511 -0.0076967664
0.0038029365 -0.0026929185 -0.0076810983
0 -0.00082128885 -0.0076812129
0.0040000002 -0.00028173233 -0.0076591116
0.0023657123 0.0035345114 -0.0076575871
0.0011548263 0.0035459178 -0.007652862
0.00079350168 0.0035933368 -0.0076332185
0.0038007593 0.0028642213 -0.0076124901
0.00012290599 -0.0027446242 -0.0075801075
0 -0.0019426275 -0.0074568209
0.0040000002 0.00095824955 -0.0074541825
0.0040000002 0.00234192 -0.0074456609
0.00056269986 0.0040444364 -0.0074463538
0.00048706032 -0.0040420103 -0.0074334727
0.002248113 -0.0040894365 -0.0074277129
0.0026215443 0.00409421 -0.0074257352
0.0039899275 -0.0028924325 -0.0073977886
0.0039686854 0.0029536234 -0.0073952395
0.0032996289 0.0041788979 -0.0073906542
0.00083064346 0.0042019621 -0.0073811002
0.0040000002 0.0019177266 -0.0073469528
0.00043577238 -0.0041361144 -0.0073394519
0.0038982511 0.0033604484 -0.0073023131
0.0018954226 0.0043753227 -0.0072650369
0.0030340462 -0.004388087 -0.0072552427
0.0040000002 0.0015345763 -0.0072238543
0 -0.00095199485 -0.0071834112
0 0.0006915165 -0.0071800691
0.0040000002 0.00048179549 -0.0071592811
0.0014715681 0.0045403163 -0.0071384329
0.0040000002 0.00089177949 -0.0071124751
0.0040000002 -0.00063964381 -0.0070916838
0 -0.0030080224 -0.0070719649
0 -0.0023134199 -0.0070773703
0.0040000002 -0.0013628051 -0.0070537068
0 -0.0019228122 -0.0070236307
0.00021521153 -0.0042570201 -0.0069999238
0.0033087221 0.0047607729 -0.0069692712
0.0035528857 -0.0046913922 -0.0069564283
0.0040000002 -0.0036671713 -0.0069500282
0 0.0017323133 -0.0069544087
0.0040000002 -0.00012463806 -0.0069309152
0.0018497816 0.004817972 -0.0069253813
0.0026978205 -0.0048601925 -0.0068929838
0 -0.0039404808 -0.0068814633
0.0040000002 0.0016750683 -0.0068727685
0.0034242561 0.0048909346 -0.0068693948
0 -0.00011272648 -0.0068535195
0.0040000002 0.0028756286 -0.0068535386
0.0035560785 -0.0048430152 -0.0068360944
0.0040000002 0.0030137294 -0.0068160091
0.0032851878 -0.0050075259 -0.0067799315
0.00072533439 0.0050353501 -0.0067585809
0.0040000002 -0.0024581903 -0.0067273173
0 -0.0042309924 -0.006712981
0.002831195 0.0051273699 -0.0066879713
0.00075151736 0.0051760972 -0.006650582
0.0040000002 -0.0026938717 -0.0066386736
0 0.0030108497 -0.006590955
0.00036707069 0.0050498075 -0.0065813926
0.0040000002 0.0010997045 -0.0065649762
0.0013905779 -0.0053264257 -0.0065352311
0.00084899744 0.0053265998 -0.0065350975
0.0040000002 0.0010150874 -0.006521224
0.0022952491 0.0053574508 -0.0065114251
0.0010048631 0.0053756423 -0.0064974665
0.0024638658 0.0053758002 -0.0064973449
0.0035882758 0.0052620955 -0.0064742784
0.0032031573 0.005415807 -0.0064666467
0.0019842079 0.0054494105 -0.0064408621
0.00066019391 0.0054901452 -0.0064096055
0.0026017269 -0.0055776853 -0.0063424343
0.0032951755 0.0056676911 -0.0062733702
0.002251969 -0.0056823236 -0.0062621427
0 -0.0026885548 -0.0062195477
0.0019209204 0.005741776 -0.0062165218
0.0001457145 0.0052602743 -0.006143312
0 -0.0035004693 -0.0061211437
0.00098575628 0.0059035039 -0.0060924236
0.0034076835 0.0059054485 -0.0060909325
0 -0.0019586405 -0.006054827
0 0.0017391068 -0.0059918216
0.0040000002 0.0038070427 -0.0059538344
0.0040000002 -0.0026561047 -0.0059212963
0.0040000002 3.0821506e-05 -0.0059160809
0 -0.0023193958 -0.0058988393
0 0.004190295 -0.0058662323
0.0022178164 -0.006152676 -0.0058249827
0.0040000002 0.0033876898 -0.0057994472
0 0.0021901866 -0.0057586194
0.0040000002 -0.0046024895 -0.005749498
0 -0.0016061076 -0.0057486556
0 0.0032577224 -0.0057488088
0.0040000002 0.0047981194 -0.0057414835
0.0040000002 -0.00397638 -0.0057204785
0.0031697636 0.0062390598 -0.0057124039
0 -0.0053404402 -0.005697744
0.0040000002 -0.0056120865 -0.0056645148
0 -0.0040081572 -0.0056560733
0.0040000002 -0.0011182169 -0.0055832961
0.0040000002 0.0032787104 -0.0055751465
0.0012688561 0.0063412036 -0.0055792881
0 0.0030938741 -0.0055678557
0.0040000002 -0.0043424424 -0.0055267657
0 -0.0038357512 -0.0054957964
0.0018658997 -0.0064229136 -0.0054728016
0.0040000002 -0.0035443814 -0.0054762596
0.0040000002 0.0016320957 -0.0054734214
0.0013785418 -0.0064289663 -0.0054649129
0 -0.0037341444 -0.0054683136
0.0011338092 -0.0064696297 -0.0054119187
0.0038872985 -0.0059942533 -0.0054007522
0.0040000002 -0.00032685677 -0.0054051266
0.0040000002 0.0048083123 -0.0054067592
0.0040000002 -0.005261811 -0.0053545847
0.0040000002 -0.005505065 -0.0053438349
0.0021838041 0.0065193982 -0.0053470605
0.0020754235 0.0065407227 -0.0053192694
0.0033608456 0.0065460941 -0.0053122686
0.0040000002 -0.0057231858 -0.0052966895
0.0040000002 -0.0052151047 -0.0052224905
0.0031846603 0.0066147503 -0.0052227946
0 0.0023313554 -0.0051934291
0.0040000002 -0.0021211796 -0.0051840702
0.001560535 0.0066474536 -0.005180174
0 -0.0026802006 -0.0051190932
0 0.0054998454 -0.0051173931
0 0.005883635 -0.0051171817
0 -0.0044858647 -0.0051022489
0 -0.0044224206 -0.0050337571
0.0040000002 -0.0021122722 -0.0050314334
0.0040000002 -0.003779266 -0.0050199456
0 -0.0043249382 -0.004984057
0.0031695124 9.2198949e-05 -0.0049878601
0.0040000002 0.00095382688 -0.0049770917
0 0.001092128 -0.0049734418
0.0010476501 -0.0068227444 -0.0049517313
0.0038024455 -0.00037117468 -0.0049511259
0.0040000002 -0.0059324694 -0.0049419436
0 -0.0030845755 -0.0049432651
0.0030383447 -0.00043142284 -0.0049431929
0.00051394815 0.00041610948 -0.0049452092
0.0028895247 0.00051872875 -0.0049316972
0.0014515823 -0.00054340786 -0.0049284468
0.0016464625 0.00062917091 -0.0049171546
0.0040000002 -0.0046150992 -0.0048958221
0.0014385671 0.00092683354 -0.0048779598
0.00032230659 0.0066559748 -0.0048797172
0.0036595366 0.006678462 -0.0048799771
0.0031752363 -0.0068916464 -0.004861936
0.00012039943 -0.00099321816 -0.0048692189
0.0029067611 -0.0012283762 -0.0048382543
0.0036877498 0.0012307827 -0.0048379372
0.0016102381 0.001250997 -0.0048352755
0.0028395692 0.0013022876 -0.004826209
0.0040000002 0.0021803579 -0.004812011
0 -0.0050533051 -0.0047913939
0.0033766578 0.0014787326 -0.0047531226
0.0010140885 0.0015002026 -0.0047442298
0.0022879725 0.0016142187 -0.0046970029
0.00055297784 0.0016207098 -0.0046943137
0.001114524 -0.0016312099 -0.0046899649
0.002703516 -0.0016663907 -0.0046753925
0.0012363463 0.001670856 -0.0046735429
0 0.0027913102 -0.004675929
0 0.0050664498 -0.0046730665
0.0038497916 0.0065994337 -0.0046731248
0.0040000002 0.003577695 -0.004656719
0 0.0059319767 -0.0046528359
0.0036466538 0.0018006288 -0.0046197893
0 -0.0029774187 -0.0046041245
0 -0.0059067938 -0.0045948597
0.0040000002 -0.0044073649 -0.0045883586
0.0040000002 0.0042304117 -0.0045849173
0.000550116 -0.0071133883 -0.0045729554
0.00038690091 0.0019003698 -0.0045784754
0.0011673544 -0.0019667549 -0.0045509781
0 -0.0063217594 -0.004503936
0 -0.0035549542 -0.0045010536
0.00074525661 -0.0071819886 -0.0044835531
0 0.003114908 -0.0044846176
0 -0.0061647743 -0.0044772206
0 -0.0045605968 -0.0044740262
0.0013220193 -0.0021536194 -0.0044735759
0.0030094213 0.0021629198 -0.0044697234
0.001346844 -0.0072134365 -0.0044425703
0.0025342517 0.0072149853 -0.0044405502
0.0028150924 -0.0022599641 -0.0044295262
0.0032957634 -0.0022863124 -0.0044186125
0 0.0055025239 -0.0044047786
0.0032711616 0.0072407178 -0.0044070161
0.0040000002 -0.0055712429 -0.0043816576
0.0023781257 0.0023658627 -0.0043856623
0 0.0053735776 -0.0043876227
0.0021776012 -0.0023889372 -0.0043761041
0 -0.0033147114 -0.0043509458
0.0034356357 -0.0024320756 -0.0043582357
0.0028532059 -0.0024959347 -0.0043317839
0.0011057096 -0.0072998912 -0.0043298989
0.0021851794 -0.002502461 -0.0043282113
0.0032703714 -0.0025422142 -0.0042977068
0.0027848512 -0.0025679327 -0.004277972
0.0040000002 0.0026020126 -0.004279071
0.00035136458 0.0025891745 -0.0042616711
0.0040000002 -0.0050087404 -0.0042559332
0.00073083414 0.0073569883 -0.0042554885
0.0021630784 0.0026256654 -0.00423367
0 -0.0049543586 -0.0042050113
0.00022044664 0.0026634054 -0.0042047095
0.003828886 -0.0026811652 -0.0041910815
0.003651107 0.0072129169 -0.0041971565
0.0014488448 0.007406638 -0.0041403123
0 0.0049428772 -0.0041075377
0.0040000002 0.0062185433 -0.0040364917
0.0010808975 -0.0074535888 -0.0040269718
0 -0.0064103357 -0.0040264274
0.00064331095 0.0029267217 -0.0040026512
0.0018929361 -0.0074712685 -0.0039842902
6.9575573e-05 -0.0029486618 -0.0039858157
0 -0.0069268518 -0.0039434689
0.0027910522 -0.0030036494 -0.0039436207
0.0021021531 0.0030305167 -0.0039230036
0.0039108833 0.0030471056 -0.0039102738
0.00092913304 -0.0030476956 -0.0039098216
6.7609217e-05 0.0030658785 -0.0038958685
0.0028393208 0.0075134975 -0.0038823497
0.0028993476 0.0075185276 -0.0038702071
0 -0.004244701 -0.0038653973
0.0040000002 0.0042281318 -0.0038623672
0.00018791563 -0.0031733329 -0.0038134123
0 0.0067167114 -0.0038073042
0.0025840793 0.0032031543 -0.0037905287
0 -0.0034431298 -0.0037890617
0.0030790647 0.0032527093 -0.0037525021
0.0025037301 -0.0032580912 -0.0037483727
0.00012466048 -0.0071819415 -0.0037104001
0.00043861661 -0.0032981711 -0.0037176167
0.0040000002 0.0053571551 -0.003697498
0.00054311118 0.0075955945 -0.0036841638
0.00059487438 -0.003354877 -0.0036741032
0.0023455769 0.0076094498 -0.0036507156
0.00077447802 0.0034011125 -0.003638624
0.00026706702 0.0034351372 -0.0036125148
0.00072492223 0.0034606108 -0.0035929673
0 0.0052109016 -0.00359154
0.0033122574 0.0076330486 -0.0035937487
0.002986294 0.0076462175 -0.0035619575
0.0040000002 -0.0063393046 -0.0035377995
0.0040000002 0.0069195731 -0.0035340185
0.0011376865 -0.0076601459 -0.0035283354
0.0036922668 0.0074569839 -0.0035206978
0.0030674487 -0.0076748338 -0.0034928778
0.0013928893 0.0035737506 -0.0034856538
0.0040000002 0.0064808219 -0.0034706218
0.00014123518 -0.0073065441 -0.0034525385
0.0021579743 0.0036128431 -0.0034347088
0.0016121729 -0.0077045942 -0.0034210349
0 0.0053959461 -0.003409703
0.0035193486 0.0076932618 -0.0033982669
0 -0.0040949052 -0.0033496891
0.0040000002 0.0054387292 -0.003348626
0.0040000002 0.0057802973 -0.0033363912
0.0016849926 -0.0077483011 -0.0033155242
0 -0.0071876221 -0.0033107693
0 -0.0042929947 -0.0033155787
0 0.0040620901 -0.0032747569
0 0.0043343743 -0.0032744734
0.0011089302 0.0077652368 -0.0032746417
0.00052010192 -0.007770712 -0.0032614246
0 -0.0066795163 -0.0032505996
0.0021928002 -0.0077780276 -0.0032437642
0.00092103682 -0.0037686392 -0.00323168
0.00045047258 -0.003786613 -0.0032082573
0.0020355252 -0.0037859008 -0.0032091856
0.0033129717 -0.0037971633 -0.0031945091
0 -0.0056489361 -0.0031577707
0 0.0061111143 -0.0031577903
0.0040000002 0.0048920638 -0.0031102386
0 -0.006782352 -0.0030802614
0.0026666834 -0.0078553073 -0.0030572091
0 0.0063269832 -0.0030304217
0.0040000002 -0.0044883792 -0.0030293136
0.0040000002 -0.0064692162 -0.0029864707
0.00039696172 -0.0039559407 -0.0029875939
0.0010355233 -0.0078890445 -0.0029757647
0.0040000002 -0.005482458 -0.0029549745
0.0039900723 -0.0073845503 -0.0029240183
0.0022139519 0.0079157297 -0.002911346
0.0010979748 -0.007916701 -0.0029090014
0.0034876298 0.0040180567 -0.0029066468
0 0.005947168 -0.0028881128
0 0.0062058861 -0.0028836373
0.0039810482 -0.0074185729 -0.002865263
0.0038729631 0.0075461906 -0.0028372074
0.0026324554 -0.0040786299 -0.0028277095
0.0020453262 0.004078669 -0.0028276588
0.0012852616 -0.0041000857 -0.002799748
0.0025741153 0.0079646436 -0.002793265
0.0040000002 0.0063624782 -0.0027861188
0.0036669541 0.004120192 -0.0027735459
0.0040000002 -0.0063356222 -0.0027510696
0.0040000002 0.0071049766 -0.0027348208
0.0040000002 0.0062747817 -0.0027208938
0.0005044248 0.0079959314 -0.0027177348
0.0030094418 0.0041896137 -0.0026830786
0.0040000002 -0.0058702771 -0.0026674017
0.0010998155 -0.0080293911 -0.0026369626
0 -0.0066544563 -0.0026122858
0.0040000002 0.006207332 -0.0026117985
0 -0.0073225019 -0.0025955616
0.0037923858 -0.0077536725 -0.0025450794
0 0.0054283715 -0.0025333068
0.0036517712 0.0079235239 -0.0024993455
0.0040000002 0.0065010143 -0.0024760182
0.0027889158 0.0081126485 -0.0024359755
0.0040000002 0.0065507926 -0.0024150484
0.0010384102 -0.0081270086 -0.0024013112
0.0040000002 -0.0073702447 -0.0024024372
0.00020627691 -0.004374675 -0.0023923879
0 0.0075083789 -0.0023885262
0.0024354989 0.0081390925 -0.0023721373
0.00073314266 -0.0044031478 -0.0023236468
0.0011031623 -0.0044039483 -0.0023217145
0.0026322308 -0.0044081495 -0.0023115724
0.0040000002 0.0070210146 -0.0022901839
0.00037850571 -0.0080541233 -0.0022624996
0 -0.0070709824 -0.0022246004
0.0019574116 -0.0082107084 -0.002197661
0.0034179217 -0.0082164314 -0.0021541808
0.00032497503 -0.004478727 -0.002141183
0.001793084 0.0044782828 -0.0021422554
0.0039727632 -0.0077316281 -0.0021309603
0.0040000002 -0.005757703 -0.0021334237
0.0040000002 -0.0057278285 -0.0020915924
0.0010592986 0.0045051374 -0.0020774219
0.00050972431 0.0082274787 -0.0020702626
0.0038383885 -0.0045129443 -0.0020585742
0 0.0060681193 -0.002050298
0.0040000002 0.0047260267 -0.0020467089
0.0026118602 0.0082327332 -0.0020303377
0.0020366956 -0.0082333134 -0.0020259402
0.0040000002 -0.0067846165 -0.0020268389
0.0023742067 -0.00453394 -0.0020078872
0.0032325659 0.0045332043 -0.0020096633
0 0.0070831697 -0.0020088975
0.00012143697 0.0045403256 -0.0019924711
0 -0.0047365231 -0.0019830307
0.00041196539 -0.0045589698 -0.0019474592
0.0038128411 -0.004570975 -0.0019184764
0.00347349 0.0082477685 -0.0019161184
0.0026727531 -0.0045841765 -0.0018866069
0.0040000002 0.0047534145 -0.0018864363
0.00052929641 -0.0045992411 -0.001850237
0.0023463762 -0.0045967316 -0.0018562954
0 -0.0053714779 -0.0018157488
0.00026662421 -0.0080321468 -0.0017811364
2.6450356e-05 0.0046441569 -0.0017418006
0.0040000002 -0.0062199058 -0.0017113496
0.0040000002 0.0073387134 -0.0017087475
0.0040000002 -0.0075356318 -0.001680252
0.0025236087 0.0046838224 -0.0016460392
0.0037497145 -0.0046889568 -0.0016336429
0.0023059589 -0.0082860515 -0.001625299
0.00088932109 0.0082870871 -0.0016174276
0.0025888982 -0.0082884319 -0.0016072226
0.0040000002 0.0051378543 -0.0016004284
0.00041335615 -0.0082058646 -0.0015762076
0.00082593574 0.0047112452 -0.0015798343
0.001270719 0.004723066 -0.0015512967
0.0005925658 -0.0047323164 -0.0015289647
0.0036260807 0.0047650971 -0.0014498244
0.0008163178 0.008309599 -0.0014464097
0.0033860379 -0.0083125895 -0.0014236993
0.0031924762 -0.0047803284 -0.0014130523
0.002616175 -0.0083170552 -0.0013897704
0.0027618334 0.0047900747 -0.0013895239
0.0026034371 0.0083203893 -0.0013644452
0.0015110207 -0.0083225947 -0.0013476885
0.0025073572 -0.0083236378 -0.0013397705
0.0029986098 -0.004831613 -0.0012788142
0 -0.0072295838 -0.0012601727
0 0.0054037655 -0.0012674812
0.0024461355 -0.0083354898 -0.0012497371
0.0037138071 -0.0081227589 -0.0012415528
0.0014714152 0.0083358008 -0.0012473704
0.0040000002 0.0048582554 -0.001233956
0.0040000002 -0.0069529745 -0.0011736501
0.0038098849 -0.0080366498 -0.0011657898
0.0038581204 -0.0079885377 -0.0011648256
0.0033923883 0.0048459712 -0.0011697722
0.00034597857 0.0081930524 -0.0011617275
0.0028227491 -0.0048472788 -0.0011598408
0.0015118185 0.0083481604 -0.0011534791
0.0018464843 0.0048494264 -0.0011435279
0.0034067093 0.004849609 -0.0011421416
0.0026148041 -0.008353306 -0.0011143895
0 -0.0078288345 -0.0010242689
0.0040000002 -0.0053170007 -0.001019476
0.003742588 -0.0048697027 -0.00098954211
0 -0.0063355789 -0.00093011168
0.0025179945 0.0083765965 -0.0009374576
0.0040000002 0.0059610908 -0.00090400857
0.0024937657 -0.0048844386 -0.00087762624
0.0015758268 0.004885226 -0.0008716528
0.0040000002 -0.005541116 -0.00086765183
0.0040000002 0.0077605271 -0.00084607064
0.0025240339 0.0083919717 -0.00082065567
0.00063895009 -0.0083932066 -0.00081127213
0.0016725073 0.0048955968 -0.00079288444
0.0015208736 0.0083953133 -0.00079527555
0.0040000002 -0.0052797282 -0.000776264
0.0040000002 -0.0072526 -0.00074336247
0.0038623272 -0.0049042213 -0.00072739081
0 0.0061578508 -0.00068030029
0.0033707563 -0.0049118255 -0.00066964066
0.0040000002 0.0077556879 -0.00064045086
0 -0.0057584369 -0.0006202457
0 0.0055182129 -0.0005888684
0.0040000002 0.0051780273 -0.00057602825
0.0029708799 0.0049260599 -0.00056153606
0.0040000002 0.0070740446 -0.00056676962
0 0.0053616362 -0.00055510976
0 -0.0076912311 -0.00041604653
0.0028035385 -0.0049498673 -0.0003807332
0.0040000002 0.0056932708 -0.00036268384
0.00060864358 -0.0049534333 -0.00035365252
0 -0.0058276309 -0.00034281934
0.0040000002 0.0056638257 -0.00034478793
0.0022231094 -0.0084579242 -0.00031963986
0 0.004974633 -0.00030950591
0.00084468065 0.0049610161 -0.00029606512
0.0040000002 0.0069305226 -0.00029409456
0 0.0073131365 -0.00028143218
0 -0.0065343506 -0.00027319195
0 -0.0075868065 -0.00026076473
0.00343851 0.004966191 -0.00025676316
0.0040000002 0.0065450864 -0.00021085264
0.00024501426 0.0049738125 -0.00019888551
0 0.0062693791 -0.00019218851
0.0040000002 0.0050501958 -0.00016850926
0 0.0053930436 -0.00012256361
0.0039250078 -0.0049849395 -0.00011438219
0.0035754398 -0.008412471 -9.1838694e-05
0 -0.0055912496 -9.6358541e-05
0 -0.0074944831 -8.4990148e-05
0.0040000002 -0.0052037686 -1.186353e-05
0.0039549419 -0.0080444608 4.5390448e-06
0.0023054096 -0.0049963305 2.7867563e-05
0.00014078832 -0.0049912739 6.6272296e-05
0 0.0053982385 6.3211563e-05
0.0039833221 0.0080069657 7.3781186e-05
0.0031377652 0.0084867049 0.00010099981
0.0040000002 -0.0058122068 0.00012493852
0.0019848531 0.0049834708 0.00012553258
0.000749139 0.0084820855 0.00013609149
0.0039377818 0.0080435565 0.00014176816
0.0040000002 0.0050561968 0.00016664594
0 0.0051860251 0.00020301349
0.0030549013 0.0049688886 0.00023627694
0.00042661245 0.0049672797 0.00024849363
0.0036756599 0.0082913516 0.00025060508
0.0020655876 -0.0049595013 0.00030756401
0.0040000002 -0.0070393775 0.00032481205
0 -0.0078918925 0.0004201883
0.0013240962 0.0084437886 0.00042701748
0.0030857131 0.0049394462 0.00045987815
0 -0.0070844502 0.00047305383
0.0038863409 0.0080456268 0.00051682326
0 0.0069987145 0.00054183713
0.00088938104 0.0049260147 0.00056188059
0.0028663313 0.0049198405 0.00060876895
0.0040000002 0.0066276193 0.0006098423
0.0034153066 -0.0084193312 0.00061282265
0.0029833138 0.0049144062 0.00065004377
0 -0.0072389352 0.0006666719
0.0040000002 -0.0060324692 0.000676175
0.00338544 -0.0084073963 0.00070348271
0 0.0068670255 0.00071203773
0.0040000002 0.0078611756 0.00071389158
0.0012799627 0.004899201 0.00076551596
0.0038367223 0.0080622528 0.00076745136
0 0.0076269703 0.00077770324
0.0036065432 0.0048937164 0.00080717087
4.7395817e-05 0.0048923353 0.00081765943
0 -0.0065350593 0.00082933356
0.00015453038 0.0080360826 0.00089969975
0.0022353744 0.0083735306 0.00096074591
0.0028229179 -0.0048720394 0.00097179489
0.0040000002 -0.006299804 0.0010498291
0.0036079006 0.0082541509 0.0010479556
0.0036860006 -0.0081731444 0.0010699348
0.0040000002 0.0058640842 0.001082389
0.00068095152 0.0083571635 0.0010850823
0.0020502328 0.0083573516 0.0010836554
0 -0.0075777574 0.0011591023
0.0032490876 -0.0048453519 0.001174469
0.0040000002 0.0060282014 0.0011704043
0 -0.0052567301 0.001196451
0.0015414816 0.0083430903 0.0011919974
0.0016547791 -0.0083410228 0.0012077017
0.00083310518 0.0048371525 0.0012367433
0.00023369346 -0.0080688 0.0012526117
0 0.0048647709 0.0012786854
0.00078211213 0.0048254617 0.001304092
0.0008828913 -0.0083238045 0.0013385023
0.0033270768 -0.0083214575 0.0013563291
0 -0.0064873351 0.0013852454
0 -0.0077915015 0.001392204
0 0.0054177954 0.0014170966
0.0040000002 0.0069696833 0.0014249805
0 0.0050958828 0.0014441722
0 -0.0063334247 0.0014636384
0.0040000002 -0.0059761805 0.0014658851
0 0.0060451948 0.0014673243
0.0040000002 0.0076159481 0.001475315
0.0032274765 0.0047350344 0.0015224019
0.0017309063 0.0047314451 0.0015310675
0.0040000002 -0.0060700108 0.0015468131
0.0020327594 -0.0046997485 0.0016075914
0 -0.0059952284 0.0016298043
0.0026483301 0.008286735 0.0016201063
0.0036512865 0.0046794103 0.0016566898
0.0023871723 -0.004674647 0.0016681908
0.00097462087 0.008278897 0.0016796479
0.0021225901 -0.0082773343 0.0016915218
0.0040000002 -0.0058963057 0.0017531598
0.0040000002 0.0063144085 0.0017656453
0.0040000002 -0.0074316352 0.0017776558
1.7554632e-06 0.0046156486 0.0018106255
0.00043575538 0.0081973691 0.0018109194
0 -0.0063362536 0.001834526
0.0030669626 0.0045999871 0.0018484343
0 0.0061104749 0.0018867604
0 -0.0069606346 0.0019043586
0.0017757512 -0.0082485108 0.0019104815
0.0040000002 -0.0063434499 0.0019137434
0.00041479027 0.0045657684 0.0019310474
0 0.0071194759 0.0019345132
0.0040000002 -0.0072857328 0.0019759124
0.0002771295 0.0045422395 0.0019878512
0.0036562991 0.0045294762 0.0020186629
0.0040000002 0.0074008461 0.0020160438
0.00067147776 -0.0082314229 0.002040294
0.0034750234 -0.0082307504 0.0020454051
0.0040000002 -0.0072093252 0.0020543577
0.0040000002 0.0076328036 0.0020644739
0.0014420873 0.0044955467 0.0021005771
0.0014913125 0.004489522 0.002115122
0.0014380962 -0.0044860528 0.0021234977
0.00094371644 -0.0044777896 0.0021434461
0 0.0064557386 0.0021672598
0 -0.0056198342 0.002184052
0.001115443 -0.0044609965 0.0021839889
0.0040000002 -0.0075890897 0.0022067428
0.002288437 -0.0044513894 0.0022071812
0.00054429646 0.0044512847 0.0022074345
0.0040000002 0.005308209 0.0022308764
0 -0.0069286302 0.002251619
0.0011575778 -0.00443041 0.0022578302
0.0040000002 -0.0057806685 0.0022707242
0.0022679598 0.004424138 0.0022729735
0.0014951072 0.0081751756 0.0022850321
0.0024936786 -0.0081646368 0.0023104739
0 0.0065213153 0.0023115964
0.00084401318 0.0081608919 0.0023195141
0.00044873607 -0.0043991012 0.0023334164
0.0022513797 0.0081551718 0.0023333221
0.002755902 0.0043924879 0.002349383
0.0020168566 0.008146422 0.0023544445
0.0035115487 0.0043795649 0.002380582
6.2930834e-05 -0.0076469677 0.0024278241
0.0040000002 0.0059642512 0.0024422733
0.00036495365 0.0079602785 0.0024539304
0.0028858776 -0.0043404582 0.0024749939
0.0040000002 0.0061710267 0.0024940304
0.0040000002 -0.0062649404 0.0025012917
0.0040000002 -0.0047332463 0.0025398452
0.0030647193 -0.0042941864 0.0025468024
0.002577048 -0.0042893514 0.002553103
0 0.007143951 0.0025675222
0.0040000002 0.0073372014 0.0025606919
0.0040000002 -0.0047983504 0.0025969252
0.0040000002 0.0060937521 0.0026159529
0 0.0059751989 0.0026305655
0.0017327884 0.0041973083 0.0026730511
0.003720399 -0.0041807131 0.0026946771
0.00028342084 0.0077701523 0.0027016685
0.00042154099 0.0079067536 0.0027297447
0.0013216934 0.0079936283 0.0027232966
0 -0.0056276303 0.0027748442
0.0035291668 -0.0079239402 0.0028159677
0.00018046243 0.0075880024 0.0028746473
0.0040000002 -0.0057624113 0.0028849565
0.0012096838 -0.0040315152 0.002889107
0.0036575487 0.0040381742 0.0028804296
0.0017016549 0.0040298225 0.0028913138
0.0040000002 -0.0062236101 0.0029111616
0.0033547967 -0.003987147 0.0029469272
0.0037132388 -0.0039877039 0.002946201
0.002878096 0.0039884024 0.0029452906
0.0034193087 0.0039916988 0.0029409949
0 0.0070596514 0.002944127
0.0016667972 0.003956758 0.0029865294
0 -0.0040442375 0.0029954056
0.0017682525 0.0078774141 0.0030038415
0.0035917857 0.0077748131 0.0030137494
0 0.0067599276 0.0030275628
0.002987921 0.0078614661 0.0030423412
0 0.0050125504 0.0030522796
0.0040000002 0.0056528999 0.0030511799
0.0040000002 -0.0061631417 0.0030830009
0.00083560398 0.0038827937 0.0030829171
0 -0.0059793959 0.0031033261
0.0010804099 -0.0078320904 0.0031132521
0.0040000002 -0.0040928475 0.0031276536
0.00027309396 -0.003831411 0.0031498775
0.0034708737 0.0038381445 0.0031411031
0.0011826673 -0.0038217078 0.0031625228
0.0032765528 0.0038171594 0.00316845
0.0040000002 0.0068667904 0.0032080247
0.0019392672 -0.0037719128 0.0032274139
0.0028352109 0.0037727191 0.0032263633
0.0021635354 0.0037668515 0.0032340097
0 0.0054969038 0.0032457446
0.0016329427 -0.0077561373 0.0032966072
0.0033238574 -0.0037178181 0.0032979089
0 0.0052562892 0.0032975487
0.0026732592 -0.0037095787 0.0033086459
0 0.0038121187 0.0033193622
0.00033474597 0.003696128 0.0033261746
0 0.0051322412 0.0033329825
0 -0.0046326611 0.0033799955
0.0017204887 -0.0076933475 0.0034481855
0.0033909678 0.0035863316 0.0034692585
0 0.0059222644 0.0035513497
0.0035988956 -0.0035009894 0.0035619824
0.0031042162 -0.00763884 0.003579767
0.0013444064 -0.0034872156 0.0035725515
0.00067471527 -0.0034639579 0.0035903987
0.0010224263 0.0034235928 0.0036213736
0 0.0054493332 0.0036376896
0.0040000002 -0.0049856333 0.0036401064
0.0012693905 -0.0033972117 0.0036416175
0.0010733369 0.0075976443 0.0036792164
0.00091223087 -0.0033416064 0.0036842858
0 0.0068376237 0.0037047362
0.0020834205 0.0032971953 0.0037183657
0.0040000002 -0.0057443702 0.0037231059
0.0040000002 -0.0068044844 0.0037447265
0.0012249909 -0.0032324486 0.0037680494
0.00028703507 -0.0032058002 0.0037884982
0 0.0055433363 0.0037825112
0.00071650016 0.0031894743 0.0038010261
0.0003489088 0.0073796618 0.003814003
0.0021480387 -0.0031627319 0.0038215474
0.0029233834 0.0075322241 0.0038371417
0.0018378744 0.0031361186 0.0038419692
0 -0.0042246245 0.0038599498
0 -0.0047649588 0.0038677247
0.00011726542 0.0031051103 0.0038657638
0.0038481397 -0.0030940974 0.0038742146
0 0.0066122613 0.0038837041
0.0040000002 0.0044856085 0.0038904992
0.0040000002 -0.0045331283 0.0039099883
0.0021676831 -0.0030386881 0.0039167334
0.0040000002 0.0054226583 0.0039157197
0.0036508886 -0.0029740182 0.003966358
0.0040000002 -0.0031536985 0.0039705425
0.0040000002 0.0043727504 0.0039726752
0.0040000002 -0.0037941057 0.0040064631
0.0040000002 -0.0055899434 0.0040596067
0.0035663093 -0.0028548818 0.0040577785
0 -0.0046888734 0.0040828246
0.0022351276 -0.0027839632 0.0041121985
0.0040000002 0.0067990567 0.0041393358
0.0040000002 -0.0058599552 0.0041461517
0.00039468374 0.0072835507 0.0041646198
0.0040000002 0.004422294 0.0041746865
0.0019921612 0.002691085 0.0041834689
0.0037953441 -0.0070218984 0.0042111985
0.0035604753 -0.0026474397 0.0042169616
0 -0.0066130413 0.0042410395
0.0032652714 0.0073559224 0.0042568776
0 -0.002792483 0.0042691282
0.0011486403 -0.002568074 0.0042778631
0.0040000002 0.0045541432 0.0042873574
0.0040000002 0.0056149592 0.0042880918
0.0040000002 0.0065981396 0.004281153
0.0008776281 -0.0073245247 0.0042977971
0.0027877656 -0.0025422329 0.0042976923
0 0.005090768 0.0043121539
0.0040000002 0.0051612887 0.0043206392
0.0025093397 0.002461243 0.0043461542
0.0036512762 -0.0024178571 0.004364125
0.00036902883 0.0023907768 0.0043753423
0.0038043119 -0.0068626418 0.0044041546
0 -0.0062333099 0.0044132369
0.0040000002 -0.002779396 0.0044136983
0 -0.0044126189 0.004444499
0.0026690364 -0.0022165005 0.0044475296
0.0038035144 0.0022216234 0.0044454075
0.0011953262 0.0022038941 0.0044527515
0.0016260815 0.0021614605 0.0044703279
0.0016923089 -0.0071799853 0.004486165
0.0037310647 0.0021086023 0.0044922223
0.0025259471 -0.0020178093 0.0045298301
0.00048382572 -0.0071203047 0.0045376038
0.0032771502 -0.0071281227 0.0045537534
0.0032692866 -0.0071215332 0.0045623407
0.0040000002 -0.0027229348 0.0045709983
0.0029599341 0.0071084388 0.0045794062
0.0027591467 -0.0018952608 0.0045805913
0.00067592575 -0.0018762253 0.0045884759
0 0.0064681028 0.0045982241
0.0025339499 -0.001831778 0.0046068868
0.0028533805 0.0018214138 0.0046111802
0.00039458566 -0.0069233864 0.0046489169
0.0027797851 0.0017282563 0.0046497672
0.0022763186 0.0017420886 0.0046440377
0.0024663832 -0.0070254169 0.0046876022
0.001525964 -0.0016216344 0.004693931
0.0021808099 -0.0016153225 0.0046965457
0.0025317194 0.007009889 0.0047078393
0.0031721538 -0.0015775489 0.0047121919
0.0024047657 -0.0015130232 0.004738919
0.00051914231 0.0015011367 0.0047438424
0.0024942115 -0.0014712492 0.0047562225
0.0039212531 -0.0014668116 0.00475806
0.0034476118 -0.0069621443 0.0047700615
0 0.0030260698 0.0047913669
0 0.0053189569 0.0047927629
0.0037394573 -0.0013538455 0.0048048529
0.00037038702 -0.0013417258 0.0048098727
0.0037771326 -0.0013123007 0.0048220614
0.00056063576 0.0013073153 0.0048241261
0 0.0027571851 0.0048331195
0.0027258552 -0.0011073451 0.0048541911
0.0020938481 0.0010623739 0.0048601124
0 -0.0035411741 0.0048851916
0.0016885854 -0.00086906023 0.0048855669
0.00063004659 0.00086239644 0.0048864442
0.00071829825 -0.00071485137 0.0049058725
0.0034563227 -0.00070220418 0.0049075377
0.0018970848 -0.0068499618 0.00491626
0.0039861971 -0.00061554729 0.0049189483
0.0039821402 0.00066136208 0.0049129156
0.0015751218 -0.00060409663 0.0049204561
0.0020650853 -0.00052794768 0.0049304832
0.0031971417 -0.00049086165 0.0049353661
0.0035585212 0.0067623137 0.004935178
0.0028408428 0.00038709465 0.0049490295
0 -0.0026576479 0.004959994
0.0022341011 0.000255947 0.0049662981
0.0028793074 0.00015592929 0.004979468
0.00034883933 0.00017361055 0.0049771406
0.0022895106 8.1964863e-05 0.0049892077
0.001745859 0.0001000453 0.0049868273
0.0040000002 -0.0033876142 0.0049970732
0 0.0010181229 0.005021282
0 0.0050787902 0.0050616111
0.003055667 0.0067395596 0.00506014
0.00014382445 0.0062766029 0.005083445
0 -0.0016193039 0.00511972
0.0040000002 0.0026287553 0.0051194709
0 -0.0051914593 0.0051294914
0 0.0043810084 0.0051442091
0.0040000002 0.004220583 0.0051510786
0 -0.0048432052 0.0051675923
0.00034298844 0.0064533134 0.0051774741
0.0040000002 -0.0011494014 0.005193918
0 0.0043844529 0.0051951841
0.0017280146 -0.0066253012 0.0052090436
0 -0.0008697671 0.0052239504
0.0040000002 -0.0037909714 0.0052963225
0.0040000002 -0.00094388961 0.0052933218
0.0012361952 0.0065620341 0.0052914955
0.0040000002 -0.0049072639 0.0053026769
0 0.00047200953 0.0053025354
0 0.0039033659 0.0053074323
0.0040000002 0.0011442564 0.0053482815
0.0040000002 0.0040646433 0.0053629004
0.00029407081 0.0062440024 0.0053706011
0.0040000002 0.0016067908 0.0053804219
0 0.0023040634 0.0053844312
0 -0.0036109302 0.0054090358
0.0023747641 -0.0064690993 0.0054126102
0 -0.00097670068 0.0054102875
0.0040000002 -0.0017844485 0.0054523954
0 -0.0053522661 0.0054679224
0.0038070013 0.0060454728 0.0054647555
0 -0.0010380474 0.0054977965
0.0040000002 0.00057610078 0.0055061001
0.0039014344 0.0058868518 0.0055177105
0.0023821432 -0.0063654017 0.0055477526
0 -0.0032153679 0.0055523673
0.0018478871 0.0063404171 0.005580313
0.0040000002 -0.004234483 0.0056232456
0 -0.0031355936 0.0056224111
0 0.001828622 0.0056203119
0.0040000002 0.0044971355 0.0056399754
0.0038219516 -0.005863226 0.0056779413
0 0.0013932504 0.0057172035
0 0.0031483024 0.0057464982
0.0040000002 -0.0021058458 0.0057760975
0 0.0010974359 0.0057779378
8.5314976e-05 0.0055721467 0.0058285273
0.0040000002 0.0016362022 0.0058582723
0.0040000002 -0.0051486054 0.0058657364
0.0038649803 -0.005580517 0.0058842096
0.0040000002 0.0013604938 0.0059173591
0 0.0040939674 0.0059337863
0.0040000002 -0.0028304686 0.0059924792
0.0040000002 0.0049285921 0.0060087447
0.0033065043 -0.0059969272 0.0060207383
0.001532454 -0.0059779785 0.0060352781
0 -0.0013852584 0.0060558808
0 -0.0043256246 0.0060871877
0 -0.0013074384 0.0060970606
0 0.0033416054 0.0061172727
0.0040000002 -0.0047567352 0.0061535714
0 -0.0038133534 0.0061767707
0.0040000002 -0.0015556968 0.0062256022
0.0012955442 -0.0057218829 0.0062317862
0 -0.0028310581 0.0062536444
0.0038662218 -0.0050515314 0.0062885364
0 0.0036836891 0.0062832395
0.0023771822 0.005643093 0.0062922449
0.0015446015 -0.00562419 0.0063067488
0.0040000002 -0.004542808 0.0063019004
0 -0.0033017343 0.0063005867
0 -0.00086517754 0.0063559674
0.0040000002 -0.0020689806 0.0063616629
0.0040000002 -0.0044634324 0.0063759149
0.0040000002 0.00077365956 0.0063791932
0.00022089046 -0.0050605601 0.0063904529
0.0020812303 0.0054683108 0.0064263595
0.0029826583 0.0054747756 0.0064213984
0 0.0021102324 0.0064724763
0 -0.0019114007 0.0064807562
0 0.00046989764 0.0065056155
0 0.0042685359 0.0065153767
0.0034860198 0.0053492174 0.0065177423
0 -0.0013425063 0.0065339725
0.0034138111 0.0053326343 0.0065304674
0.0018686419 -0.0052552749 0.0065898276
0.002531826 0.0052593821 0.0065866755
0.0040000002 -0.0015592013 0.0065900013
0.0040000002 -1.022231e-05 0.0065985238
0 0.0035785215 0.0066139936
0.0033090364 0.0052117733 0.0066232067
0.00046162528 0.0051381905 0.0066317134
0 -0.0028379294 0.0066449926
0 -0.001808962 0.0066565308
0.0040000002 4.7465866e-05 0.0066772103
0.00030295152 0.0048079779 0.0066868053
0 -0.0033048203 0.0066935429
0.0018006735 0.0050872066 0.0067187902
0 -0.0014799366 0.0067242444
0 0.0039607678 0.006749331
0.0040000002 0.00070324197 0.0067503639
0.0040000002 0.0014931971 0.0067572026
0.0040000002 0.0038880557 0.0067764428
0 0.0017340747 0.0067842822
0 0.0012533199 0.0067942911
0 0.00064484292 0.0068146996
0.002942814 0.0049629272 0.0068141529
0.0040000002 3.6508533e-05 0.0068285442
0.0029579536 -0.004866113 0.0068884408
0.0019758593 -0.0048613655 0.0068920841
0.0010020419 -0.0048382632 0.0069098114
0.0040000002 -0.0018955631 0.0069079776
0 0.0015937707 0.0069188173
0.0040000002 -0.00059436611 0.0069650165
0.00061701302 0.0047620027 0.0069683278
0.00298943 0.0047708894 0.0069615087
0.0035244001 -0.0046691247 0.007009103
0.00016760909 -0.0041259378 0.0070410199
0.0028179691 -0.0046471548 0.0070564533
0.00047369319 -0.0046027661 0.0070576393
0.0039925394 -0.0036702256 0.0070728078
0.0040000002 -0.00049920444 0.0070911013
0 0.0022266789 0.0071076625
0.0023436565 0.0045371866 0.0071408348
0.0011295574 0.0044759866 0.0071877944
0.001261063 0.0044599832 0.0072000744
0.0040000002 0.0015304302 0.0072184633
0 0.0022534756 0.0072111511
0.0039577102 0.0033731193 0.0072332537
0 3.9254732e-07 0.0072426992
0 0.00056023052 0.0072421962
0.0040000002 -0.0027278345 0.0072537721
0.0004014076 0.0041759838 0.0072860592
0.0013158777 -0.0043333885 0.0072972141
0.00013072102 -0.0034548719 0.0072942823
0 -0.0027094248 0.0072981426
0.0015448848 -0.0043222164 0.0073057865
0.0036474175 0.0039392612 0.0073317257
0.0040000002 -0.00084015564 0.007347791
0.0040000002 -0.0023976939 0.0073553156
0.0040000002 -0.002276893 0.0073683048
8.1766259e-05 0.0031179322 0.0073813233
0.0015699621 0.0041196211 0.007415209
0.0033318901 0.004092399 0.0074264854
0.00017857268 -0.0032271564 0.0074399575
0.0021740936 0.0039836341 0.0074715409
0.0037929416 -0.0031859728 0.0074876035
0 0.00080112199 0.0074878009
0.0039414898 0.0026982867 0.0075301919
0.0011025248 -0.0038134465 0.0075420397
0.0010691416 -0.0038069435 0.0075447336
0.00077080034 -0.0037250603 0.0075786533
6.2898376e-05 -0.0025938645 0.0075781499
0.0038746675 -0.0027426558 0.0075835274
0.0040000002 -0.00092723622 0.0076596807
0.0010860723 0.0035444982 0.0076534501
0 -0.0020836231 0.0076824347
0.0017891946 0.0033813049 0.0077210516
0.0040000002 -0.00042646911 0.0077535082
0.0017223676 0.0031574408 0.0078137862
0 -0.00052044069 0.0078365514
0.0038374774 0.0022331425 0.0078344913
0.0030710709 -0.0030794125 0.0078461096
0.0036497633 0.0026838901 0.007849236
0.0025245124 0.0029618535 0.0078948066
0.0027523863 0.0029333916 0.0079065971
0.0032154289 -0.0028804743 0.0079285176
0.0012492689 -0.0028769609 0.0079299733
0.00038787644 0.0025887776 0.0079290289
0.0038894014 -0.0013380604 0.0079344474
0.0039439783 0.0009139278 0.0079357047
0.0038443818 -0.0014447264 0.0079654278
0.0024373271 -0.0027761867 0.0079717189
1.8760891e-05 0.00030993283 0.0079779578
0.0014000221 0.00265268 0.0080228802
0.003464916 -0.0025491666 0.0080657601
0.0037103994 0.0016211466 0.0080761928
0.00023337292 -0.001097906 0.0080888318
0.00022659729 -0.00087593013 0.0081112785
0.0021966335 -0.0023835127 0.0081343809
0.0009425907 0.0023209581 0.008160294
0.0034668532 -0.0022963551 0.0081704855
0.00069258682 -0.0021367369 0.0082187271
0.00094110327 0.001939054 0.0082447492
0.0023430921 -0.001753393 0.0082691899
0.0013723379 -0.0017200023 0.0082735857
0.0018152421 -0.0016858333 0.0082780831
0.0010755055 0.0017425917 0.008270612
0.002507638 -0.0016511185 0.0082826521
0.00064733735 0.0015453451 0.0082965773
0.0026379619 0.0015802829 0.0082919775
0.0019882109 0.0014196017 0.0083131287
0.0035935012 -0.00060620607 0.0083267009
0.0020591337 0.0013323663 0.0083246119
0.0016429339 0.0011789257 0.0083448105
0.0030054839 0.0010110571 0.0083669089
0.001993594 0.0010434956 0.0083626388
0.0030804593 0.00083700835 0.0083898194
0.0021261054 -0.00074281619 0.008402219
0.0028305692 -0.00074351026 0.0084021278
0.00060196867 -0.00019005813 0.0084749814
