# .PCD v0.7 - Point Cloud Data file format
VERSION 0.7
FIELDS x y z
SIZE 4 4 4
TYPE F F F
COUNT 1 1 1
WIDTH 1000
HEIGHT 1
VIEWPOINT 0 0 0 1 0 0 0
POINTS 1000
DATA ascii
0.011683092 -0.010031208 -0.0063731242
0.0067919134 0.0030889767 -0.01209335
0.0049999999 -0.0083487984 0.0089468574
-0.0006909392 0.011130217 0.025636084
0.0049999999 -0.012844713 0.0031574268
0.013175838 -0.0019837688 0.0045439303
-0.0049999999 -0.0087330788 -0.026784237
-0.0049999999 -0.028436543 0.005145025
-0.0049999999 -0.0062445197 -0.021392656
-0.0049999999 0.0049762456 0.00028661013
8.3969295e-05 0.027487068 0.004066939
0.0049999999 -0.015147414 0.01923259
0.0049999999 0.010514224 -0.0070211948
0.015 0.0092017362 -0.0050108843
0.0049999999 -0.0055317939 -0.011514042
0.0049999994 0.025271865 0.0087805195
-0.0049999999 0.027055858 0.01166828
-0.0050000004 -0.019362252 0.012222095
0.013979247 0.0070365663 0.0078681875
-0.0050000004 0.0079447916 0.023513844
-0.0049999999 -0.02846298 0.00024336448
0.0059999996 -0.0071685677 0.0065750354
0.0050000004 -0.0064550433 0.0044653988
0.0090094721 -0.0027805029 -0.0041148541
0.0049999999 0.024826322 -0.016151495
0.0024321019 0.01130972 -0.027737299
-0.0019465609 -0.028770814 -0.0045622345
-0.0049999999 -0.010040031 -0.018171839
0.010290072 -0.012227233 -0.0020720558
0.0083822096 0.0086239092 0.0045000007
0.0097391242 -0.01083114 0.0018119267
0.0059999996 -0.0096860556 0.0021755439
0.0049999999 -0.012565634 -0.012656257
0.011904231 -0.0027501942 0.012137949
0.013866448 -0.0099403122 0.0051566656
0.013967797 0.0080382721 0.00050000043
0.0024056374 -0.027580114 0.011570423
0.0049999994 -0.0025684673 0.017627653
-0.0049999999 -0.0022792083 -0.013313425
0.0049999999 -0.00033547307 -0.025006985
-0.0049999999 0.0257449 0.005174526
-0.0030230985 0.030991917 -6.1405539e-05
-0.0011134003 -0.0099430447 -0.026338385
0.0049999999 -0.027219899 0.0038348022
0.0041144793 -0.011719692 0.028412653
0.0028023247 0.017670769 -0.024998253
-0.0050000004 -0.016238751 -0.021507272
0.013572891 -0.010649098 0.0072749075
-0.0049999994 0.019014608 -0.018774599
-0.0026372403 0.016423319 -0.025598137
-0.0027385685 -0.030657189 -0.00065374939
-0.0049999994 -0.0071938033 -0.027710045
-0.0049999999 -0.0019099989 0.013939327
0.012741846 -0.0039672595 -0.011770864
-0.0049999999 -0.023877213 0.019369837
-0.0049999999 -0.019639418 -0.008446767
0.011988113 0.010317898 -0.0048004887
-0.0049999999 -0.026749372 0.01501768
0.0041025183 -0.015944816 0.026505483
0.0049999999 -0.0084910188 -0.012484176
0.0049999999 -0.0016738626 0.0067212628
0.0049999999 0.014076282 -0.016597304
-0.0047257622 0.025542233 0.017200133
0.0092321001 0.010816932 0.0044556023
0.010298965 0.0047262227 -0.001543675
-0.0036376452 0.0047860532 -0.0013992314
0.015 -0.0074448697 0.0078863669
-0.0028115876 0.022056518 -0.021530615
0.0091033122 -0.0034157706 -0.0036273757
0.014799068 -0.0055568726 -0.00050000026
0.0013674847 -0.026774328 -0.009548815
-0.0050000004 -0.012241984 -0.007221512
0.0050000004 0.00090595632 0.015233262
0.00027076722 -0.0049372045 -0.00047704927
-0.0029171673 0.030250438 0.0056935018
-0.0027113976 0.02108866 0.022178784
0.0049999999 0.010735581 0.0019027266
0.0049999999 -0.020034352 -0.018196799
0.0050000004 -0.019331539 -0.02179441
0.002079295 -0.02037161 0.021360807
0.0025000684 -0.01948812 -0.022949506
0.0049999999 -0.010960436 0.016502513
0.0029785077 -0.0049857399 0.00010829847
0.001514319 -0.0013440148 -0.028605299
0.0049999999 0.018118884 0.012287477
0.001311784 -0.028436281 0.0010896374
-3.5563291e-05 0.0218082 -0.017196069
0.0019536121 -0.013237651 -0.026049323
0.0043743942 0.026466873 0.01599513
0.013454939 0.004926078 0.00056166016
-0.0049999999 0.014668556 0.0043950388
-0.004612078 -0.018192273 0.024780935
0.015000001 0.0074056922 -0.00086766033
-0.0049999999 -0.026436344 -0.015473455
0.0094401743 -0.011544287 -0.0045142528
0.0049999999 0.025436528 -0.016143797
-0.002697553 0.029734069 -0.007125889
0.0027253185 -0.010795549 -0.028495289
0.010247633 -0.010814169 0.00049999956
-0.0049999999 0.005492826 -0.0088392906
0.0049999999 -0.024047382 0.016364655
0.014999999 0.0097352201 0.001559721
-0.0049999999 -0.0032535412 -0.019015174
0.0049999999 0.028314229 -0.0052809413
0.0049999999 0.01830576 -0.0086566601
-0.0016244561 -0.01361659 -0.025365127
-0.0035171087 -0.022479884 0.021191044
0.0084311124 0.0030983679 -0.0038709375
0.0049999999 0.021779815 -0.0095988596
0.0049999999 0.011715997 0.00641766
0.013406059 0.00068349938 0.01241002
0.0078089079 -0.0055387211 -0.01111993
0.0049999999 -0.015760656 -0.012398888
-0.0049999999 -0.020256132 -0.0019682522
-0.0049999999 0.023188176 0.00156864
0.0049999999 -0.0035755322 0.021583425
0.0049999999 -0.0040580044 -0.022084387
0.0049999999 -0.0096233571 0.028028939
0.0050000004 0.029694295 -0.0030996238
0.0034795019 -0.030397937 0.0045731408
0.0022611639 0.012362603 0.026983442
0.0050000004 -0.024607992 -0.011166972
-0.0015850638 0.019153574 -0.021360204
0.0050000004 -0.019235846 0.0084166965
0.0049999999 -0.0080791702 -0.029715948
0.014999999 0.0074497918 -0.0032649913
0.015 0.002778443 0.0052662012
0.0049999999 -0.011236423 -0.015543591
-0.0049999999 0.023420604 -0.010353112
-0.0049999999 -0.014665074 0.0076581272
0.0049999999 0.017604625 0.016715819
-0.0049999999 -0.0016263863 -0.030760271
0.0049999999 0.0041819145 -0.013665303
0.0049999999 -0.016016115 -0.019704495
0.0023866321 -0.0021828332 0.029846311
0.0049999994 0.011588113 0.0065412144
0.0049999994 0.027403681 0.004717018
-0.0026405232 0.028079098 0.01141982
-0.0049999999 -0.0059381975 0.0038690865
-0.0049999999 0.022732178 0.0075304322
0.0049999999 0.022042492 -0.0013112646
0.0049999994 -0.0068672728 0.018550232
0.0049999999 0.011215289 0.0087507023
-0.0049999999 0.0022704983 0.019384934
8.561289e-05 -0.027336899 0.0052108499
-0.0049999999 0.017896643 -0.01217295
-0.0049999999 0.0093468707 0.0022648999
-0.0022489519 0.0090800896 -0.028320409
0.0049999999 -0.0020361224 0.017690651
0.0049999999 -0.016414259 -0.0042217704
-0.0010883973 0.013857096 0.024690345
0.0049999999 -0.022625139 -0.0037113375
-0.0049999999 -0.019810705 -0.0053145266
0.0074622631 -0.0064443937 0.0054875691
-0.0021486527 -0.0043788999 -0.029144991
-0.0049999999 -0.009949103 0.027682837
-0.0021778112 -0.028182959 0.0090926737
0.0049999999 -0.016804948 -0.0088501861
0.010602939 0.0063749552 -0.00049999979
-0.0049999999 -0.010015861 0.020810366
-0.0049999999 -0.017102301 -0.011380737
-0.0017323211 0.00025190372 0.02896722
0.0049999999 0.014975959 0.018636705
0.0060000001 -0.0023961421 0.0099797864
0.0015009141 -0.0025646617 -0.0042804815
0.0050000004 -0.014548773 0.015880391
-0.0049999999 -0.012084491 -0.018143967
0.0026769631 -0.021347933 -0.021905307
0.0049999999 -0.010101727 -0.011804443
0.0019612047 0.019885458 0.021478238
-0.0049999999 -0.0049452656 0.0031537449
0.012083453 -0.008289 0.0016874368
0.013504176 -0.0048406641 0.0012101071
0.0049919472 -0.020704806 0.022852989
0.0089092376 -0.0096933646 0.00078641606
0.0021865899 -0.009215273 0.0281485
0.015000001 0.0094451867 -0.00090289692
0.0035503937 -0.022484519 0.021185003
0.013835948 0.0038019922 -0.011839322
0.0021451961 -0.022160517 -0.019515287
0.0014606616 -0.019133953 0.021219816
-0.0049999999 -0.011874747 -0.023098057
0.00060346368 0.00051850168 -0.0049317265
-0.0021196529 0.029497612 0.0013190102
-0.0045346175 0.030956816 0.00032803582
0.0049999999 -0.015340678 -0.0039023892
-0.0049999999 -0.0054434054 -0.026064618
0.0049999994 -0.0051943744 -0.029650079
0.0042048688 -0.0072341859 0.030047603
0.0049999999 -0.025144711 -0.017484428
-0.0049999999 -0.011674122 0.014194484
0.0023420036 -0.015651012 0.025551682
-0.0025509624 -0.029420363 0.0075800996
0.0049999999 -0.0064113489 -0.013810124
0.01151072 -0.010723874 -0.0041886801
0.0022198979 0.029580493 -0.0020082241
-0.0049999999 0.026910219 -0.010333288
0.0049999999 0.0050780461 0.0038275127
-0.0049999999 -0.011127567 -0.011552024
0.0026038808 0.029521905 -0.0075050383
0.0029257191 0.030287778 -0.0054099048
0.0049999999 -0.014963979 -0.0075591439
0.002718338 -0.0049255239 0.00056560838
0.0049999999 0.0037091093 0.0057826792
-0.0049999999 0.022982404 -0.0096771624
-0.0049999999 0.014677581 0.0032769614
-0.0045136781 -0.027617959 -0.013638256
0.0015544839 -0.015207852 0.024349626
0.0039590993 0.0038773534 0.030489538
0.0049999999 0.026706493 0.014787821
-0.0037788711 -0.0037112192 0.0033065083
0.0080668088 -0.0045378972 0.001998333
0.0049999994 0.023903513 -0.0065840394
0.010247532 -0.0055332482 0.005918859
0.0098012201 0.012130602 0.00050000055
0.0050296756 0.0046746484 -0.0016681862
0.010364201 -0.0096133063 -0.0055000009
-0.0045430637 -0.030104531 0.0068017719
-0.0050000004 -0.0019558677 -0.014835963
-0.0050000004 -0.0097388672 -0.0095839128
-0.0049999999 0.017872559 -0.0017066355
-0.0049999994 -0.0027591549 0.026609741
0.0049999999 -0.0033934934 -0.013288857
-0.0049999994 0.029333821 0.0017352528
0.0049999999 -0.020498564 -0.012237418
0.0050000004 -0.0019590349 0.019026345
0.0023825394 0.0076835682 0.029115018
0.0049999999 0.02097963 -0.017556572
0.0049999999 -0.028815981 0.0079156756
-0.00015160903 0.025827188 0.010294436
0.00042762238 0.0036889652 -0.027628928
-0.0041216798 -0.028565733 -0.011350126
0.0021636724 0.028843408 -0.0068671219
0.0036194099 -0.0083905943 -0.029791607
-0.001399604 0.026106689 -0.01124387
-0.0050000004 -0.014562075 -0.015192817
-0.0049999999 0.027845176 0.0048414874
-0.0049999999 -0.0086504817 -0.027566703
0.014461624 0.011535374 0.0045000007
0.0067622256 -0.0076606967 0.0070492914
-0.0022065639 -0.0095143989 0.028061725
0.0049999994 0.02966244 0.00077764899
-0.001970527 0.026158812 0.013049232
-0.0049999999 0.0089140823 -0.0070388368
0.0027378008 0.021778539 0.021684743
0.0050000004 0.015284888 0.012108935
0.0049999999 -0.017787511 -0.0088277357
0.0052657612 -0.0046626856 -0.0016970676
-0.0047384417 0.0046292464 -0.030390549
-0.0033924077 0.0049161711 -0.00063663628
-0.0049999999 -0.015453961 0.02231784
-0.00018826322 -0.022365632 0.016536254
0.0019981556 0.025743045 0.014176957
-0.0049999999 -0.026949061 -0.001751577
0.014411492 0.0083276527 0.0081386091
0.013780486 -0.008671416 -0.0089672599
0.0049999994 -0.0056469091 0.011014401
-0.0049999999 -0.014355854 0.026495801
0.0049999999 -0.018375596 0.017488871
0.0049999999 0.017092282 -0.014367848
-0.0049999999 -0.012483043 -0.010698801
-0.0050000004 -0.011571486 0.020054974
-0.00070922065 0.01262164 -0.025023606
0.007364911 -0.0080992999 0.0084546916
0.0049999999 0.027280955 0.0010412828
-0.0049999999 -0.0074961982 0.027587995
-0.0018390213 0.020819062 -0.020399846
0.0052579339 0.010948589 -0.0059523634
0.0049999999 -0.0022086035 0.024895269
-0.0049999999 0.014634118 0.0072991452
-0.0049999999 0.01425704 -0.015703162
-0.0049999999 0.0043049399 0.0054920572
0.0049999999 0.0023392863 0.0092783943
0.0049999999 0.014825291 -0.020238107
-0.00036052181 -0.019998934 0.019695796
0.0049999994 -0.025940286 -0.0025361946
-0.0049999999 0.0035300925 0.0048304591
-0.0049999999 0.0063133873 -0.0093877921
0.0049999999 0.014617513 0.015684929
-0.0049999999 0.027907539 -0.001247781
0.0049999994 -0.023603261 -0.010749077
-0.0049999999 -0.0036064035 -0.020374147
-0.0049999999 0.0077845114 0.027447309
0.0050000004 -0.017345576 -0.014820842
0.0073448964 0.012136235 -0.0027632462
0.015000001 0.0092366291 0.0042534648
0.0021830248 0.027468899 0.010839975
-0.0049999999 0.014343156 0.00350626
0.0011194325 -0.027952569 -0.0033026896
0.0049999999 0.010445939 -0.02832129
0.0099521987 -0.0050721201 0.010634093
0.0049999999 -0.014067378 0.0046724863
0.0090141743 0.0084955841 -0.0077392994
0.012029219 -0.009841891 0.0038787278
-0.0033157864 0.012424421 -0.028120745
0.0041330303 -0.030251293 0.0056870067
-4.1900843e-05 -0.018809006 -0.020572679
-0.0021626044 -0.018984234 0.02260571
-0.0049999999 -0.022800682 -0.0099343434
0.0035796331 0.0037627604 -0.0032393418
0.0049999999 0.0215746 0.019834185
-0.0049999999 0.025807114 0.0024659175
-0.0049999999 -0.0030475026 -0.012862504
0.011297746 -0.0093568917 -0.0055000009
0.015 0.0056829024 -0.0085469894
0.0049999999 -0.013294756 0.018820912
0.015000001 0.00012885238 0.0082671344
0.0026897734 -0.030566258 0.00070249324
0.015 -0.0098830964 -0.0056309071
0.00158778 -0.02750719 0.0083501609
0.0049999999 0.015821317 0.025481945
-0.0049999994 0.0094614094 -0.019204076
0.0049999999 -0.013305208 -0.017969284
-0.0049999999 0.017645366 0.0034443554
0.0025141088 -0.022662444 0.019901806
-0.003731783 0.028802453 -0.010778626
0.0049999999 -0.02094122 -0.0108523
-0.0049999999 0.025406107 0.012431808
0.013870601 0.0080534611 0.00050000037
0.0049999999 0.017365085 0.0036845903
-0.0049999999 -0.011164608 0.00068678806
-0.0050000004 0.0057847472 -0.0039733751
0.0049999999 0.022226041 -0.0025553978
-0.0049999994 -0.0014124 -0.029634198
-0.0049999999 0.0092554288 0.02909499
0.0095747141 0.0077109858 -0.0074579692
-0.0049999999 0.022504769 -0.020562448
0.014999999 0.0068698525 -0.0019493025
-0.0049999999 0.0022345451 -0.0080451295
-0.0026595856 -0.0028287496 -0.0040778313
0.012242865 0.0100819 0.0045000007
-0.0049999999 -0.02274376 -0.014441132
-0.0023892163 -0.020042354 -0.022284284
0.0044861091 0.023515524 0.019841377
0.00032171723 0.0097479252 -0.026102461
-0.0049999999 0.0010906328 0.02833843
0.003924604 -0.0026765547 -0.030647626
0.0023462388 -0.026918413 -0.012901377
-0.0014780627 0.028524328 0.0016836969
-0.0049999999 -0.02028954 0.019948525
0.0087599149 0.009188124 0.00050000043
0.0049999999 0.0063024135 0.024755873
0.0049999999 0.021698158 -0.017867899
0.01367137 0.012210388 -0.0022000065
0.0049999999 -0.011931458 -0.025262717
0.012007542 -0.0058684824 0.0069101835
-0.0049999999 -0.018737953 -0.020118903
0.0049999999 -0.019368161 -0.011839349
-0.0028693723 0.026620524 -0.015745725
-0.0049999999 -0.019169156 0.014429295
0.011585048 0.0051569073 0.0050970879
0.0049999999 -0.0035893852 -0.024734711
0.015 0.0044451724 -0.0088873506
0.0049999999 -0.00040560056 -0.014617594
0.0010084797 -0.0036037767 0.0034465243
-0.0049999999 0.012047709 -0.008799254
-0.0049999999 0.00095176848 0.0081647318
0.0049999999 -0.019620644 -0.0020611268
0.0062865918 -0.0016815745 0.0046691028
0.010777699 0.012288901 0.001603652
0.0069174082 -0.007692446 0.0044999998
0.011463866 -0.0070074624 0.0044519664
-0.0049999999 -0.0029690792 -0.012985717
-0.0049999999 -0.0062013236 -0.0042797248
0.0022031774 0.014378061 -0.026040832
0.0049999999 0.0096885618 0.023184128
0.0076666111 -0.010852172 0.0083418889
0.0049999999 -0.017407889 -0.021328347
0.0049999999 -0.028460287 0.00042859107
0.0049999999 -0.0082861017 0.029136976
-0.0049999999 -0.020026809 -0.013068506
-0.0049999999 -0.011408464 0.027356174
-0.0049999999 0.014753272 0.026027247
-0.0021766673 -0.02939368 -0.0028585549
0.0025896549 -0.021124715 -0.021887604
0.0025098587 0.017567668 0.024444321
-0.0049999999 0.01437495 -0.0075635077
0.014999999 -0.0081880726 0.0037519119
0.0059999996 0.0016211444 0.0089308098
0.0088161118 -0.012058483 0.006597735
-0.0049999999 -0.015302626 -0.00071248354
0.0021871638 -0.029141685 0.0049106618
0.0020861356 0.029233214 0.0028862318
0.0049007945 -0.0069470177 -0.030085413
0.0023865872 -0.026614008 0.013817327
0.0089863054 0.0039259186 0.0030267178
0.0013707243 0.0029792807 -0.0039623203
-0.0049999999 0.0043382314 -0.018259168
-0.0012362667 -0.028085241 -0.0031824226
-0.0049999999 -0.0048628459 0.020923747
-0.0049999999 0.020510327 -0.010859196
-0.0049999999 0.027948644 -0.00026675477
-0.0025731723 0.024667349 -0.017455589
-0.0049999999 -0.018633146 -0.0003322837
0.012567302 0.0055875471 0.0064487257
0.0049999999 0.013790268 -0.024826668
-0.0049999999 -0.0083613126 0.0060861083
0.014363847 0.0073869126 0.00050000031
-0.0049999999 0.011062901 -0.011557877
0.0049999999 -0.0059732031 -0.014532087
0.0084009971 0.0121831 0.0024072784
-0.00080281514 -0.02088272 -0.018737063
0.0080572134 0.0020195188 -0.012234139
0.0049999999 -0.017824726 0.011084385
0.015 0.0014166968 0.006959735
-0.0049999999 0.022765428 0.00019951505
-0.0019725966 -0.0013154733 0.029243369
0.0023678117 0.030062847 0.00029045064
0.01481369 0.011633944 -0.0034850745
-0.0049999999 -0.0087434025 0.005164634
0.011381539 -0.0041764714 -0.011684204
0.0066345837 0.0093607595 -0.0081585869
0.014999999 0.0079141203 -0.00053014775
0.0049999994 -0.00038533594 0.021301469
-0.0049999994 -0.0060382644 0.020356551
0.00085188891 -0.025742035 0.010986201
0.0098921768 -0.011299199 0.0004999995
-0.0038310592 0.016758483 -0.025881128
-0.0049999999 0.014590998 -0.025367787
0.0060000001 -0.0074196886 0.0016329838
0.015000001 0.010790152 0.0039985217
0.0049999999 -0.0057284045 0.001226626
-0.0018225323 0.0086528668 0.02770476
-0.0049999999 0.029761793 0.0079935174
0.0049999999 0.015795369 0.020778043
-0.0049999999 0.015256799 0.019446254
0.0062317196 0.0022181668 -0.0044468394
0.0049999999 0.0042300466 -0.019858262
-0.0049999999 -0.015166761 0.01038421
0.015 0.0012305556 0.00779186
-0.0049999999 -0.019510645 -7.299077e-05
-0.0049999999 0.029549319 0.0018866913
-0.0049999999 -0.022798318 0.012679732
0.0072918455 0.010322508 0.0076790606
-0.0049999999 -0.01164808 -0.02388344
0.0049999999 -0.00057199743 -0.02754627
0.013972033 0.0070191543 0.007699491
-0.0049999999 -0.017465252 -0.019980278
0.001836331 0.019058397 -0.021842569
0.0049999999 -0.02451021 -0.013830674
0.0050000004 -0.02367175 -0.0071898694
0.0049999999 0.0010007981 -0.012465955
-0.0017594417 0.0026410434 0.028699646
0.0049999999 0.014325189 0.01299556
-0.0049999999 0.01877721 0.0039585112
0.0075516747 0.0019455831 0.012243873
0.0049999999 0.0030897772 0.0062152953
0.0049999999 -0.008917639 0.00059945643
-0.0004178219 0.02287055 -0.015978428
0.0028153702 0.014817237 0.02699684
-0.0040072938 0.00374489 -0.030506978
-0.0049999999 0.017566347 0.016441202
0.01172549 -0.0074409652 -0.0010131394
-0.0049999999 0.0048700282 0.016810121
0.0049999999 -0.0077086254 0.006624206
-0.0049999999 -0.0098692225 -0.0012408615
-0.0049240235 0.022151858 -0.021618532
0.0025384817 0.024486596 0.017593283
-0.0049999999 -0.026402796 0.012767737
0.0049999999 0.00064434099 -0.013581729
0.0024504724 0.027267862 0.012525476
0.0003372728 0.022210298 0.01680373
-0.00063907512 -0.0073529058 0.027185759
-0.0042968518 0.028185174 -0.012268874
-0.0049999999 0.019156201 0.019686745
-0.001741425 0.0017710038 0.028782988
0.015 0.010804405 -0.0029545357
0.0025345227 0.0029412443 0.0039915079
-0.0049999999 -0.0073111826 0.023677977
0.0077721337 -0.0073264078 0.0044999998
0.00077880232 0.011598142 -0.025467541
0.0010248837 0.00063205679 -0.028209662
0.0049999999 -0.0043313019 -0.023318445
0.0049999999 0.0028925419 -0.018821752
-0.0049999999 -0.020402726 0.011458432
0.0049999999 0.012402332 0.00058026757
-0.00032123853 0.027322697 0.0057982439
-0.0010225622 0.017551858 0.021886388
0.010608114 0.0088326707 -0.0055
0.0027933347 0.02365117 0.019400943
0.0088110883 0.0068925102 -0.010332292
0.0049999999 -0.0072606197 -0.017078381
0.0028936497 0.026556276 0.015878618
-0.0049999999 0.0079498393 0.020564824
0.011861267 0.010809336 0.0085000005
0.0017360845 0.010836089 -0.026639752
0.0018213007 0.026094018 0.012536012
-0.0049999999 0.029021069 -0.001532392
-0.0049999999 -0.018594718 0.020992931
0.0049999999 -0.011489619 0.00060320506
-0.0037478688 -0.023422292 0.019962883
-0.0049999994 -0.02086062 -0.0088383611
-0.00057104888 0.027219949 -0.0070870663
0.013510562 -0.0077114366 -0.0097039072
-0.0049999999 -0.0059709954 -0.024021855
-0.0019946138 0.028445622 -0.0076364726
-0.0049999999 -0.004365196 -0.0068876008
0.0049999999 0.0063602328 0.0092327017
-0.0039155954 -0.030083433 0.0069620516
-0.0049999994 0.029166788 0.0049869488
-0.0041405605 0.021047657 -0.022589905
-0.0049999999 -0.013337595 -0.0081626717
0.0049999999 -0.0094093503 0.02838538
0.0049999999 0.023452571 0.017169224
0.0059398552 0.0082522212 -0.0092889229
0.012004303 0.0070521114 -0.010209842
0.007416137 0.012137991 -0.0027499045
0.0049999999 0.014157633 0.026229527
0.0096570458 -0.0038406348 -0.011823315
0.0049999999 -0.021773364 -0.0061357566
0.0049999999 0.015753385 -0.011382443
0.011999999 -0.0091534583 0.0063190204
-0.0049999999 -0.0055051986 0.0015521661
0.0098278029 -0.011135285 -0.0055016512
0.014999999 -0.0080750687 -0.0057649883
-0.0049999999 -0.0079693571 0.016018495
0.0049999999 -0.0078655137 0.0052109724
0.0049999999 -0.0068949061 0.022148436
0.013829337 0.010113013 0.0045000007
-0.0049999999 -0.027787328 -0.0023338264
-0.0045363898 0.030079769 -0.0069898823
-0.0049999999 0.012236317 0.023680458
-0.0049999999 -0.0028094805 -0.0058705979
-0.0049999994 -0.013369525 -0.021679459
0.0065949261 -0.0038188975 -0.003166185
0.012580991 -0.0065114344 -0.00050000031
0.0049999999 0.0082218228 -0.013921784
-0.00018068211 0.027428245 -0.0047105975
-0.0049999999 -0.02148594 0.014590221
-0.0049999999 -0.0055865366 0.018588917
-0.0015934987 0.0036615478 -0.0033712387
0.0077571236 0.0061059706 0.0058107022
-0.0019272228 0.022969788 -0.017845744
0.0049552047 0.023596743 0.019735532
0.0025378701 -0.0064647533 0.029544532
-0.0042495644 -0.0022742501 -0.004423609
0.0030331172 -0.0048939935 0.00080506201
-0.0049999994 0.0050927899 -0.013166072
-0.0039017464 -0.012551385 -0.028068153
0.012564587 0.010809048 0.0045000007
-0.0049999999 0.024025079 -0.015075013
-0.0049999999 -0.013394197 -0.022164309
-0.0045871702 -0.024188928 -0.018963784
0.0098057427 0.0071412669 -0.0012636208
0.012311972 -0.011909288 0.0083058393
0.0049999999 -0.010490831 0.011142984
-0.0049999999 0.013483549 -0.020345615
0.014999999 -0.0067262566 0.0052981884
-0.0049320823 -0.017892621 -0.025010865
0.0049999999 0.028579574 -0.0071724909
-0.00021063257 -0.0085819224 0.026553502
-0.0022360857 -0.00062027801 -0.029791269
0.0060000001 -0.0083715124 0.002178079
0.0049999999 0.0073758806 0.022352535
-0.0049999999 -0.0017207103 -0.022483872
-0.0049999999 0.022729374 0.005265797
0.0092952065 0.0074250801 -0.00018639136
-0.0050000004 -0.021049216 -0.0021327583
0.0030782006 -0.021327978 -0.022374809
0.0049999999 -0.004990086 0.011583013
-0.0049999999 -0.0061515304 0.0016795424
-0.0049999999 -0.0077737956 -0.02304361
0.0090987096 0.01109866 0.0045000007
0.0049999999 -0.019046044 -0.016387573
-0.0049999999 0.0088043185 0.0062225135
0.0049999999 0.0091587929 -0.012934898
0.0049999999 -0.028066652 0.0078886049
0.0049999999 -0.0023034767 0.030488472
0.0049999999 0.018812126 -0.022161342
0.0019195706 0.0039105057 0.0030468046
0.0049999999 0.0050303643 -0.015005255
0.0049999999 0.01558545 -0.017705081
-0.00040314914 -0.0037208484 0.0032939601
0.00081997795 -0.024962621 0.012845779
0.0049999994 -0.016394466 -0.014483491
-0.0049999999 -0.0042546759 0.0057793423
0.011923851 -0.0082643172 -0.00089598907
0.0087543763 0.0089667486 0.0025366133
-0.0049999994 0.017822715 0.0093005272
-0.0049999999 0.026882116 -0.0033359772
0.0049999999 0.0086746588 0.0037065488
-0.00022314368 0.0095590744 -0.026152356
-0.0046752295 0.0096304193 0.029278055
0.0059999996 -0.0011805332 0.008550657
0.011991906 0.0080942549 0.00093517895
0.011577934 -0.00018871909 -0.012475156
0.0026217441 0.025725493 -0.016213609
0.0019910382 -0.027774418 -0.0092408657
0.0075678905 0.0037214905 -0.011872667
0.0059999996 0.0082657458 0.0078851143
-0.0049999999 0.021570308 -0.0033419137
0.0059999996 0.0088765975 0.0046506007
-0.0049999999 -0.01404538 -0.013254482
-0.0049999999 0.0133634 0.0050099087
-0.0049999999 -0.013470829 0.011508031
-0.0049999999 0.013562686 -0.019887218
0.0066948938 0.0028059839 0.012130605
-0.00070410734 -0.027674381 -0.0039063003
-0.0013959811 -0.027933942 0.0055443784
0.0049999999 0.0094924029 0.019534558
-0.0049999999 -0.0011729861 -0.013322899
0.014999999 -0.0093975971 -0.0053117424
0.0049999999 -3.9505008e-05 -0.015286431
0.014999999 -0.00028062679 0.0069853249
-0.0025276598 -0.020678556 0.022095772
-0.0049999999 0.0099412957 -0.001118209
-0.0025897187 0.017922051 0.024345249
0.0014467476 -0.00073196739 -0.0049036187
0.0049999999 -0.0045692036 -0.016121008
0.0089546992 -0.0024608327 0.012176043
-0.0049999999 -0.0052186577 -0.011504102
0.015 -0.0072272629 -0.005691438
0.0049999999 -0.00069628912 0.009934593
0.0049999999 0.018175678 -0.003513335
-0.0049999999 -0.011731822 0.026194718
0.0090254257 -0.0084535982 -0.0060935305
-0.0026935642 0.028076638 -0.011663779
0.00074592594 0.02549573 0.011507257
0.015 0.0036359364 -0.011146958
0.0049999999 -0.020867124 0.01210348
-0.0049999999 -0.015243701 0.022070689
0.0089999996 -0.0086377608 0.0082041277
-0.0050000004 -0.0059521063 0.029158155
0.0049999999 0.025296347 0.0099589331
-0.0049999999 0.015785586 0.010255556
0.0049999999 -0.0054107076 0.027972631
-0.0049999999 0.02170004 -0.0022334578
0.00030354183 0.024814768 0.012844121
-0.0049999999 0.013301344 0.0026044124
-0.0011735283 0.027583191 0.0065190396
-0.0049999999 -0.010586127 0.016183287
0.0090122744 0.0047648577 0.0014504028
0.013916118 -0.0070281499 -0.00050000037
0.0050000004 0.0093516642 0.013200774
-0.0050000004 -0.025844356 0.0050544674
-0.0049999999 0.024120843 -0.017730376
-0.0049999999 -0.011821447 -0.00012627698
-0.0049999999 -0.015049325 0.025622485
-0.0049999994 0.0077386536 -0.019270277
-0.0049999999 -0.014570907 -0.021647295
0.0066215736 0.0080765374 0.0086831329
0.0019812852 0.0040421593 0.028899433
0.010859812 -0.010524273 0.0075934948
0.0049999994 -0.0077243373 -0.011071277
0.0050000004 -0.028213829 -0.0085437167
0.0090941433 -0.0075793965 -0.001272912
0.0094851181 -0.010408157 0.0018864851
-0.0049999999 0.010354236 0.012242523
0.012459327 0.0052571842 0.00050000026
-0.0049999999 0.0020892448 -0.022488501
-0.0049999999 -0.017939717 -0.014060475
-0.0049999999 -0.020346334 0.018748455
-0.003161378 -0.024097659 -0.019082731
-0.0049999999 0.012155986 0.02160031
0.0049999999 0.012299655 -0.006361437
-0.0049999999 0.0052385405 0.0017358013
-0.0049999999 -0.022682991 -0.017792851
-0.0049583977 0.027229378 -0.014576375
0.0049999999 -0.0099875908 -0.0092336852
-0.0049999999 -0.013872306 -0.006433621
0.0024885009 0.017801525 -0.024218645
0.010096114 -0.0070531392 -0.00069215335
0.010801363 -0.00017434359 -0.012477049
-0.0049999999 0.0059729209 0.00062476337
-0.0049999999 -0.0012141028 -0.017813252
-0.0050000004 -0.012233957 -0.00017979501
0.0049999999 0.0096299062 -0.01160061
-0.0049999994 -0.0082749045 -0.017727774
0.0049999999 0.020929463 0.016079223
-0.0049999999 -0.013999595 0.014006497
-0.0030099982 -0.0088807512 0.029588576
0.0062744613 0.011154088 -0.0054562553
-0.0049999999 -0.014991683 0.0027738526
0.010581282 0.010739304 0.003389318
-0.0049999999 0.016085729 -0.00582832
0.0049999999 0.012021197 0.0079783965
-0.0033330447 0.0097339014 0.02923519
-0.0016447741 -0.028779866 -0.0010088285
0.0025550013 -0.01324246 -0.027165173
-0.0042219963 -0.0028588576 0.030623628
0.0049999999 -0.017725142 -0.016482998
-0.0020884732 0.028894022 0.005493389
0.0073780818 -0.0036516653 -0.01190159
-0.0049999999 -0.013761392 0.022948632
-0.0049999999 0.0051033511 -0.027261104
-0.0033084056 -0.0031931822 -0.0037981812
0.0044177114 0.0094215404 -0.029364575
0.0049999999 0.0013697386 -0.018411394
0.0033174993 -0.021867102 0.021961119
-0.0015460211 -0.0018625037 0.028568735
0.002796453 -0.021827657 0.021786183
0.0049999999 -0.0060414034 -0.023287989
0.0085398033 0.0093025295 -0.0013882085
-0.0049999999 0.014472472 -0.003046375
0.012359362 -0.0029932468 0.0039516031
-0.0041368487 -0.00070980156 0.030906554
0.0049999999 -0.024899131 0.012378088
-0.0020697056 -0.0038769648 -0.0030905134
0.015000001 0.0080549726 -0.0055749952
0.011740463 -0.0060360385 0.0084622782
0.0050000004 0.011264961 0.019862967
0.0049999999 0.020874433 0.010077218
0.0069845095 0.0021595969 0.0044710995
-0.0049999999 0.0060856715 -0.0095452089
-0.0049999999 0.0097392173 -0.0032243708
0.014821405 0.0073307338 -0.00049999973
0.0036754068 -0.013019997 0.027874051
-0.0049999994 -0.0072783208 0.021124514
0.014999999 0.0015206052 -0.0049554748
0.0049999999 0.006004387 -0.011510917
0.015 -0.0014724184 -0.0076413522
-0.0049999999 0.011708965 0.013240125
0.013222352 0.010472144 0.00050000049
-0.0049999999 0.014218177 0.019034496
-0.002715532 0.020956643 0.022289032
0.0020492945 0.011363319 0.027003545
-0.0044989991 0.023555597 -0.019789156
0.0085378233 0.00022087892 -0.012470923
-0.0049999999 -0.026418269 -0.010581567
0.0049999999 0.017052911 -0.0077667814
0.0049999999 0.0014029647 0.020046551
-0.0049999999 0.0028509696 -0.011692471
-0.0033277192 -0.030339047 -0.0050204634
-0.00035117171 -0.010104644 0.025963193
-0.0049999994 -0.018948015 -0.01711946
0.0049999999 -0.0022483864 0.020540584
0.0027431133 0.007475317 0.029766982
0.0049999994 0.0077017737 0.022398842
-0.0049999999 -0.027970979 0.0079446258
0.0078065083 0.012427913 -0.00054776378
0.0049999999 -0.021434115 0.014403707
0.0071212226 0.0084853377 0.0082995733
-0.0049999999 0.0054299757 -0.022938157
-0.0013352762 0.0025342873 -0.028269574
0.014999999 -0.0039473139 0.0060441247
-0.0024262955 0.022192968 -0.020265939
-0.0049999994 0.013292842 -0.024451034
0.0034800514 -0.019310318 -0.023923026
0.0049999999 -0.016633557 0.01217412
0.0086944681 0.0092688166 0.0045000007
0.015000001 -0.0059233117 0.0010770877
-0.0050000004 0.018457491 0.017318141
0.0049999999 0.010836895 -0.014161639
-0.0049999999 -0.01019339 0.023153763
0.007623875 0.0048977681 -0.00077658071
-0.0049999999 0.021540338 -0.012425406
0.012396773 -0.007618804 0.0044999998
4.4650433e-06 0.0035109466 -0.027538961
0.0050000004 -0.0014468592 0.029766556
0.0078359544 -0.010334598 -0.00050000049
0.0085341111 0.0037095146 0.0033087293
0.0014866868 0.025781242 -0.012255064
0.0008370225 -0.023340572 0.015548846
-0.0049999999 0.00087254529 0.0097545972
0.015000001 0.0024066754 -0.0073539605
0.0059999996 0.0099196723 0.0027185143
0.0012074898 -0.0013681608 0.028295321
0.0014793292 0.01760719 0.022414662
-0.0049999999 0.010326277 0.019392237
-0.0049999999 -0.0041593905 -0.0285981
-0.00045366201 -0.027745888 -0.0028534133
0.0059999996 -0.011935251 0.0031034001
0.007361521 0.011333412 -0.0050233379
-0.0047746208 -0.0064827451 0.030146535
0.012194697 -0.0054094372 0.008909815
-0.00050213537 -0.0034373207 -0.027682027
0.0018207227 -0.028669432 0.0036767456
0.011676049 0.0044021201 0.002326129
-0.0049999994 -0.005871308 -0.026041772
-0.0025987118 0.0052402252 -0.029811122
0.0050000004 0.028517812 -0.0034032708
0.0049999999 0.023573587 0.013679365
0.0049999999 -0.023391906 0.013515041
0.015 0.0023065624 0.0077075851
0.012670505 0.011708454 0.0058064251
0.0049999999 0.029090824 0.006757285
0.0032922355 0.028684458 0.011063498
-0.0049999999 -0.024756806 0.0099944258
0.0060000001 -0.0072583728 0.0036205489
-0.0049999994 0.016013494 0.002985497
0.00014753023 -0.020092022 -0.019481519
0.0049999999 -0.00057597115 -0.024451615
-0.0049999999 -0.01247285 -0.023162339
0.0050000004 0.0079634758 -0.020168295
0.0049999999 -0.02094969 -0.0043323697
0.0015799245 0.027712395 -0.0078344001
0.0049999999 -0.016829809 -0.0078243092
0.0084892008 0.0010024766 0.012368028
0.0093282564 0.0079574436 -0.0043200045
-0.0049999999 -0.0055942405 -0.026668938
-0.0049999999 -0.0056128898 0.019891618
-0.0049999999 0.010218016 -0.0030754006
0.0049999999 0.011183507 0.02276117
0.0049999999 0.0047096889 0.025102006
0.00028978931 0.0029791151 -0.027685445
0.0050000004 -0.010146667 -0.018660596
-0.0049999999 -0.028589295 0.0016051825
0.0034056918 -0.020001709 -0.023392495
-0.0038577486 -0.028749257 -0.010907049
0.0049999999 -0.0053693769 0.01730749
0.0049999994 -0.0074596684 0.0073199039
0.0049999999 -0.017571384 0.017420378
0.0049999999 0.0095183449 0.00017875538
-0.0049999999 0.018619718 -0.011863796
0.0050000004 -0.026655242 0.00047284079
0.008862013 -0.010438951 0.0085000005
0.0049999999 0.011027577 -0.022943148
0.0049999999 -0.0035591747 0.01281159
-0.002947567 0.015235035 -0.026956555
0.0049999994 -0.0074814651 -0.014673629
-0.0025403814 -0.022513695 -0.020169768
0.01357993 0.0081440415 0.0045000007
0.012941726 -0.012212712 -0.00218235
0.0049999999 -0.011314923 0.0028400382
-0.0049999999 0.025242472 0.016240004
-0.0050000004 -0.010078348 -0.008411482
-0.0039950097 -0.030542037 -0.0034786097
-0.00098570809 0.0033505678 -0.0036774098
0.0049999999 -0.028478429 -0.0045909719
0.0050000004 0.0018509862 -0.022399336
0.012478975 -0.0088402042 0.00099247228
-0.0049999999 -0.025996888 0.010457884
0.0059999996 -0.0061464342 0.0065491786
0.0048154769 -0.014071131 0.027438657
-0.00012848928 0.0083990991 0.026605597
0.0049999999 0.0050669694 -0.013386597
0.0090871267 0.0049057528 -0.00071596255
-0.001368927 -0.011837409 -0.02582792
0.0081019653 0.00065319659 0.012414009
-0.0049999999 -0.025759092 0.01372345
0.0049999999 0.028716663 -0.001162964
0.0048677539 0.030661855 0.0025684743
0.0049999999 0.021320501 -0.021363135
-0.0025792161 0.025457151 -0.016443349
0.0043570311 -0.030125858 -0.0066397879
0.0049999999 0.017104158 -0.0010416912
-0.0049999999 0.0108774 -0.006573109
0.0049999999 -0.022387497 0.021194536
0.012164768 0.011971598 0.0083347615
-0.0049999999 -0.01652731 0.015570474
0.014456925 -0.0086728213 0.0068590231
0.0049999999 -0.021144412 0.022273611
-0.0049999999 -0.024645947 0.010660817
-0.0049999999 0.0033283846 -0.020804204
0.013604719 -0.0017234614 0.012273115
0.0050000004 -0.00094001775 0.011525802
0.00120986 -0.018520638 -0.021377049
0.0031096141 0.025159271 0.017699216
-0.0034269479 -0.029609017 -0.0088314051
0.0049999999 -0.021336967 -0.014072101
-0.0049999999 0.015497821 -0.0089319749
-0.0049999999 -0.019677427 0.020551493
0.012476049 0.0088179596 -0.002329618
0.014999999 0.0082620382 0.0039115516
0.0049999999 0.0020513546 0.021645825
0.010138691 -0.0040252409 -0.011746847
0.0068225949 0.0075149541 0.0048035788
0.0049999999 0.0091782836 0.022581872
0.0021612279 -0.022530209 -0.019078709
0.013367799 -0.010962831 0.0077006794
-0.0049999999 -0.023654396 -0.0080504837
0.011640318 -0.011934083 0.0044999998
0.0016758171 -0.02497234 -0.014593883
0.012163291 0.0095454324 -0.0079179592
-0.0049999999 -0.022276102 0.012420856
-0.0049999999 -0.010150014 -0.01553668
6.7808098e-05 7.8056219e-05 0.0049897223
0.0049999999 -0.0081193447 -0.01931707
-0.0049999999 -0.011139252 -0.028057134
0.00052288087 -0.026850706 0.0080811456
0.010295519 -0.0068068304 0.0085000005
-0.0049999999 0.0002667571 0.015684148
-0.0049999999 -0.016058249 -0.012660153
0.0049999999 0.012914721 0.0055192052
-0.0049999999 0.010347854 0.019551259
0.012468764 0.0096808951 -0.0077414219
-0.0050000004 -0.016007995 0.0065588714
-0.0046178023 -0.03062558 0.0028440254
0.011428674 0.0051222621 0.0081769945
0.0022693013 0.0028187707 0.029559366
-0.0050000004 0.0051551289 0.021255597
0.0049999999 0.020062517 0.0028514119
0.0077812602 -0.0068428987 0.0073146368
0.0049999999 -0.010000447 -0.020125661
0.0097200153 0.010667122 -0.00062391092
0.0050000004 -0.01217552 0.0084125279
0.015 0.0043530958 0.006367295
0.0049999999 -0.0067089507 0.027501248
0.012059171 -0.0050000832 -0.00050000026
-0.0049999999 0.015557748 -0.0076808454
0.0050000004 -0.00066983991 -0.029155854
-0.0026228679 -0.0010173155 0.030408928
-0.0016492517 -0.00032774493 -0.0049568447
0.0049999994 -0.0083007459 -0.029651918
-0.00090652012 0.024821276 0.013247108
-0.0049999999 0.0205415 -0.0021504082
0.0049999999 -0.027981155 -0.0011254719
0.015 0.006813379 0.0061022169
-0.0049999999 -0.01781805 0.025063848
0.010200697 0.0074407361 0.0073252707
0.0049999999 -0.026211949 0.0012275247
-0.0049999999 0.013982518 0.0057649855
0.0049999999 0.011454759 0.025933331
-0.0049999999 0.0096672298 0.013683459
0.0077013667 5.4044554e-05 0.012492886
0.015000001 0.0095059173 0.0028023971
0.0044475202 0.017531473 -0.025287986
0.0046087801 -0.012339262 0.028156018
-0.0049999999 0.0066582044 0.011888541
-0.0049999999 0.0046978923 0.014754569
-0.0049999999 0.018613465 -0.022715818
0.0049999999 -0.016552767 0.0072537074
-0.0049999999 0.0082549741 -0.025332006
-0.0020766605 0.0048951716 0.00079612061
0.015000001 0.0044033718 0.0083705997
-0.0049999999 0.02716827 0.0096578123
0.0049999999 0.010957486 -0.025732288
0.0096057588 0.0053530256 -0.011196848
0.0049999999 0.02028433 0.0036387872
0.0049999999 0.0010988316 0.023883188
0.0049999999 0.012597193 -0.017322244
0.0049999999 -0.0088707013 -0.012346445
0.0027376125 -0.016217146 -0.025973592
0.0099392021 0.0099318679 0.0056633148
0.003829018 0.028808648 -0.010763667
0.0049999999 0.018709615 0.0025751272
0.0049999999 -0.022271117 0.017724577
-0.0033860954 -0.0065584886 0.030136559
-0.0049999999 0.0063254056 -0.014843166
-0.0049999999 0.0080921995 -0.023629298
0.0049999999 0.020869594 -0.015196412
0.0049999999 0.020677298 0.0038067973
0.0049999999 -0.025631858 0.015690867
-0.0049999999 0.0020821118 -0.0082372986
0.0049999999 -0.018423786 0.016975114
0.0049999994 -0.0015765439 -0.026057817
0.0049999999 0.010636234 0.0057594301
-0.0049999999 0.012755463 -0.020793952
-0.0049999999 -0.015903424 0.0065960172
0.0049999999 -0.0069985231 0.013230332
0.010538439 -0.0072550592 0.0027783075
-0.0049999999 0.0042807735 0.019583372
-0.0049999999 0.011742794 0.024516985
-0.0049999999 -0.0020996048 0.027120044
-0.0020378928 0.027455285 0.010221574
0.0049999999 -0.0025577773 -0.017204337
0.0095244795 -0.010762867 -0.00050000049
-0.0050000004 -0.016593467 0.0068811993
-0.0049999999 0.00074465899 0.02429376
-0.0049999999 -0.0066976133 0.0097063575
0.0040050298 -0.013452179 0.027695036
0.0086671589 -0.0082432311 0.00165266
0.00044929559 -0.026472269 0.0089437272
-0.0049999999 -0.011556052 -0.0098309526
0.015 0.0089654438 -0.0037386385
-0.0049999999 -0.012613875 0.023187498
0.0049999999 0.0077146399 -0.018845186
0.0049999999 0.023082161 0.017468361
-0.0049999999 -0.0098391948 0.0056888377
0.0049999999 -0.01449857 0.0026626412
0.012165847 0.0095121544 0.0021726033
-0.0049999999 -0.020630412 0.0055787708
0.012991658 0.0059131905 0.0053412914
-0.0049999999 -0.023917425 -0.015582723
0.0049999999 -0.012062694 0.026231047
0.0049999999 0.0099700177 -0.0099407444
-0.0049999999 -0.019014496 -0.0022365986
-0.0049999999 0.011258469 0.019341461
0.013580426 -0.007369095 0.0052107037
-0.0049999999 0.0174777 -0.019815095
0.0089999996 0.0086638266 0.008313518
0.0049999999 -0.00015518666 0.012053791
-0.0049999994 0.022048077 -0.012868941
-0.00016483878 -0.0033304666 -0.027605703
0.0024018041 0.019722803 -0.022556733
0.01284846 0.012346701 0.0011646231
0.0038043223 -0.0017839662 0.030765139
-0.004013042 -0.024839468 -0.01811599
-0.0049999999 0.016281521 -0.011260525
0.0049999999 0.012125018 0.023363395
0.0079494594 -0.01027056 0.00049999956
0.015 -0.011127714 -0.0034534698
-0.0011149393 0.020860348 -0.019039448
0.0049999999 0.010034457 -0.014536858
-0.0049999999 -0.01060311 -0.017864166
0.0013139031 -0.01763783 0.022184445
0.011120488 0.003389807 -0.012010057
-0.0049999999 -0.014775742 -0.011750461
-0.0049999999 -0.029237788 0.008904675
-0.0044613332 0.01632892 -0.026210744
0.0049999999 0.027752325 0.0073208474
-0.0049999999 0.018461853 -0.0088916877
-0.0050000004 0.018473526 -0.017279672
-0.0049999999 -0.016807294 -0.006494672
0.0042063105 -0.029948626 -0.007986011
-0.0024122067 -0.0067529669 0.029288927
0.0027056066 -0.0021528141 0.030402742
0.0093217874 0.0051954975 0.0058217784
-0.0039514019 -0.0072451015 0.030046167
0.001524264 0.0019784379 0.028531717
