# .PCD v0.7 - Point Cloud Data file format
VERSION 0.7
FIELDS x y z
SIZE 4 4 4
TYPE F F F
COUNT 1 1 1
WIDTH 1000
HEIGHT 1
VIEWPOINT 0 0 0 1 0 0 0
POINTS 1000
DATA ascii
0.011683092 -0.0063731242 0.010031208
0.0067919143 -0.01209335 -0.0030889763
0.0050000004 0.0089468574 0.0083487984
-0.00069093925 0.025636084 -0.011130217
0.0050000004 0.0031574273 0.012844713
0.013175838 0.0045439303 0.0019837685
-0.0050000004 -0.026784237 0.0087330788
-0.0050000004 0.0051450264 0.028436543
-0.0050000004 -0.021392656 0.0062445207
-0.0050000004 0.00028660989 -0.0049762456
8.3969302e-05 0.0040669381 -0.027487068
0.0050000004 0.01923259 0.015147413
0.0050000004 -0.0070211948 -0.010514224
0.015000001 -0.0050108843 -0.0092017362
0.0050000004 -0.011514042 0.0055317944
0.0050000004 0.0087805185 -0.025271865
-0.0050000004 0.011668278 -0.027055858
-0.0050000004 0.012222095 0.019362252
0.013979247 0.0078681875 -0.0070365663
-0.0050000004 0.023513842 -0.0079447934
-0.0050000004 0.00024336574 0.02846298
0.0060000001 0.0065750363 0.0071685677
0.0050000004 0.0044653993 0.0064550429
0.0090094721 -0.0041148541 0.0027805031
0.0050000004 -0.016151497 -0.024826322
0.0024321019 -0.027737299 -0.011309719
-0.0019465609 -0.0045622336 0.028770814
-0.0050000004 -0.018171839 0.010040034
0.010290073 -0.0020720554 0.012227233
0.0083822096 0.0045000003 -0.0086239092
0.0097391251 0.0018119271 0.01083114
0.0060000001 0.0021755444 0.0096860556
0.0050000004 -0.012656256 0.012565635
0.011904231 0.012137949 0.0027501939
0.013866449 0.005156666 0.0099403122
0.013967798 0.00050000002 -0.0080382721
0.0024056374 0.011570424 0.027580114
0.0050000004 0.017627653 0.0025684668
-0.0050000004 -0.013313426 0.0022792083
0.0050000004 -0.025006985 0.00033547499
-0.0050000004 0.0051745246 -0.0257449
-0.0030230987 -6.1406892e-05 -0.030991917
-0.0011134004 -0.026338385 0.0099430457
0.0050000004 0.0038348034 0.027219899
0.0041144793 0.028412653 0.011719691
0.0028023249 -0.024998253 -0.017670767
-0.0050000008 -0.021507271 0.016238753
0.013572892 0.0072749075 0.010649098
-0.0050000004 -0.018774601 -0.019014608
-0.0026372406 -0.025598137 -0.016423317
-0.0027385689 -0.00065374805 0.030657189
-0.0049999999 -0.027710045 0.0071938038
-0.0050000004 0.013939327 0.0019099989
0.012741847 -0.011770864 0.0039672595
-0.0050000004 0.019369839 0.023877211
-0.0050000004 -0.0084467661 0.019639418
0.011988113 -0.0048004896 -0.010317898
-0.0050000004 0.015017681 0.026749372
0.0041025188 0.026505483 0.015944814
0.0050000004 -0.012484175 0.0084910188
0.0050000004 0.0067212633 0.0016738626
0.0050000004 -0.016597306 -0.014076282
-0.0047257622 0.017200131 -0.025542233
0.009232101 0.0044556018 -0.010816932
0.010298965 -0.0015436751 -0.0047262227
-0.0036376459 -0.0013992317 -0.0047860532
0.015000001 0.0078863669 0.0074448697
-0.0028115879 -0.021530617 -0.022056516
0.0091033122 -0.0036273757 0.0034157711
0.01479907 -0.00050000002 0.0055568726
0.0013674848 -0.0095488131 0.026774328
-0.0050000004 -0.007221512 0.012241984
0.0050000004 0.015233262 -0.00090595632
0.00027076722 -0.000477049 0.0049372045
-0.0029171675 0.0056935004 -0.030250438
-0.0027113978 0.022178782 -0.021088662
0.0050000004 0.0019027261 -0.010735581
0.0050000004 -0.018196797 0.020034352
0.0050000008 -0.021794409 0.019331541
0.0020792952 0.021360807 0.02037161
0.0025000686 -0.022949506 0.019488122
0.0050000004 0.016502513 0.010960436
0.0029785081 0.00010829869 0.0049857399
0.0015143191 -0.028605299 0.0013440163
0.0050000004 0.012287477 -0.018118884
0.0013117841 0.0010896388 0.028436281
-3.5563295e-05 -0.017196069 -0.0218082
0.0019536123 -0.026049323 0.013237652
0.0043743942 0.01599513 -0.026466873
0.01345494 0.00056165998 -0.004926078
-0.0050000004 0.0043950379 -0.014668556
-0.0046120784 0.024780935 0.018192273
0.015000001 -0.00086766068 -0.0074056922
-0.0050000004 -0.015473454 0.026436344
0.0094401753 -0.0045142528 0.011544287
0.0050000004 -0.016143797 -0.025436528
-0.0026975533 -0.0071258903 -0.029734069
0.0027253185 -0.028495289 0.010795549
0.010247634 0.00050000002 0.010814169
-0.0050000004 -0.0088392906 -0.005492826
0.0050000004 0.016364656 0.024047382
0.015000001 0.0015597205 -0.0097352201
-0.0050000004 -0.019015176 0.0032535421
0.0050000004 -0.0052809422 -0.028314229
0.0050000004 -0.008656661 -0.01830576
-0.0016244563 -0.025365127 0.013616591
-0.0035171094 0.021191046 0.022479882
0.0084311124 -0.0038709375 -0.0030983677
0.0050000004 -0.0095988605 -0.021779815
0.0050000004 0.00641766 -0.011715997
0.01340606 0.01241002 -0.00068349985
0.0078089079 -0.01111993 0.0055387216
0.0050000004 -0.012398888 0.015760658
-0.0050000004 -0.0019682513 0.020256132
-0.0050000004 0.001568639 -0.023188176
0.0050000004 0.021583425 0.0035755301
0.0050000004 -0.022084387 0.0040580067
0.0050000004 0.028028939 0.0096233562
0.0050000004 -0.003099625 -0.029694295
0.0034795022 0.0045731417 0.030397937
0.0022611639 0.026983442 -0.012362604
0.0050000004 -0.011166971 0.024607992
-0.001585064 -0.021360204 -0.019153574
0.0050000004 0.0084166965 0.019235846
0.0050000004 -0.029715948 0.0080791712
0.015000001 -0.0032649918 -0.0074497918
0.015000001 0.0052662012 -0.0027784433
0.0050000004 -0.015543591 0.011236423
-0.0050000004 -0.010353113 -0.023420604
-0.0050000004 0.0076581282 0.014665074
0.0050000004 0.016715817 -0.017604625
-0.0050000004 -0.030760271 0.0016263877
0.0050000004 -0.013665304 -0.0041819145
0.0050000004 -0.019704495 0.016016115
0.0023866324 0.029846311 0.0021828318
0.0050000004 0.0065412144 -0.011588113
0.0050000004 0.0047170171 -0.027403681
-0.0026405235 0.011419819 -0.028079098
-0.0050000004 0.0038690865 0.0059381975
-0.0050000004 0.0075304317 -0.022732178
0.0050000004 -0.0013112655 -0.022042492
0.0050000004 0.018550232 0.0068672718
0.0050000004 0.0087507023 -0.011215289
-0.0050000004 0.019384934 -0.0022704992
8.5612897e-05 0.0052108509 0.027336899
-0.0050000004 -0.012172951 -0.017896643
-0.0050000004 0.0022648997 -0.0093468707
-0.0022489522 -0.028320409 -0.0090800887
0.0050000004 0.017690651 0.0020361214
0.0050000004 -0.0042217695 0.016414259
-0.0010883975 0.024690345 -0.013857096
0.0050000004 -0.0037113363 0.022625139
-0.0050000004 -0.0053145257 0.019810705
0.0074622636 0.0054875691 0.0064443932
-0.0021486529 -0.029144991 0.0043789009
-0.0050000004 0.027682837 0.0099491011
-0.0021778115 0.0090926755 0.028182959
0.0050000004 -0.0088501861 0.016804948
0.01060294 -0.00050000002 -0.0063749552
-0.0050000004 0.020810366 0.010015858
-0.0050000004 -0.011380737 0.017102301
-0.0017323212 0.02896722 -0.000251905
0.0050000004 0.018636705 -0.01497596
0.0060000001 0.0099797864 0.0023961421
0.0015009139 -0.0042804815 0.0025646619
0.0050000004 0.015880391 0.014548773
-0.0050000004 -0.018143967 0.012084492
0.0026769633 -0.021905305 0.021347934
0.0050000004 -0.011804443 0.010101728
0.0019612049 0.021478238 -0.019885458
-0.0050000004 0.0031537451 0.0049452656
0.012083456 0.0016874372 0.008289
0.013504177 0.0012101074 0.0048406641
0.0049919477 0.022852991 0.020704806
0.0089092385 0.00078641652 0.0096933646
0.0021865901 0.0281485 0.009215273
0.015000001 -0.00090289727 -0.0094451867
0.0035503937 0.021185003 0.022484517
0.013835949 -0.011839322 -0.0038019919
0.0021451963 -0.019515287 0.022160519
0.0014606618 0.021219816 0.019133953
-0.0050000004 -0.023098057 0.01187475
0.00060346368 -0.0049317265 -0.00051850145
-0.0021196529 0.001319009 -0.029497612
-0.004534618 0.00032803451 -0.030956816
0.0050000004 -0.0039023887 0.015340678
-0.0050000004 -0.026064618 0.0054434072
0.0050000004 -0.029650079 0.0051943753
0.0042048693 0.030047603 0.007234185
0.0050000004 -0.017484428 0.025144713
-0.0050000004 0.014194484 0.011674122
0.0023420039 0.025551682 0.015651012
-0.0025509626 0.007580101 0.029420363
0.0050000004 -0.013810124 0.0064113494
0.01151072 -0.0041886796 0.010723874
0.0022198979 -0.0020082255 -0.029580493
-0.0050000004 -0.01033329 -0.026910219
0.0050000004 0.0038275125 -0.0050780461
-0.0050000004 -0.011552024 0.011127567
0.0026038811 -0.0075050392 -0.029521905
0.0029257194 -0.0054099057 -0.030287778
0.0050000004 -0.0075591435 0.014963979
0.0027183385 0.00056560861 0.0049255239
0.0050000004 0.0057826792 -0.0037091095
-0.0050000004 -0.0096771633 -0.022982404
-0.0050000004 0.0032769609 -0.014677581
-0.0045136786 -0.013638255 0.027617959
0.0015544839 0.024349626 0.01520785
0.0039590998 0.030489538 -0.0038773546
0.0050000004 0.01478782 -0.026706493
-0.0037788716 0.0033065085 0.0037112189
0.0080668088 0.0019983333 0.0045378972
0.0050000004 -0.0065840408 -0.023903513
0.010247534 0.005918859 0.0055332482
0.0098012211 0.00050000002 -0.012130602
0.0050296756 -0.0016681864 -0.0046746484
0.010364202 -0.0055000004 0.0096133063
-0.0045430642 0.0068017729 0.030104531
-0.0050000004 -0.014835962 0.0019558677
-0.0050000004 -0.0095839119 0.0097388672
-0.0050000004 -0.0017066363 -0.017872559
-0.0050000004 0.026609741 0.0027591549
0.0050000004 -0.013288856 0.0033934936
-0.0049999999 0.0017352517 -0.029333821
0.0050000004 -0.012237417 0.020498564
0.0050000004 0.019026343 0.001959034
0.0023825394 0.029115018 -0.0076835696
0.0050000004 -0.017556574 -0.02097963
0.0050000004 0.0079156766 0.028815981
-0.00015160904 0.010294435 -0.025827188
0.00042762241 -0.027628928 -0.0036889643
-0.0041216803 -0.011350124 0.028565733
0.0021636724 -0.0068671228 -0.028843408
0.0036194108 -0.029791607 0.0083905952
-0.0013996041 -0.011243871 -0.026106689
-0.0050000004 -0.015192815 0.014562075
-0.0050000004 0.004841486 -0.027845176
-0.0050000004 -0.027566703 0.0086504836
0.014461624 0.0045000003 -0.011535374
0.0067622256 0.0070492919 0.0076606958
-0.0022065639 0.028061725 0.009514397
0.0050000004 0.00077764771 -0.02966244
-0.001970527 0.013049232 -0.026158812
-0.0050000004 -0.0070388368 -0.0089140823
0.0027378011 0.021684742 -0.021778541
0.0050000004 0.012108935 -0.015284888
0.0050000004 -0.0088277357 0.017787511
0.0052657607 -0.0016970673 0.0046626856
-0.0047384421 -0.030390549 -0.0046292455
-0.0033924077 -0.00063663651 -0.0049161711
-0.0050000004 0.022317842 0.015453959
-0.00018826325 0.016536254 0.022365632
0.0019981558 0.014176955 -0.025743045
-0.0050000004 -0.001751576 0.026949061
0.014411494 0.0081386091 -0.0083276527
0.013780488 -0.0089672599 0.008671416
0.0050000004 0.011014401 0.0056469091
-0.0050000004 0.026495801 0.014355853
0.0050000004 0.017488871 0.018375594
0.0050000004 -0.01436785 -0.017092282
-0.0050000004 -0.010698801 0.012483043
-0.0050000004 0.020054974 0.011571483
-0.00070922071 -0.025023606 -0.012621639
0.0073649115 0.0084546916 0.0080992989
0.0050000004 0.0010412816 -0.027280955
-0.0050000004 0.027587995 0.0074961972
-0.0018390216 -0.020399846 -0.020819062
0.0052579343 -0.0059523638 -0.010948589
0.0050000004 0.024895269 0.0022086021
-0.0050000004 0.0072991443 -0.014634118
-0.0050000004 -0.015703162 -0.01425704
-0.0050000004 0.0054920567 -0.0043049399
0.0050000004 0.0092783934 -0.0023392863
0.0050000004 -0.020238107 -0.014825291
-0.00036052184 0.019695796 0.019998934
0.0050000004 -0.0025361937 0.025940286
-0.0050000004 0.0048304591 -0.0035300928
-0.0050000004 -0.0093877921 -0.0063133873
0.0050000004 0.015684929 -0.014617513
-0.0050000004 -0.0012477821 -0.027907539
0.0050000004 -0.010749076 0.023603261
-0.0050000004 -0.020374147 0.0036064053
-0.0050000004 0.027447309 -0.0077845124
0.0050000004 -0.014820841 0.017345576
0.0073448974 -0.0027632467 -0.012136235
0.015000001 0.0042534643 -0.0092366291
0.002183025 0.010839974 -0.027468899
-0.0050000004 0.0035062595 -0.014343156
0.0011194326 -0.0033026882 0.027952569
0.0050000004 -0.02832129 -0.010445938
0.0099522006 0.010634093 0.0050721201
0.0050000008 0.0046724863 0.014067378
0.0090141762 -0.0077392994 -0.0084955841
0.01202922 0.0038787283 0.009841891
-0.0033157866 -0.028120745 -0.012424421
0.0041330308 0.0056870081 0.030251293
-4.1900843e-05 -0.020572679 0.018809007
-0.0021626048 0.02260571 0.018984234
-0.0050000004 -0.0099343425 0.022800682
0.0035796338 -0.0032393418 -0.00376276
0.0050000004 0.019834183 -0.0215746
-0.0050000004 0.0024659166 -0.025807114
-0.0050000004 -0.012862505 0.0030475026
0.011297746 -0.0055000004 0.0093568917
0.015000001 -0.0085469894 -0.0056829024
0.0050000004 0.018820914 0.013294755
0.015000001 0.0082671354 -0.00012885238
0.0026897737 0.00070249452 0.030566258
0.015000001 -0.0056309062 0.0098830964
0.0015877801 0.0083501618 0.02750719
0.0050000004 0.025481945 -0.015821319
-0.0050000004 -0.019204076 -0.0094614075
0.0050000004 -0.017969282 0.013305209
-0.0050000004 0.0034443547 -0.017645366
0.002514109 0.019901806 0.022662442
-0.0037317837 -0.010778628 -0.028802453
0.0050000004 -0.0108523 0.020941222
-0.0050000004 0.012431808 -0.025406107
0.013870601 0.00050000002 -0.0080534611
0.0050000004 0.0036845899 -0.017365085
-0.0050000004 0.00068678852 0.011164608
-0.0050000004 -0.0039733755 -0.0057847467
0.0050000004 -0.0025553987 -0.022226041
-0.0050000004 -0.029634198 0.001412402
-0.0050000004 0.02909499 -0.0092554297
0.0095747141 -0.0074579692 -0.0077109858
-0.0050000004 -0.020562449 -0.022504769
0.015000001 -0.0019493029 -0.0068698525
-0.0050000004 -0.0080451295 -0.0022345451
-0.002659586 -0.0040778313 0.0028287498
0.012242867 0.0045000003 -0.0100819
-0.0049999999 -0.014441133 0.02274376
-0.0023892163 -0.022284282 0.020042356
0.0044861091 0.019841375 -0.023515526
0.00032171726 -0.026102461 -0.0097479234
-0.0050000004 0.02833843 -0.0010906332
0.003924604 -0.030647626 0.0026765564
0.0023462391 -0.012901376 0.026918413
-0.0014780627 0.0016836956 -0.028524328
-0.0050000004 0.019948527 0.02028954
0.0087599149 0.00050000002 -0.009188124
0.0050000004 0.024755873 -0.0063024159
0.0050000004 -0.017867899 -0.021698156
0.013671371 -0.002200007 -0.012210388
0.0050000004 -0.025262717 0.011931458
0.012007544 0.0069101839 0.0058684819
-0.0050000004 -0.020118903 0.018737953
0.0050000004 -0.011839348 0.019368161
-0.0028693725 -0.015745725 -0.026620524
-0.0050000004 0.014429296 0.019169156
0.011585049 0.0050970879 -0.0051569073
0.0050000004 -0.024734711 0.0035893875
0.015000001 -0.0088873506 -0.0044451724
0.0050000004 -0.014617592 0.00040560056
0.0010084801 0.0034465245 0.0036037765
-0.0050000004 -0.008799254 -0.012047709
-0.0050000004 0.0081647318 -0.00095176848
0.0050000004 -0.0020611261 0.019620644
0.0062865918 0.0046691028 0.0016815743
0.010777701 0.0016036514 -0.012288901
0.0069174091 0.0045000003 0.007692446
0.011463868 0.0044519668 0.0070074624
-0.0050000004 -0.012985716 0.0029690792
-0.0050000004 -0.0042797248 0.0062013241
0.0022031777 -0.026040832 -0.01437806
0.0050000004 0.023184128 -0.0096885627
0.0076666111 0.0083418889 0.010852172
0.0050000004 -0.021328347 0.01740789
0.0050000004 0.00042859229 0.028460287
0.0050000004 0.029136976 0.0082861008
-0.0050000004 -0.013068506 0.020026809
-0.0050000004 0.027356174 0.011408464
-0.0049999999 0.026027245 -0.014753272
-0.0021766676 -0.002858554 0.02939368
0.0025896551 -0.021887602 0.021124715
0.0025098587 0.024444321 -0.01756767
-0.0050000004 -0.0075635081 -0.01437495
0.015000001 0.0037519122 0.0081880726
0.0060000001 0.0089308098 -0.0016211444
0.0088161137 0.0065977359 0.012058483
-0.0050000004 -0.00071248284 0.015302626
0.002187164 0.0049106628 0.029141685
0.0020861356 0.0028862306 -0.029233214
0.0049007954 -0.030085413 0.0069470182
0.0023865877 0.013817328 0.026614008
0.0089863064 0.0030267178 -0.0039259191
0.0013707245 -0.0039623207 -0.0029792802
-0.0050000004 -0.01825917 -0.0043382314
-0.0012362668 -0.0031824214 0.028085241
-0.0050000004 0.020923747 0.0048628435
-0.0050000004 -0.010859196 -0.020510327
-0.0050000004 -0.00026675599 -0.027948644
-0.0025731723 -0.017455589 -0.024667347
-0.0050000004 -0.00033228286 0.018633146
0.012567303 0.0064487252 -0.0055875471
0.0050000004 -0.024826668 -0.013790268
-0.0050000004 0.0060861083 0.0083613126
0.014363847 0.00050000002 -0.0073869126
-0.0050000004 -0.011557878 -0.011062901
0.0050000004 -0.014532088 0.0059732031
0.0084009971 0.0024072779 -0.0121831
-0.00080281519 -0.018737063 0.02088272
0.0080572134 -0.012234139 -0.0020195181
0.0050000004 0.011084386 0.017824726
0.015000001 0.0069597345 -0.0014166968
-0.0050000004 0.00019951408 -0.022765428
-0.0019725966 0.029243369 0.0013154722
0.002367812 0.0002904493 -0.030062847
0.01481369 -0.0034850747 -0.011633944
-0.0050000004 0.005164634 0.0087434025
0.01138154 -0.011684204 0.0041764718
0.0066345846 -0.0081585869 -0.0093607595
0.015000001 -0.0005301481 -0.0079141203
0.0050000004 0.021301467 0.00038533405
-0.0050000004 0.020356551 0.0060382634
0.00085188908 0.010986201 0.025742035
0.0098921778 0.00050000002 0.011299199
-0.0038310597 -0.025881128 -0.016758483
-0.0050000004 -0.025367787 -0.014590997
0.0060000001 0.0016329839 0.0074196886
0.015000001 0.0039985212 -0.010790152
0.0050000004 0.0012266262 0.0057284045
-0.0018225325 0.02770476 -0.0086528687
-0.0050000004 0.0079935165 -0.029761793
0.0050000004 0.020778043 -0.015795371
-0.0050000004 0.019446254 -0.015256801
0.0062317196 -0.0044468394 -0.0022181664
0.0050000004 -0.019858262 -0.0042300448
-0.0050000004 0.010384211 0.015166761
0.015000001 0.00779186 -0.0012305556
-0.0050000004 -7.2989911e-05 0.019510645
-0.0049999999 0.0018866902 -0.029549319
-0.0050000004 0.012679733 0.022798318
0.0072918464 0.0076790606 -0.010322508
-0.0050000004 -0.023883436 0.011648082
0.0050000004 -0.02754627 0.00057199877
0.013972035 0.0076994905 -0.0070191547
-0.0050000004 -0.019980276 0.017465256
0.0018363311 -0.021842569 -0.019058397
0.0050000004 -0.013830673 0.02451021
0.0050000004 -0.0071898694 0.02367175
0.0050000004 -0.012465955 -0.0010007976
-0.0017594417 0.028699646 -0.0026410448
0.0050000004 0.012995559 -0.014325189
-0.0050000004 0.0039585102 -0.01877721
0.0075516752 0.012243873 -0.0019455837
0.0050000004 0.0062152958 -0.0030897772
0.0050000004 0.00059945678 0.008917639
-0.00041782192 -0.015978428 -0.02287055
0.0028153707 0.02699684 -0.014817238
-0.0040072943 -0.030506978 -0.0037448891
-0.0050000004 0.016441202 -0.017566347
0.011725491 -0.0010131389 0.0074409652
-0.0050000004 0.016810121 -0.0048700282
0.0050000004 0.0066242064 0.0077086254
-0.0050000004 -0.001240861 0.0098692225
-0.004924024 -0.021618534 -0.022151858
0.0025384817 0.017593281 -0.024486598
-0.0050000004 0.012767738 0.026402796
0.0050000004 -0.013581729 -0.00064434099
0.0024504724 0.012525476 -0.027267862
0.00033727285 0.016803728 -0.022210298
-0.00063907518 0.027185759 0.0073529049
-0.0042968518 -0.012268875 -0.028185174
-0.0050000004 0.019686745 -0.019156205
-0.001741425 0.028782988 -0.0017710053
0.015000001 -0.0029545361 -0.010804405
0.0025345227 0.0039915079 -0.0029412443
-0.0050000004 0.023677977 0.0073111812
0.0077721342 0.0045000003 0.0073264078
0.00077880244 -0.025467541 -0.011598139
0.0010248838 -0.028209662 -0.00063205551
0.0050000004 -0.023318445 0.0043313028
0.0050000004 -0.018821752 -0.0028925401
-0.0050000004 0.011458433 0.020402726
0.0050000004 0.00058026705 -0.012402332
-0.00032123856 0.0057982425 -0.027322697
-0.0010225623 0.021886388 -0.017551858
0.010608114 -0.0055000004 -0.0088326707
0.0027933349 0.019400941 -0.023651171
0.0088110892 -0.010332292 -0.0068925102
0.0050000004 -0.017078381 0.0072606201
0.0028936497 0.015878616 -0.026556276
-0.0050000004 0.020564824 -0.0079498421
0.011861268 0.0085000005 -0.010809336
0.0017360847 -0.026639752 -0.010836088
0.0018213008 0.01253601 -0.026094018
-0.0050000004 -0.001532393 -0.029021069
-0.0050000004 0.020992931 0.018594716
0.0050000004 0.00060320558 0.011489619
-0.0037478695 0.019962883 0.02342229
-0.0050000004 -0.0088383602 0.02086062
-0.00057104893 -0.0070870672 -0.027219949
0.013510563 -0.0097039072 0.0077114366
-0.0050000004 -0.024021853 0.0059709963
-0.0019946138 -0.0076364744 -0.028445622
-0.0050000004 -0.0068876003 0.004365196
0.0050000004 0.0092327017 -0.0063602328
-0.0039155958 0.0069620521 0.030083433
-0.0050000004 0.0049869479 -0.029166788
-0.0041405614 -0.022589907 -0.021047657
-0.0050000004 -0.0081626708 0.013337595
0.0050000004 0.02838538 0.0094093485
0.0050000004 0.017169222 -0.023452571
0.0059398557 -0.0092889229 -0.0082522212
0.012004304 -0.010209842 -0.0070521114
0.007416138 -0.0027499052 -0.012137991
0.0050000004 0.026229527 -0.014157635
0.0096570468 -0.011823315 0.0038406351
0.0050000004 -0.0061357561 0.021773364
0.0050000004 -0.011382443 -0.015753383
0.012 0.0063190209 0.0091534583
-0.0050000004 0.0015521663 0.0055051986
0.0098278029 -0.0055016507 0.011135285
0.015000001 -0.0057649883 0.0080750687
-0.0050000004 0.016018495 0.0079693561
0.0050000004 0.0052109724 0.0078655137
0.0050000004 0.022148436 0.0068949047
0.013829338 0.0045000003 -0.010113013
-0.0050000004 -0.0023338252 0.027787328
-0.0045363903 -0.0069898833 -0.030079769
-0.0050000004 0.023680456 -0.012236319
-0.0050000004 -0.0058705979 0.0028094805
-0.0050000004 -0.021679459 0.013369528
0.0065949271 -0.003166185 0.0038188975
0.012580991 -0.00050000002 0.0065114344
0.0050000004 -0.013921784 -0.0082218228
-0.00018068214 -0.0047105984 -0.027428245
-0.0050000004 0.014590221 0.02148594
-0.0050000004 0.018588917 0.0055865357
-0.0015934985 -0.0033712387 -0.0036615478
0.0077571236 0.0058107018 -0.0061059706
-0.0019272229 -0.017845744 -0.022969788
0.0049552047 0.01973553 -0.023596745
0.0025378701 0.029544532 0.0064647528
-0.0042495648 -0.004423609 0.0022742504
0.0030331174 0.00080506224 0.0048939935
-0.0050000004 -0.013166073 -0.0050927899
-0.0039017464 -0.028068153 0.012551387
0.012564588 0.0045000003 -0.010809048
-0.0050000004 -0.015075013 -0.024025079
-0.0050000004 -0.022164308 0.013394199
-0.0045871707 -0.018963784 0.024188932
0.0098057436 -0.0012636211 -0.0071412669
0.012311973 0.0083058411 0.011909288
0.0050000004 0.011142985 0.010490831
-0.0050000004 -0.020345617 -0.013483548
0.015000001 0.0052981884 0.0067262566
-0.0049320827 -0.025010865 0.017892623
0.0050000004 -0.0071724919 -0.028579574
-0.00021063258 0.026553502 0.0085819215
-0.0022360859 -0.029791269 0.00062027934
0.0060000001 0.0021780794 0.0083715124
0.0050000004 0.022352535 -0.0073758834
-0.0050000004 -0.022483872 0.0017207122
-0.0050000004 0.0052657966 -0.022729374
0.0092952065 -0.0001863916 -0.0074250801
-0.0050000004 -0.0021327573 0.021049216
0.0030782009 -0.022374807 0.021327982
0.0050000004 0.011583013 0.004990086
-0.0050000004 0.0016795426 0.0061515304
-0.0050000004 -0.02304361 0.0077737975
0.0090987105 0.0045000003 -0.01109866
0.0050000004 -0.016387573 0.019046044
-0.0050000004 0.006222513 -0.0088043185
0.0050000004 -0.012934898 -0.0091587929
0.0050000004 0.0078886058 0.028066652
0.0050000004 0.030488472 0.0023034757
0.0049999999 -0.022161344 -0.018812124
0.001919571 0.0030468041 -0.0039105057
0.0050000004 -0.015005255 -0.0050303643
0.0050000004 -0.017705083 -0.015585449
-0.00040314937 0.0032939604 0.0037208484
0.00081997801 0.01284578 0.024962621
0.0050000004 -0.014483491 0.016394468
-0.0050000004 0.0057793423 0.0042546759
0.011923851 -0.00089598866 0.0082643172
0.0087543763 0.0025366128 -0.0089667486
-0.0049999999 0.0093005262 -0.017822715
-0.0050000004 -0.0033359784 -0.026882116
0.0050000004 0.0037065484 -0.0086746588
-0.0002231437 -0.026152356 -0.0095590744
-0.0046752305 0.029278055 -0.0096304202
0.0060000001 0.008550657 0.0011805332
0.011991908 0.00093517854 -0.0080942549
0.011577935 -0.012475156 0.00018871964
0.0026217443 -0.016213609 -0.025725493
0.0019910382 -0.0092408648 0.027774418
0.0075678905 -0.011872667 -0.00372149
0.0060000001 0.0078851143 -0.0082657458
-0.0050000004 -0.0033419149 -0.021570308
0.0060000001 0.0046506003 -0.0088765975
-0.0050000004 -0.013254482 0.01404538
-0.0050000004 0.0050099078 -0.0133634
-0.0050000004 0.011508032 0.013470829
-0.0050000004 -0.01988722 -0.013562684
0.0066948943 0.012130605 -0.0028059841
-0.0007041074 -0.0039062989 0.027674381
-0.0013959812 0.0055443803 0.027933942
0.0050000004 0.019534556 -0.0094924048
-0.0050000004 -0.013322899 0.0011729861
0.015000001 -0.005311742 0.0093975971
0.0050000004 -0.015286431 3.9505008e-05
0.015000001 0.0069853254 0.00028062679
-0.00252766 0.022095772 0.020678552
-0.0050000004 -0.0011182094 -0.0099412957
-0.0025897189 0.024345249 -0.017922053
0.0014467478 -0.0049036187 0.00073196762
0.0050000004 -0.016121008 0.0045692036
0.0089547001 0.012176043 0.002460832
-0.0050000004 -0.011504102 0.0052186577
0.015000001 -0.0056914375 0.0072272634
0.0050000004 0.0099345921 0.00069628912
0.0050000004 -0.0035133359 -0.018175678
-0.0050000004 0.026194718 0.011731821
0.0090254275 -0.00609353 0.0084535982
-0.0026935644 -0.01166378 -0.028076638
0.00074592605 0.011507256 -0.02549573
0.015000001 -0.011146958 -0.0036359357
0.0050000004 0.012103482 0.020867124
-0.0050000004 0.022070689 0.0152437
0.0090000005 0.0082041277 0.0086377608
-0.0050000004 0.029158155 0.0059521054
0.0050000004 0.0099589312 -0.025296347
-0.0050000004 0.010255555 -0.015785586
0.0050000004 0.027972631 0.0054107066
-0.0050000004 -0.0022334585 -0.02170004
0.00030354186 0.012844121 -0.024814768
-0.0050000004 0.0026044119 -0.013301344
-0.0011735285 0.0065190392 -0.027583191
-0.0050000004 0.016183287 0.010586127
0.0090122754 0.0014504025 -0.0047648577
0.013916119 -0.00050000002 0.0070281499
0.0050000004 0.013200773 -0.0093516642
-0.0050000004 0.0050544683 0.025844356
-0.0050000004 -0.017730376 -0.024120843
-0.0050000004 -0.00012627646 0.011821447
-0.0050000004 0.025622485 0.015049324
-0.0050000004 -0.019270279 -0.0077386526
-0.0050000004 -0.021647295 0.014570909
0.0066215741 0.0086831329 -0.0080765374
0.0019812854 0.028899433 -0.0040421607
0.010859813 0.0075934948 0.010524273
0.0050000004 -0.011071277 0.0077243373
0.0050000004 -0.0085437167 0.028213829
0.0090941451 -0.0012729117 0.0075793965
0.009485119 0.0018864856 0.010408157
-0.0050000004 0.012242522 -0.010354236
0.012459327 0.00050000002 -0.0052571842
-0.0050000004 -0.022488501 -0.0020892431
-0.0050000004 -0.014060474 0.017939717
-0.0050000004 0.018748455 0.020346334
-0.0031613784 -0.019082729 0.024097661
-0.0050000004 0.021600308 -0.012155989
0.0050000004 -0.0063614375 -0.012299655
-0.0050000004 0.0017358011 -0.0052385405
-0.0050000004 -0.017792849 0.022682991
-0.0049583982 -0.014576376 -0.027229378
0.0050000004 -0.0092336852 0.0099875908
-0.0050000004 -0.0064336206 0.013872306
0.0024885011 -0.024218645 -0.017801525
0.010096114 -0.000692153 0.0070531392
0.010801364 -0.012477049 0.00017434412
-0.0050000004 0.00062476314 -0.0059729209
-0.0050000004 -0.017813252 0.0012141033
-0.0050000004 -0.00017979449 0.012233957
0.0050000004 -0.01160061 -0.0096299062
-0.0050000004 -0.017727774 0.0082749045
0.0050000004 0.016079221 -0.020929463
-0.0050000004 0.014006497 0.013999595
-0.0030099985 0.029588576 0.0088807503
0.0062744617 -0.0054562562 -0.011154088
-0.0050000004 0.002773853 0.014991683
0.010581283 0.0033893178 -0.010739304
-0.0050000004 -0.005828321 -0.016085729
0.0050000004 0.0079783956 -0.012021197
-0.0033330449 0.02923519 -0.0097339023
-0.0016447741 -0.0010088274 0.028779866
0.0025550018 -0.027165173 0.013242461
-0.0042219968 0.030623628 0.0028588562
0.0050000004 -0.016482998 0.017725142
-0.0020884732 0.0054933876 -0.028894022
0.0073780827 -0.01190159 0.0036516658
-0.0050000004 0.022948632 0.01376139
-0.0050000004 -0.027261104 -0.0051033502
-0.0033084061 -0.0037981807 0.0031931822
0.0044177119 -0.029364575 -0.0094215395
0.0050000004 -0.018411392 -0.0013697377
0.0033174995 0.021961121 0.021867102
-0.0015460211 0.028568735 0.0018625025
0.0027964532 0.021786185 0.021827655
0.0050000004 -0.023287989 0.0060414053
0.0085398043 -0.0013882091 -0.0093025295
-0.0050000004 -0.0030463755 -0.014472472
0.012359363 0.0039516035 0.0029932468
-0.0041368492 0.030906554 0.00070980034
0.0050000004 0.012378089 0.024899131
-0.0020697059 -0.0030905132 0.0038769648
0.015000001 -0.0055749952 -0.0080549726
0.011740464 0.0084622782 0.0060360376
0.0050000004 0.019862965 -0.011264962
0.0050000004 0.010077218 -0.020874433
0.0069845095 0.0044710995 -0.0021595971
-0.0050000004 -0.0095452089 -0.0060856715
-0.0050000004 -0.003224371 -0.0097392173
0.014821406 -0.00050000002 -0.0073307338
0.0036754073 0.027874051 0.013019996
-0.0050000004 0.021124516 0.0072783199
0.015000001 -0.0049554748 -0.0015206049
0.0050000004 -0.011510917 -0.0060043861
0.015000001 -0.0076413522 0.0014724184
-0.0050000004 0.013240124 -0.011708965
0.013222353 0.00050000002 -0.010472144
-0.0050000004 0.019034494 -0.014218178
-0.002715532 0.022289032 -0.020956643
0.0020492948 0.027003545 -0.011363321
-0.004499 -0.019789156 -0.023555597
0.0085378233 -0.012470923 -0.00022087838
-0.0050000004 -0.010581565 0.026418269
0.0050000004 -0.0077667818 -0.017052911
0.0050000004 0.020046549 -0.0014029656
-0.0050000004 -0.011692471 -0.0028509696
-0.0033277194 -0.0050204624 0.030339047
-0.00035117171 0.025963193 0.010104643
-0.0050000004 -0.017119458 0.018948017
0.0050000004 0.020540584 0.0022483845
0.0027431133 0.029766982 -0.0074753179
0.0050000004 0.022398842 -0.0077017751
-0.0050000004 0.0079446267 0.027970979
0.0078065088 -0.0005477643 -0.012427913
0.0050000004 0.014403707 0.021434115
0.007121223 0.0082995733 -0.0084853377
-0.0050000004 -0.022938157 -0.0054299743
-0.0013352762 -0.028269574 -0.0025342864
0.015000001 0.0060441247 0.0039473139
-0.0024262958 -0.020265939 -0.022192966
-0.0050000004 -0.024451034 -0.013292839
0.0034800516 -0.023923025 0.01931032
0.0050000004 0.01217412 0.016633557
0.008694469 0.0045000003 -0.0092688166
0.015000001 0.0010770879 0.0059233117
-0.0050000004 0.017318139 -0.018457491
0.0050000004 -0.014161639 -0.010836895
-0.0050000004 0.023153763 0.010193389
0.007623876 -0.00077658094 -0.0048977681
-0.0050000004 -0.012425407 -0.021540338
0.012396774 0.0045000003 0.0076188035
4.4650437e-06 -0.027538961 -0.0035109455
0.0050000004 0.029766556 0.001446859
0.0078359554 -0.00050000002 0.010334598
0.0085341129 0.003308729 -0.0037095149
0.0014866869 -0.012255065 -0.025781242
0.0008370225 0.015548846 0.023340572
-0.0050000004 0.0097545972 -0.00087254529
0.015000001 -0.0073539605 -0.0024066754
0.0060000001 0.0027185141 -0.0099196723
0.0012074898 0.028295321 0.0013681593
0.0014793292 0.022414662 -0.01760719
-0.0050000004 0.019392235 -0.01032628
-0.0050000004 -0.0285981 0.0041593914
-0.00045366204 -0.0028534117 0.027745888
0.0060000001 0.0031034006 0.011935251
0.007361521 -0.0050233384 -0.011333412
-0.0047746208 0.030146535 0.0064827441
0.012194699 0.008909815 0.0054094372
-0.00050213543 -0.027682027 0.0034373216
0.0018207228 0.0036767472 0.028669432
0.011676049 0.002326129 -0.0044021201
-0.0050000004 -0.026041768 0.0058713094
-0.002598712 -0.029811122 -0.0052402243
0.0050000004 -0.003403272 -0.028517812
0.0050000004 0.013679364 -0.023573587
0.0050000004 0.013515042 0.023391906
0.015000001 0.0077075846 -0.0023065624
0.012670506 0.0058064242 -0.011708454
0.0050000004 0.006757284 -0.029090824
0.0032922355 0.011063498 -0.028684458
-0.0050000004 0.0099944267 0.024756806
0.0060000001 0.0036205493 0.0072583728
-0.0050000004 0.0029854965 -0.016013494
0.00014753024 -0.019481519 0.020092022
0.0050000004 -0.024451615 0.0005759726
-0.0050000004 -0.023162335 0.012472852
0.0050000004 -0.020168295 -0.0079634748
0.0050000004 -0.0043323687 0.02094969
0.0015799246 -0.0078344019 -0.027712395
0.0050000004 -0.0078243092 0.016829809
0.0084892008 0.012368028 -0.001002477
0.0093282573 -0.0043200045 -0.0079574436
-0.0050000004 -0.026668938 0.0055942419
-0.0050000004 0.019891618 0.0056128884
-0.0050000004 -0.0030754011 -0.010218015
0.0050000004 0.02276117 -0.01118351
0.0050000004 0.025102006 -0.0047096899
0.00028978934 -0.027685445 -0.002979114
0.0050000004 -0.018660594 0.010146668
-0.0050000004 0.0016051837 0.028589295
0.0034056918 -0.023392491 0.020001711
-0.0038577493 -0.010907047 0.028749257
0.0050000004 0.01730749 0.0053693764
0.0050000004 0.0073199039 0.0074596684
0.0050000004 0.017420378 0.017571384
0.0050000004 0.00017875498 -0.0095183449
-0.0050000004 -0.011863797 -0.018619718
0.0050000004 0.00047284193 0.026655242
0.0088620139 0.0085000005 0.010438951
0.0050000004 -0.02294315 -0.011027576
0.0050000004 0.012811591 0.0035591747
-0.0029475675 -0.026956555 -0.015235035
0.0050000004 -0.014673629 0.0074814651
-0.0025403819 -0.020169767 0.022513699
0.013579932 0.0045000003 -0.0081440415
0.012941726 -0.0021823496 0.012212712
0.0050000004 0.0028400386 0.011314923
-0.0050000004 0.016240004 -0.025242472
-0.0050000004 -0.008411481 0.010078348
-0.0039950102 -0.0034786086 0.030542037
-0.00098570832 -0.0036774101 -0.0033505673
0.0050000004 -0.0045909709 0.028478429
0.0050000004 -0.022399336 -0.0018509835
0.012478976 0.00099247287 0.0088402042
-0.0050000004 0.010457885 0.025996888
0.0060000001 0.0065491786 0.0061464342
0.0048154774 0.027438657 0.01407113
-0.00012848928 0.026605597 -0.0083991
0.0050000004 -0.013386597 -0.005066969
0.0090871286 -0.00071596279 -0.0049057528
-0.0013689271 -0.02582792 0.011837411
0.0081019672 0.012414009 -0.00065319712
-0.0050000004 0.013723452 0.025759092
0.0050000004 -0.0011629653 -0.028716663
0.0048677544 0.0025684726 -0.030661855
0.0050000004 -0.021363137 -0.021320498
-0.0025792161 -0.016443351 -0.025457151
0.0043570315 -0.006639787 0.030125858
0.0050000004 -0.001041692 -0.017104158
-0.0050000004 -0.006573109 -0.0108774
0.0050000004 0.021194538 0.022387495
0.012164769 0.0083347606 -0.011971598
-0.0050000004 0.015570474 0.01652731
0.014456927 0.0068590231 0.0086728204
0.0050000004 0.022273613 0.021144411
-0.0050000004 0.010660817 0.024645947
-0.0050000004 -0.020804204 -0.0033283827
0.01360472 0.012273115 0.0017234612
0.0050000004 0.011525802 0.00094001775
0.0012098602 -0.021377049 0.01852064
0.0031096144 0.017699216 -0.025159273
-0.0034269479 -0.0088314051 0.029609017
0.0050000004 -0.014072099 0.021336967
-0.0050000004 -0.0089319749 -0.015497821
-0.0050000004 0.020551495 0.019677423
0.012476049 -0.0023296187 -0.0088179596
0.015 0.0039115516 -0.0082620382
0.0050000004 0.021645825 -0.0020513556
0.010138693 -0.011746847 0.0040252414
0.0068225958 0.0048035788 -0.0075149531
0.0050000004 0.022581872 -0.0091782855
0.0021612279 -0.019078709 0.022530211
0.013367799 0.0077006794 0.010962831
-0.0050000004 -0.0080504827 0.023654396
0.011640318 0.0045000003 0.011934083
0.0016758172 -0.014593882 0.02497234
0.012163292 -0.0079179592 -0.0095454324
-0.0050000004 0.012420857 0.022276102
-0.0050000004 -0.01553668 0.010150014
6.7807676e-05 0.0049897223 -7.8056444e-05
0.0050000004 -0.01931707 0.0081193466
-0.0050000004 -0.028057134 0.011139253
0.00052288093 0.0080811465 0.026850706
0.010295519 0.0085000005 0.0068068299
-0.0050000004 0.015684148 -0.00026675715
-0.0050000004 -0.012660152 0.016058249
0.0050000004 0.0055192048 -0.012914721
-0.0050000004 0.019551259 -0.010347855
0.012468765 -0.0077414219 -0.0096808951
-0.0050000004 0.0065588718 0.016007995
-0.0046178028 0.0028440265 0.03062558
0.011428675 0.0081769945 -0.0051222621
0.0022693016 0.029559366 -0.0028187716
-0.0050000004 0.021255597 -0.0051551298
0.0049999999 0.0028514112 -0.020062517
0.0077812611 0.0073146373 0.0068428977
0.0050000004 -0.020125661 0.010000449
0.0097200153 -0.00062391139 -0.010667122
0.0050000004 0.0084125279 0.01217552
0.015000001 0.0063672946 -0.0043530958
0.0050000004 0.027501248 0.0067089484
0.012059172 -0.00050000002 0.0050000832
-0.0050000004 -0.0076808464 -0.015557748
0.0050000004 -0.029155854 0.00066984037
-0.0026228682 0.030408928 0.0010173144
-0.0016492519 -0.0049568447 0.00032774513
0.0050000004 -0.029651918 0.0083007468
-0.00090652017 0.013247107 -0.024821276
-0.0050000004 -0.0021504092 -0.0205415
0.0049999999 -0.0011254709 0.027981155
0.015000001 0.0061022169 -0.006813379
-0.0050000004 0.025063848 0.01781805
0.0102007 0.0073252693 -0.007440737
0.0050000004 0.0012275258 0.026211949
-0.0050000004 0.0057649855 -0.013982518
0.0050000004 0.025933331 -0.011454761
-0.0050000004 0.013683459 -0.0096672298
0.0077013667 0.012492886 -5.40451e-05
0.015000001 0.0028023967 -0.0095059173
0.0044475216 -0.025287986 -0.017531471
0.0046087806 0.028156018 0.012339261
-0.0050000004 0.011888541 -0.0066582044
-0.0050000004 0.014754569 -0.0046978923
-0.0050000004 -0.022715818 -0.018613463
0.0050000004 0.0072537074 0.016552767
-0.0050000004 -0.025332006 -0.0082549732
-0.0020766607 0.00079612044 -0.0048951716
0.015000002 0.0083705997 -0.0044033718
-0.0050000004 0.0096578114 -0.02716827
0.0050000004 -0.025732288 -0.010957486
0.0096057588 -0.011196848 -0.0053530247
0.0050000004 0.0036387865 -0.02028433
0.0050000004 0.023883188 -0.0010988341
0.0050000004 -0.017322244 -0.012597193
0.0050000004 -0.012346445 0.0088707032
0.0027376129 -0.025973592 0.016217148
0.009939203 0.0056633139 -0.0099318679
0.0038290182 -0.010763668 -0.028808648
0.0050000004 0.0025751265 -0.018709615
0.0050000004 0.017724577 0.022271117
-0.0033860956 0.030136559 0.0065584872
-0.0050000004 -0.014843166 -0.0063254056
-0.0050000004 -0.023629298 -0.0080921967
0.0050000004 -0.015196412 -0.020869594
0.0050000004 0.0038067964 -0.020677298
0.0050000004 0.015690869 0.025631858
-0.0050000004 -0.0082372986 -0.0020821118
0.0050000004 0.016975116 0.018423786
0.0050000004 -0.026057817 0.0015765448
0.0050000004 0.0057594301 -0.010636234
-0.0050000004 -0.020793954 -0.012755463
-0.0050000004 0.0065960176 0.015903424
0.0050000004 0.013230333 0.0069985231
0.01053844 0.002778308 0.0072550592
-0.0050000004 0.019583372 -0.0042807744
-0.0050000004 0.024516983 -0.011742795
-0.0050000004 0.027120044 0.0020996032
-0.002037893 0.010221573 -0.027455285
0.0050000004 -0.017204335 0.0025577778
0.0095244804 -0.00050000002 0.010762867
-0.0050000004 0.0068812002 0.016593467
-0.0050000004 0.02429376 -0.00074466038
-0.0050000004 0.0097063575 0.0066976133
0.0040050298 0.027695036 0.013452177
0.0086671598 0.0016526603 0.0082432311
0.00044929565 0.0089437282 0.026472269
-0.0050000004 -0.0098309526 0.011556052
0.015000001 -0.0037386389 -0.0089654438
-0.0050000004 0.023187498 0.012613873
0.0050000004 -0.018845186 -0.0077146399
0.0050000004 0.017468359 -0.023082161
-0.0050000004 0.0056888382 0.0098391948
0.0050000004 0.0026626417 0.01449857
0.012165848 0.0021726028 -0.0095121544
-0.0050000004 0.0055787717 0.020630412
0.012991659 0.00534129 -0.0059131905
-0.0050000004 -0.015582722 0.023917425
0.0050000004 0.026231047 0.012062693
0.0050000004 -0.0099407453 -0.0099700177
-0.0050000004 -0.0022365979 0.019014496
-0.0050000004 0.019341461 -0.011258469
0.013580427 0.0052107042 0.0073690945
-0.0050000004 -0.019815097 -0.017477699
0.0090000005 0.008313518 -0.0086638266
0.0050000004 0.012053792 0.00015518666
-0.0050000004 -0.012868943 -0.022048077
-0.0001648388 -0.027605703 0.003330468
0.0024018041 -0.022556733 -0.019722799
0.012848461 0.0011646225 -0.012346701
0.0038043228 0.030765139 0.001783965
-0.0040130424 -0.01811599 0.02483947
-0.0050000004 -0.011260525 -0.016281521
0.0050000004 0.023363393 -0.01212502
0.0079494603 0.00050000002 0.01027056
0.015000001 -0.0034534694 0.011127714
-0.0011149395 -0.019039448 -0.020860348
0.0050000004 -0.014536859 -0.010034457
-0.0050000004 -0.017864164 0.010603111
0.0013139031 0.022184445 0.01763783
0.01112049 -0.012010057 -0.0033898065
-0.0050000004 -0.011750462 0.014775742
-0.0050000004 0.008904676 0.029237788
-0.0044613336 -0.026210746 -0.01632892
0.0050000004 0.0073208464 -0.027752325
-0.0050000004 -0.0088916887 -0.018461853
-0.0050000004 -0.017279673 -0.018473526
-0.0050000004 -0.0064946711 0.016807294
0.0042063105 -0.0079860101 0.029948626
-0.002412207 0.029288927 0.0067529655
0.0027056071 0.030402742 0.0021528129
0.0093217883 0.0058217784 -0.0051954975
-0.0039514024 0.030046167 0.007245101
0.0015242642 0.028531717 -0.0019784395
