# .PCD v0.7 - Point Cloud Data file format
VERSION 0.7
FIELDS x y z
SIZE 4 4 4
TYPE F F F
COUNT 1 1 1
WIDTH 1000
HEIGHT 1
VIEWPOINT 0 0 0 1 0 0 0
POINTS 1000
DATA ascii
0.00092112529 -7.5863347e-05 -0.0044900146
0.00062828918 -6.4893225e-05 -0.0044914591
0.0072331764 -6.1278952e-05 -0.0044919346
0.0017173871 -2.2928971e-05 -0.0044969819
0.0014339903 3.785716e-05 -0.0044950172
0.002292044 6.7684283e-05 -0.0044910912
0.0043936735 7.2375668e-05 -0.0044904738
0.0084209992 -0.00010153948 -0.0044866353
0.00077496335 0.00016017118 -0.0044789184
0.0044354172 0.00020617656 -0.0044728625
0.0024979394 -0.00024104796 -0.0044682729
0.0014215928 0.00027288101 -0.0044640829
0.0047373874 -0.00036130525 -0.0044524446
0.0061431364 0.00033714887 -0.0044556237
0.0017486666 -0.00043844784 -0.0044422909
0.0042899181 -0.00042687697 -0.004443814
0.0056011924 -0.00042920726 -0.0044435072
0.0070017017 -0.00038754323 -0.0044489908
0.00046545517 0.00018752021 -0.0044407714
0.005811831 0.00039550447 -0.0044479435
0.0064793834 0.00041474664 -0.0044454103
0.001241862 0.00043150957 -0.004443204
0.0080666067 0.00043398963 -0.0044428781
0.0027641929 -0.00052970258 -0.0044302801
0.0081155598 -0.00052896858 -0.0044303765
0.0020431173 -0.00046449219 -0.0044388631
0.0039793742 0.0005301864 -0.0044302163
0.005177713 -0.0006823772 -0.0044101845
0.00082270347 0.00062400528 -0.0044178679
0.0028086836 -0.00072037731 -0.0044051833
0.0044584065 0.00072389538 -0.0044047199
0.0053536557 -0.00083158968 -0.0043905452
0.0087965634 -0.0007742712 -0.0043980894
0.0051814783 0.00077838643 -0.0043975478
0.0088515645 0.00082062237 -0.0043919883
0.0061785225 -0.00088857108 -0.0043830448
0.0033178532 -0.00087274925 -0.0043851272
0.00043322615 0.00035233388 -0.0043868474
0.0060714185 0.00087517785 -0.0043848078
0.0046032122 -0.00096788717 -0.0043726056
0.00040637676 0.00024138931 -0.0043745986
0.0056732986 0.00094938307 -0.0043750405
0.0083463108 0.00095805258 -0.0043738997
0.0083685918 0.00096373365 -0.0043731518
0.00083569781 -0.0010568524 -0.0043608951
0.0013523469 0.0010090919 -0.004367182
0.0038782088 0.0010084513 -0.0043672659
0.0086004809 -0.0011228252 -0.004352212
0.0055208448 0.0010881713 -0.0043567731
0.005946686 0.0010812025 -0.0043576905
0.0015699463 0.0011330775 -0.0043508629
0.007538666 -0.0011473203 -0.0043489877
0.0010456626 -0.0011959089 -0.0043337718
0.00035366896 0.00031881643 -0.0043116966
0.0016741937 0.0012864537 -0.0042962618
0.0044316766 -0.001367653 -0.0042626238
0.0057220934 -0.0013850193 -0.0042554303
0.0062209847 0.0013763502 -0.004259022
0.0042265188 -0.0014183477 -0.0042416235
0.002971624 -0.0014014915 -0.004248606
0.0030132334 0.0014207541 -0.0042406265
0.006188307 -0.0014354731 -0.0042345286
0.0092507554 -0.00017325443 -0.004226435
0.002727461 0.0014673478 -0.0042213248
0.0022069782 0.0014787801 -0.0042165881
0.0063544847 -0.0015138596 -0.0042020562
0.0031538443 0.0015548918 -0.0041850582
0.0028814718 -0.0015995422 -0.0041665612
0.00413479 -0.0016975384 -0.0041259648
0.0092575904 0.00087989558 -0.0041265786
0.00053795282 -0.0017241987 -0.0041149203
0.0067903013 0.0017162387 -0.0041182181
0.0093852766 0.0001750028 -0.0040916838
0.0029632091 -0.001803846 -0.0040819254
0.0025639862 0.0017856106 -0.0040894803
0.0050272108 0.0017895532 -0.0040878463
0.0052332222 0.0017884764 -0.0040882928
0.0063631558 0.0018123998 -0.0040783822
0.00095806282 0.0018274601 -0.0040721428
0.0076057529 0.0018322397 -0.0040701628
0.0052900491 -0.0018602079 -0.0040585767
0.0042525353 -0.001858483 -0.004059291
0.005107298 -0.0018835553 -0.0040489049
0.0071032783 -0.0018832128 -0.0040490469
0.00026173098 -0.0012757786 -0.0040449789
0.00099583226 0.0019161775 -0.0040353909
0.00067626085 0.0019477111 -0.0040223277
0.0094999988 7.2401563e-05 -0.0039834147
0.0092704305 0.0013455541 -0.0039815484
0.0040957713 -0.0021156685 -0.0039527486
0.0049133725 0.0021114829 -0.0039544832
8.516253e-05 -0.001043719 -0.00394776
0.00078891113 -0.0021562409 -0.003935941
0 -0.00019126196 -0.0039292765
0.0016029002 0.0021879654 -0.0039227991
0.005007003 -0.0022467237 -0.0038984572
0.0094991298 -0.00079993095 -0.0038955566
0.0077276975 -0.0022849701 -0.0038702684
0.0024621857 -0.0022957809 -0.0038619735
0.0032588369 -0.0023126618 -0.0038490214
0.0020540652 -0.0023344147 -0.0038323305
0 0.00044734357 -0.0038030145
0.005382142 0.0023854114 -0.0037932026
0.0092944009 -0.0017481709 -0.0037890435
0.0044673881 0.0024018597 -0.0037805827
0.0051272251 -0.0024788505 -0.0037215087
0.0094999997 -0.0010507648 -0.0037129656
0.0069724475 0.0024833244 -0.0037180767
0.0019729459 0.0025047618 -0.003701628
0.0052831359 -0.0025171624 -0.0036921133
0.0063416795 -0.0025116459 -0.0036963457
0.004610626 0.0025097772 -0.0036977797
0.0073801917 0.0025242998 -0.0036866372
0.0059397724 -0.0025343096 -0.0036789563
0.00077318755 -0.0025973236 -0.0036306074
0.00089369179 0.0025936845 -0.0036333997
0.0010307822 -0.0026111414 -0.0036200057
0.0085347649 0.002600953 -0.003627823
0.0031985724 -0.0026549536 -0.0035863891
0.0058422727 -0.0026516174 -0.0035889491
0.0064919447 0.0027220962 -0.0035348728
0.0057680425 0.0027525888 -0.0035114763
0.006588045 0.0027577737 -0.0035074982
0.00601405 0.0027794344 -0.0034908787
0.0089316238 0.0027834643 -0.0034877865
0.003540891 -0.0028156836 -0.0034630657
0.0061875116 0.0028175758 -0.0034616136
0.0033645581 0.0028209302 -0.0034590401
0.0064958283 0.0028387576 -0.0034453615
0.0086771064 0.0028531309 -0.003434333
0.003658904 -0.0028994156 -0.0033988196
0.0064185439 0.0029308782 -0.0033746797
0.0056168837 0.002938536 -0.0033688038
0.0061900504 -0.0029527256 -0.0033579168
0.0086438423 -0.0030219881 -0.0033047732
0 0.00079839025 -0.0032916141
0.0079704812 0.0030401864 -0.0032908099
0.0089068497 -0.0030513718 -0.003282228
0.0021373059 0.0030413808 -0.0032898937
0.0030060925 -0.0030742378 -0.0032646835
0.0094999997 -0.00090022071 -0.0032562152
0.0010015325 -0.0030994932 -0.0032453053
0.0094999997 -0.00025729692 -0.0032485151
0.002376965 -0.0031081969 -0.0032386279
0.0095000006 -0.00070554629 -0.0032352922
0 0.0021825843 -0.0032386633
0.0048539699 0.0031082623 -0.0032385774
0.0006770289 0.0031370907 -0.003216458
0.0028025354 -0.0031553076 -0.003202481
0.0083465315 -0.003162575 -0.0031969044
0.0094999997 -0.00053546682 -0.0031899635
0.004629333 0.0031810093 -0.0031827602
0.0094570452 -0.0024520059 -0.0031709187
0.0042484268 0.0031961992 -0.0031634942
0.0094999997 -0.002147079 -0.0031519432
0.0039792913 0.0032091057 -0.0031466731
0.0036114685 0.0032108927 -0.0031443445
0.0045989719 0.0032154594 -0.0031383918
0.00073486281 0.0032209549 -0.0031312301
0 0.0022555124 -0.0031245167
0.006606671 0.0032267449 -0.0031236834
0 -0.0020717471 -0.0030823643
0.002656345 -0.003267298 -0.0030708304
0.0022837459 -0.0032737989 -0.0030623574
0.0091009503 0.0031430637 -0.003068306
0 0.00090145628 -0.0030363651
0.0057236925 -0.0032986593 -0.0030299565
0.0081615439 0.0033263655 -0.0029938468
0.0017941938 -0.0033366254 -0.0029804748
0.0094999997 -0.0013684845 -0.0029831922
0.0094999997 -0.00080127455 -0.0029818814
0.0068948334 -0.00012966768 -0.0029829338
0.00066405255 0.00014598451 -0.0029807864
0.0071058208 0.00015022953 -0.0029802276
0.0011905718 0.0033366815 -0.002980401
0.0054867677 -0.00020775749 -0.0029726559
0.0085147247 -0.00020968562 -0.0029724021
0.0091125434 -0.00020365549 -0.0029731956
0.0030247695 -0.00019151432 -0.0029747935
0.0016083716 -0.00027176278 -0.0029642317
0.0080058137 0.00029324347 -0.0029614044
0.0075806053 0.00031590322 -0.0029584223
0.0015323585 0.00033514155 -0.00295589
0.0012442234 -0.0033666289 -0.0029413714
0.00025899734 -0.00044341935 -0.0029416389
0.0032992328 -0.00039449835 -0.0029480779
0.00038971636 -0.00050604891 -0.002933396
0.008875466 -0.00050247269 -0.0029338666
0.0035697878 0.00052661321 -0.0029306891
0.0012237224 -0.00060614548 -0.0029202215
0.0079430193 -0.00057058659 -0.0029249017
0.00045000447 -0.00056532351 -0.0029255946
0.0090364004 -0.00054835237 -0.0029278279
0.00048718281 0.00054009038 -0.0029289154
0.0059621767 0.00054034404 -0.0029288821
0.00083153672 -0.003389983 -0.0029109335
0.00042937839 0.00063003477 -0.0029170774
0.001678711 0.00067876856 -0.0029106634
0.0075533842 -0.003393593 -0.0029062284
0.0060781878 0.00072639732 -0.0029043949
0.0075920043 -0.00078526256 -0.0028941701
0.0088145547 -0.00077055697 -0.0028985823
0.0030944741 -0.00076219888 -0.0028996821
0.0090134935 0.00078808633 -0.0028930008
0.0040246523 0.00079208025 -0.0028913461
0 0.0022188441 -0.002892707
0.0076977182 -0.00079560833 -0.0028898846
0.0023660453 0.00080921181 -0.0028842499
0.0033651313 -0.00082942954 -0.0028758748
0.008911523 0.00082734082 -0.0028767402
2.0825326e-05 0.00084169948 -0.0028707923
0.0048236102 0.0034192789 -0.0028727513
0.0016017249 0.0034213422 -0.0028700619
0.00087821233 0.00084543863 -0.0028692435
0.0018281658 0.0034265232 -0.0028633096
0.002421604 -0.00086991023 -0.0028591061
0.0086424649 -0.00089645735 -0.0028481095
0.0052550323 -0.00091831747 -0.0028390542
0 -0.0017084918 -0.0028125269
0.0074213054 -0.0034716013 -0.002804559
0.0016247547 0.0034726858 -0.0028031457
0.003968745 0.0034726511 -0.0028031899
0.0041273278 -0.0010260621 -0.0027944222
0.0023536144 0.0034789303 -0.0027950059
0.0050372654 0.0034776269 -0.0027967053
0.0064044646 0.001053953 -0.0027828689
0.0086428337 -0.0034920373 -0.0027779245
0.00089016836 -0.0010819227 -0.0027712828
0.0064940681 -0.0010819212 -0.0027712835
0.0071273148 -0.0010803837 -0.0027719203
0.0017059582 -0.0011003438 -0.002763652
0 0.0017706554 -0.0027644774
0.0011523707 -0.0035285098 -0.0027303891
0.0037409137 -0.0011622641 -0.0027380025
0.0049045766 -0.0012048371 -0.0027203672
0.0036392873 0.0035298881 -0.0027285926
0.0016243934 -0.003548959 -0.0027037377
0.0048280368 0.0012308577 -0.0027095887
0.0075976038 -0.0035589125 -0.0026907648
0.0051029357 -0.0012695389 -0.0026935653
0.003400539 0.0012686504 -0.0026939337
0.0020373254 -0.0035648134 -0.0026830742
0.002914476 0.0012984651 -0.0026815834
0.0084589366 -0.0035726863 -0.0026728134
0.0016966311 -0.0013547828 -0.0026582542
0.003712133 -0.0035928867 -0.002646486
0.0062568402 -0.0035920255 -0.0026476085
0.002975177 -0.0036037203 -0.0026323663
0.0038636529 -0.0014016621 -0.002638835
0.0087557966 -0.0036217819 -0.0026088268
0.0089603886 -0.0036285182 -0.0026000473
0.0038498242 -0.0036304193 -0.002597569
0.0075922078 -0.0036294577 -0.0025988223
0.004485955 -0.0014975033 -0.0025991339
0.0012744765 -0.0015291674 -0.0025757167
0.002308392 0.0015302512 -0.0025748848
0.0078691021 0.0015482426 -0.0025610777
0.007534198 -0.0036795214 -0.0025335734
0 0.0030582191 -0.0025286684
0.0088553429 0.0036876851 -0.0025229333
0.0012277096 -0.0036956032 -0.0025126142
0.0017339694 -0.0036963688 -0.0025116159
0.0051340717 -0.0016024144 -0.0025195049
0.0070940196 -0.001604091 -0.0025182182
0.002235763 0.0016062366 -0.0025165721
0.0038292056 0.0036952409 -0.002513086
0.0017566781 0.0036998822 -0.0025070368
0.0044024871 -0.0037185184 -0.0024827479
0.0026760513 -0.0016785281 -0.0024610935
0.0052849292 -0.0037477149 -0.0024446961
0.0041266195 -0.0017002682 -0.0024444095
0.004584162 0.0017020671 -0.0024430295
3.6709942e-05 0.0031838594 -0.0024249721
0.001743057 0.0037660324 -0.0024208219
0.0054399478 0.0037665586 -0.0024201365
0.0041602175 0.0017506944 -0.0024057114
0.0067050341 0.0017526691 -0.0024041962
0.0026388373 0.0017597972 -0.0023987258
0.0028840462 -0.0037901578 -0.0023893793
0 -0.0024250858 -0.0023878238
0.0073445146 0.0037911644 -0.0023880675
0.0033699018 -0.0018130916 -0.0023578263
0.0049939966 -0.0018119768 -0.0023586818
0.0063308594 -0.0018161762 -0.0023554594
0 0.0028515779 -0.0023454644
0.0043946817 0.003823451 -0.0023459878
0.0072817313 -0.003837256 -0.0023279961
0.0023225932 0.0038386392 -0.002326193
0.0044091847 -0.0018845984 -0.0023029502
0.0045570997 -0.0018849213 -0.0023027025
0.00057802099 0.0018758882 -0.0023096348
0.00031966509 0.0018909691 -0.0022980615
0.0012585236 0.0038602231 -0.0022980624
0.0068165315 0.0019332378 -0.0022656235
0.0022013662 0.0038851539 -0.0022655693
0.0022324172 -0.0039008255 -0.0022410078
0.0094999997 0.0022345223 -0.0022439049
0.0094999997 0.0020555044 -0.0022381446
0.0013249612 0.0019892352 -0.0022226498
0.0019751724 -0.002002113 -0.0022127673
0.0043207966 0.0019974594 -0.0022163382
0.0055756369 0.0019970783 -0.0022166308
0.0068621291 0.0020097953 -0.0022068713
0.0042091697 0.0020103932 -0.0022064126
0.00943565 0.0033855229 -0.0022071903
0.0011268127 -0.0020299477 -0.0021914062
0.0076604914 0.002053706 -0.0021731732
0.0086603183 0.0020547367 -0.0021723825
0.0030557781 -0.0039362959 -0.0021553857
0.0056072078 -0.0039357324 -0.0021567456
0 -0.0027625696 -0.0021492145
0.0028269193 -0.0020907866 -0.0021447169
0.0045175473 0.002117137 -0.0021244949
0.0081582591 -0.0039520022 -0.0021174713
0.0074428557 -0.002124974 -0.0021165127
0.0076267431 -0.0021270495 -0.0021138079
0 -0.0033594228 -0.0020900366
0.0056291693 -0.0021497116 -0.002084278
0.0094999997 0.0021563563 -0.0020837013
0.0040643676 -0.0039796336 -0.0020507709
0.0089676129 -0.0039822189 -0.0020445306
0.0054639112 0.0039808899 -0.0020477381
0.0058484823 -0.0039854497 -0.0020367317
0.00541755 -0.0021911585 -0.0020302706
0.0065988465 0.0021927797 -0.0020281575
0 0.0029485412 -0.0020187483
0.004407323 -0.0040019732 -0.0019968438
0.006454892 0.0040076142 -0.0019832277
0.0033023111 0.0022354256 -0.0019725875
0.0021244541 -0.004022283 -0.001947819
0.0044473284 -0.0022665369 -0.0019320475
0.008034518 -0.0040312037 -0.0019262853
0.0094999997 -0.0031814326 -0.0019245679
0.0041987044 -0.0022700781 -0.0019274333
0.00030251342 0.002274503 -0.0019216667
0.0079383468 -0.0040369369 -0.0019124454
2.9149704e-05 -0.0035351659 -0.001903952
0.0012214368 0.0040524583 -0.0018749764
0.0092142737 -0.0038370215 -0.0018399245
0 -0.0027290818 -0.0018341402
0.0076441038 -0.0023408642 -0.0018351944
0.0084993923 0.0023440982 -0.0018309799
0.0034462817 0.0040706391 -0.00183109
0.0022118522 -0.0040740627 -0.0018228263
0.00094278407 0.0023458146 -0.0018287437
0.0030233036 0.0040717847 -0.0018283246
0.0029783093 -0.0023587658 -0.0018118676
0.007399762 -0.004091782 -0.0017800544
0.0041445517 -0.0040896782 -0.0017851318
0.0061117862 -0.0023977228 -0.0017611037
0.0075744949 0.0023939877 -0.0017659713
0.00027850535 -0.0023999254 -0.0017582342
0.009001188 0.0040999386 -0.0017572859
0.0043649515 -0.0024142032 -0.0017396291
0.0032455737 0.0024350889 -0.0017124139
0.0017016877 -0.0024387711 -0.0017076157
0.0093660504 0.0037295776 -0.0017061116
0.0021874623 0.0024582047 -0.0016822921
0.005871065 -0.0041345754 -0.0016767532
0.0049481234 -0.0024883715 -0.0016429832
0.0083913645 0.0041532307 -0.0016317203
0.0059789284 -0.0041557541 -0.00162563
0.00034243613 0.0039894432 -0.001618929
0.0014966676 0.0025162061 -0.0016067127
0.004093382 -0.0041704043 -0.0015902658
0.006287117 -0.0041790768 -0.0015693308
0.0024282623 -0.0025465719 -0.0015671448
0.0061845961 -0.0041846097 -0.0015559748
0.0074347625 0.0042108148 -0.0014927177
0.0016570941 0.0026058061 -0.0014813971
0 -0.003354107 -0.0014657857
0.002828131 -0.004231933 -0.001441741
3.7115518e-05 -0.0026215494 -0.0014433914
0 -0.0029854495 -0.0014324838
0.0055073667 -0.0042387042 -0.0014253947
0.008094429 -0.004237622 -0.0014280069
0.0092037357 -0.0040205647 -0.0014241587
0.0050364281 -0.0026321015 -0.0014179182
0.00217733 0.0026339258 -0.001413514
0.00028567895 0.0040133828 -0.0014141019
0.0011667456 0.0042416025 -0.0014183981
0.0043719192 -0.0026424888 -0.0013928419
0.0091127139 0.0026405496 -0.0013975231
0.0017776386 -0.0026520528 -0.0013697543
0 0.0035399287 -0.0013645816
0.0083023896 -0.0026571804 -0.0013573755
0.009264458 0.0039867982 -0.0013483549
0 -0.0027501897 -0.0013381025
0.0094999997 0.0026987251 -0.0013359662
0.0088767661 0.0026694839 -0.001327674
0.0063378494 0.0026717701 -0.001322155
0.0084462343 0.0026860922 -0.0012875802
0.0068985545 0.0042962744 -0.0012864239
0.0075872778 0.0042991461 -0.0012794929
0 -0.0027187229 -0.0012618704
0.002470728 -0.0026948315 -0.0012664831
0.0047977595 -0.0043128282 -0.0012464654
0.0094999997 0.0034319968 -0.0012339464
0.0076159695 -0.0027137834 -0.0012207309
0.0079123769 -0.0027178857 -0.0012108282
0.0078765051 0.0043274672 -0.0012111275
0.00331947 -0.0043280511 -0.0012097175
0.0032202357 0.0027231637 -0.0011980864
0.0029369376 0.0043472173 -0.0011607731
0.0094999997 -0.0036208802 -0.0011564262
0.0083880993 -0.0027410928 -0.0011548045
0.003124156 0.0043490608 -0.0011467672
0.0054015941 0.0043497887 -0.0011412358
0.0093251234 0.0040115081 -0.0011315438
0.0071790353 -0.0027631463 -0.0011015657
0.0053838394 0.002762733 -0.0011025625
0.005205059 -0.0043559466 -0.0010944488
0.0016992744 0.0043553356 -0.0010990963
0.0017317017 -0.0043594316 -0.0010679762
0.0043725972 0.0043608192 -0.0010574311
0.0056499168 0.0043643969 -0.0010302521
0.008334307 -0.0043709539 -0.00098043669
0.0056204288 -0.0028242541 -0.00095404591
0.001996503 0.0043738652 -0.00095831294
0.002497799 0.0028280385 -0.00094490981
0.0016931663 -0.0043771169 -0.00093361142
0.0030179287 0.0043772147 -0.00093286473
0.0027181762 0.0028348553 -0.00092845334
0.0018063339 -0.0043796501 -0.00091435981
0.0048512956 0.0043803793 -0.00090882205
0.0082796738 0.0028473474 -0.00089829683
0 0.0028829833 -0.00089134951
0.00047063039 0.0028510801 -0.00088928611
0.0092541454 0.0028605829 -0.00086634536
0.0044847792 -0.0043888115 -0.00084475864
0.0061907088 0.0043907338 -0.00083015347
0.0073784925 0.0028772349 -0.00082614628
0.0019390278 -0.004392351 -0.00081786822
0.0080563081 -0.0043999203 -0.00076036243
0.0020010094 -0.0028995334 -0.00076333084
1.8195469e-06 -0.0029012288 -0.00075045001
0.0064028767 0.0044006165 -0.00075507147
0.0019786246 -0.0029023299 -0.00074208423
0.0069035566 0.0029029904 -0.00073706364
0.00928781 0.0041248132 -0.00066369778
0.0024446358 -0.0044141449 -0.00065228954
0.0026868803 -0.0044132206 -0.00065931352
0.002876177 0.0044144313 -0.00065011351
0.0055526043 0.0029155826 -0.00064139214
0.0065193716 0.004414489 -0.00064967317
0.0028707329 -0.0029168932 -0.00063143391
0.0094999997 0.0034520898 -0.00062172598
1.540927e-05 -0.0039360998 -0.00060241343
7.6718599e-05 -0.0029218574 -0.00059371622
0.00028594863 0.0029215622 -0.00059596141
0.0048923255 -0.0044244891 -0.00057369733
0.00012526278 0.0040522804 -0.00055442564
0.0069154468 -0.0029279271 -0.00054760079
0.0091317939 -0.0042988351 -0.00052705244
0 -0.0037064834 -0.00051141268
0.0031270161 -0.0044333893 -0.00050607586
0.0092892293 -0.0041440823 -0.00050666608
0.00022494649 -0.0029335939 -0.00050454325
0.0039539644 -0.0029336896 -0.0005038153
0.00011256505 -0.0029354263 -0.00049062102
0.00010907822 0.0040456154 -0.00048210664
0.0048112455 0.0029376089 -0.00047403824
0.0094749834 0.0039629266 -0.00047161701
0.0094999997 -0.0033356459 -0.00046803593
0.0043404647 0.0044388231 -0.00046479495
0.0030399109 -0.0029395444 -0.00045933336
0.0094797267 0.0029410364 -0.00044799608
0.0070853694 -0.0029486637 -0.00039004645
0.0056513683 -0.0044499571 -0.0003802061
0.0033434178 0.0044501568 -0.00037868551
0.0068075359 -0.0029519233 -0.00036528031
0 -0.00314745 -0.00034419048
0.0021122796 -0.0029556262 -0.00033714582
0.0069509908 -0.0029565413 -0.00033019495
0.0034475075 0.0029570854 -0.00032606139
0.0081612868 -0.0029579948 -0.00031914932
0.0060712136 -0.0029621893 -0.00028728019
0.0010821583 -0.0029640952 -0.0002727992
0.007328568 -0.0029636819 -0.00027594122
0 -0.0038073054 -0.00025189453
0.007216068 0.002965929 -0.00025886693
0 0.0038394558 -0.00018889768
0.0045252615 -0.0029779451 -0.00016756947
0.0083638942 -0.0044814902 -0.00014063186
0.0010132045 -0.0029803757 -0.00014910399
0.0072553898 -0.0029813403 -0.00014177359
0.0017607429 -0.0044819992 -0.00013676405
0.0050762207 -0.0044821631 -0.00013551637
0.0094700009 -0.0040120175 -0.00013659259
0.0094591239 0.0029823389 -0.00013418743
0.0017911752 -0.0044852728 -0.00011189632
0.0047140252 -0.0029900863 -7.5323551e-05
0.0049909879 -0.0029899476 -7.6379962e-05
0.0071998858 0.0044925343 -5.6721085e-05
0.0022556044 0.0029949525 -3.8350154e-05
0.0094999997 -0.0037967169 -8.5234597e-06
0.0012258526 -0.0029990971 6.861575e-06
6.5043889e-05 0.0029998918 8.2379609e-07
0 0.0038909807 2.7980694e-05
0.0086092725 0.0044960063 3.034606e-05
0.0043203849 -0.0044940682 4.5069788e-05
0.001951939 0.0044938046 4.7069432e-05
0.0031311046 -0.0044878693 9.216342e-05
0.0086969277 -0.00448567 0.00010887581
0.0063179932 0.0044814795 0.0001407137
0.0094999997 -0.0037518376 0.00015511113
0.00090141047 0.0029800083 0.0001518944
7.1603681e-05 0.0040508155 0.00015794153
0.0014648156 0.0029779938 0.0001672006
0.0092984671 0.0029746648 0.00019249688
0.0030801054 -0.0044730953 0.00020441304
0.0055870232 -0.0044705886 0.00022345743
0.00073263288 -0.0029697444 0.00022988013
0.0036080778 -0.0029694573 0.00023206029
0.006299722 -0.0044673043 0.0002484092
0.0038160305 0.0029683386 0.00024056021
0.0051263757 0.0029683954 0.00024012748
0.0054518874 -0.0029665465 0.00025417568
0.0059562586 -0.0029667523 0.00025261243
0.0090002688 0.0044662906 0.0002540673
0.0057126596 0.002964559 0.00026927699
0.0090202913 0.0044442713 0.0002692313
0.0072448859 -0.0044636764 0.00027597178
0.0016548471 0.0044632778 0.00027900431
0.00051253673 -0.0044612833 0.00029414875
0.00054454373 0.002958369 0.00031630765
0.0036373318 -0.00445526 0.00033991475
0.0015570421 -0.0029517675 0.00036646295
0.0032262774 0.0029523594 0.0003619687
0.0055675469 0.0029521862 0.00036328426
0.0060123526 0.0029524132 0.00036155689
0.0085558072 0.0044473116 0.00040030206
0.0014784338 -0.0044460176 0.00041013496
0 -0.0035515712 0.00041316295
0.0074771978 0.0044455677 0.00041355129
0.0089152483 0.0029441377 0.00042443365
0.0089437915 -0.0044430862 0.00043240446
0.006393868 -0.0044410513 0.00044786581
0.0068403706 -0.0044417023 0.00044292278
0.0054995669 0.0044420855 0.0004400085
0.0061678584 0.004441984 0.00044078051
0.00043475526 0.0029386284 0.00046629488
0.0024133201 0.0044389288 0.00046399393
0.0064520822 0.0044392045 0.0004618961
0.0012137389 -0.0044327313 0.0005110738
0.0045190677 -0.0029322691 0.00051460753
0.0060658557 -0.0029325779 0.0005122638
0.0041136281 -0.0029308931 0.00052506529
0.0094999997 0.0030016773 0.00052075798
0.0052776318 0.0044279052 0.00054774445
0.0065959496 0.0044273911 0.0005516528
0.0094999997 -0.0035005796 0.00058005186
0.00038422568 0.0043071783 0.00058537372
0.0085191866 0.004422334 0.00059007149
0.0022253019 -0.0044196378 0.00061055331
0.007711323 -0.0044154203 0.00064259866
0.0083666462 0.00441251 0.0006647078
0.008741946 -0.0044112196 0.00067451061
0.0025156534 -0.0029110631 0.0006757307
0.0093742348 0.0040365891 0.00067742966
0.0029598782 -0.0044083237 0.00069652032
0.0032541398 -0.002908576 0.00069462636
0.0092552174 0.0041531534 0.00069611694
0.00096886541 0.0044086874 0.00069375342
0.0041180719 0.0029059625 0.00071448233
0.0084337769 0.004403743 0.00073131704
0.0032134908 0.0044017709 0.00074630033
0.0067489892 -0.0044004205 0.00075655896
0.00056022964 -0.0028981315 0.00077398284
0.0071049244 0.0028977091 0.00077671959
0.0089331223 0.0043964619 0.00078663632
0.0072288788 0.0028902828 0.00079464767
0.0047039348 0.0043938155 0.00080674072
0.0057291342 -0.0043915156 0.0008242185
0.00062214816 -0.0043890136 0.00084322196
0.0029210511 0.0028686719 0.00084681815
0.0062789568 -0.004386181 0.00086474087
0.0073338682 0.0028594208 0.00086915045
0.0021994018 0.0043862164 0.00086447544
0.0094105806 0.0039744293 0.00087347877
0.0028918192 0.0043827482 0.00089082291
0.0034494831 -0.0043810885 0.00090343523
0.0087090153 -0.0028435823 0.00090738561
0 -0.0030500714 0.00091692846
0.002808355 0.0043798545 0.00091280619
0.0094999997 0.0033851273 0.00092770316
0.0046481686 0.0043766722 0.00093699218
0.0072981506 -0.0043751011 0.00094892172
0.0028520529 0.0028272159 0.00094689621
0.0071280748 -0.0043741935 0.00095582061
0.0061471388 -0.004371902 0.00097322866
0.00058067119 0.0043716496 0.00097514637
0.0033081118 -0.0028078647 0.00099361117
0.0015019039 0.0043656426 0.0010207865
0.0084132375 0.0027889765 0.0010392085
0.0046198675 0.0027884876 0.0010403892
0.0062044598 0.0027813709 0.0010575694
0.0094999988 0.0031000336 0.0010713146
0.0031883931 -0.0043549035 0.001102381
0.0032517358 -0.0027637139 0.0011001948
0.0075372215 0.0027636825 0.0011002708
0.0022165223 0.0043526627 0.0011194024
0.003394851 0.0043505123 0.0011357383
0.0064939577 -0.0027445538 0.0011464483
0.00067330932 0.0027409473 0.001155155
0.00115403 -0.0043452983 0.0011680837
0.00092469284 -0.0027361137 0.0011668236
0.0029865836 0.0027314068 0.0011781873
0 0.0029677385 0.0011753688
0.0070708878 0.0043412498 0.001177859
0.0080248499 0.0043392242 0.0011827474
0.0094704004 -0.0038216899 0.0012134012
0.0024759043 0.0043266672 0.0012130585
0.0095000006 0.0029353041 0.0012267196
0.0028693245 0.0043213316 0.0012259388
0.003217234 -0.00270627 0.0012388693
0.0052346722 0.0027080295 0.0012346216
0.0054916455 -0.0026937262 0.0012691509
0.00037140265 0.0026967428 0.0012618691
0.0043976484 0.0043017669 0.0012731652
0.0062637115 -0.0042980346 0.0012821755
0.00029999821 -0.0040829484 0.0012832584
0.0011529514 0.0026851478 0.0012898595
0.002762089 0.0042887963 0.0013044779
0.0078203799 -0.0026723177 0.0013208326
0.0013238408 -0.0042731054 0.0013423518
0.0079659671 0.0026620138 0.0013457079
0.0074580712 0.0026497731 0.0013752562
0.00095393951 0.002643602 0.0013901544
0.0057692975 -0.0026364895 0.0014073248
0.0053414172 0.0026387319 0.0014019117
0.0058453791 0.0026293043 0.0014246705
0.0011147355 -0.0042327028 0.0014398802
0.004760026 -0.0042314748 0.0014428464
0.0024569875 -0.0042239167 0.0014610908
0.002871658 0.002614537 0.0014603197
0.0027408206 -0.0026022077 0.0014900834
0.0094999997 0.0036534902 0.0014938101
0.0094254315 0.0025964072 0.0015022062
0.0016031349 -0.0042013 0.0015156859
0.0034588033 -0.0025860616 0.0015156866
0.008933627 -0.0025834276 0.0015191188
0.0073039527 0.00257851 0.0015255271
0 -0.0033296971 0.0015332008
0.0027563858 -0.0025676996 0.0015396137
0.0075135529 -0.0041877613 0.0015483662
0.0076505681 -0.0025655467 0.0015424191
0.0041471482 -0.0041869185 0.0015504013
0.0062912786 -0.0025509221 0.001561476
0.008696449 0.0025305734 0.0015879915
0.004734728 -0.0024918045 0.0016385094
0.0042675408 0.0041513494 0.0016362623
0.0089927195 -0.0024826503 0.0016504383
0.00068937318 -0.0041346466 0.0016765825
0.0043549342 -0.0041351975 0.0016752511
0.00048734088 0.0041212677 0.0016760849
0.0049930131 0.0024586571 0.001681703
0.0045329244 -0.0041274428 0.0016939694
0.0050910553 0.0024377583 0.0017089354
0.0060753822 -0.0024334237 0.0017145835
0.0083007896 -0.0041105971 0.0017346357
0.008703528 -0.0024121057 0.0017423622
0.0059763561 -0.0024066248 0.0017495039
0.00071232644 0.0024135087 0.0017405339
0.0084736794 -0.0040943539 0.001773844
0.0050811619 -0.0023770223 0.0017880776
0.0089962985 0.0040886956 0.0017875042
0.00013142738 0.003691968 0.0017904015
0.0086057289 -0.0040754005 0.0018195966
0.002297671 -0.0023560196 0.0018154457
0.0064233672 -0.002354346 0.0018176265
0.0064726183 -0.0023571902 0.0018139207
0.0020316921 0.0023572918 0.0018137883
0.0070894784 0.002358983 0.0018115841
0.008050371 -0.0023471315 0.0018270273
0.0012621003 0.0040728129 0.0018258427
0.0017446172 0.0023423396 0.0018332721
0.0030650594 -0.0023358252 0.0018417602
0.0074740206 0.0023354052 0.001842308
0 -0.0028840939 0.0018544146
0.00030317812 0.0023280559 0.0018518842
0.0048865033 0.0040577375 0.001862235
0.0048167594 0.0040519629 0.0018761733
0.006606759 0.0022919164 0.0018989763
0.003586533 0.0040441277 0.0018950878
0.0090637244 0.0022844402 0.0019087185
7.2235285e-05 -0.0022566279 0.0019449594
0.0021708093 0.0040147379 0.0019660315
0.0054972125 -0.0040100687 0.0019773021
0.0077279611 0.0040089758 0.0019799417
0.0037746611 0.0022275483 0.0019828524
0 -0.0029084987 0.0019911276
0.0092822732 0.0036987397 0.0019975994
0.00027498428 0.0037626163 0.0019917411
0.00078479882 -0.0022027909 0.0020151124
0.0060745277 -0.0022015397 0.0020167427
0.0059894659 0.0022056899 0.0020113348
0.0024857479 0.0039964248 0.0020102384
0.0089231348 -0.0021985031 0.0020206999
0.0058098719 -0.0021767674 0.0020490228
0.0013043364 0.0021777013 0.0020478056
0.0042381422 -0.0021571133 0.0020746333
0.006423559 0.0039572478 0.0021048088
0.0044034584 -0.0039516622 0.0021182911
0.0090827355 -0.0038610923 0.0021225866
0.0076586735 -0.0039432701 0.002138549
0.0082533499 -0.0039358186 0.0021565368
0.0028202385 0.002050906 0.002175322
0.0093114357 0.0035645731 0.0021761602
0.0030546633 -0.0020414712 0.0021825626
0.0067253928 0.0020298078 0.0021915135
0.0022147307 0.0039193691 0.0021962456
0.0032280919 -0.0039119497 0.0022141545
0 0.0023175399 0.0022318296
0.0079517886 0.0019565143 0.0022477603
0.0065340842 -0.003892245 0.0022563278
0 -0.0023496738 0.0022767021
0.0068626204 -0.0019215274 0.0022746103
0.0048827766 0.001918975 0.0022765689
0.00060951518 0.0038664541 0.0022899411
0.0021936907 0.0038702746 0.0022849622
0.006803893 -0.0018978547 0.0022927772
0.00036063613 0.0018913668 0.002297756
0.0072268867 0.0018878963 0.0023004194
0.0091835801 -0.0018711899 0.0023132407
0.0015214332 -0.0018628545 0.002319637
0.0035477988 -0.0018654277 0.0023176624
0.004618749 -0.0018655633 0.0023175585
0.001640653 0.0018740916 0.0023110139
0.00089542754 -0.0018549365 0.0023257136
0.00067764957 -0.0038253933 0.002343456
0.0007948135 -0.0038245358 0.0023445736
0.0055487654 -0.0038279321 0.0023401475
0.005303029 0.0018232692 0.0023500158
0.0054915668 0.0038178926 0.0023532321
0.0078729121 -0.0037982415 0.0023788437
0.0063083512 0.0038027384 0.0023729834
0.0035625726 0.0037897322 0.0023899346
0.0076753972 -0.0037876128 0.002392696
0 0.0019312021 0.0023913241
0.0054039205 0.0037882519 0.0023918636
0.0094999997 0.00182205 0.0024140645
0.0055613657 0.0037727882 0.0024120179
0.00049305032 0.0037567921 0.0024215456
0.0089275818 0.0037458609 0.0024471122
0.0085778926 0.0016789052 0.0024608038
0.0091278693 0.0035715925 0.002465982
0.0060911272 -0.0037212984 0.0024791246
0.0057157534 0.0016545038 0.0024795302
0.0074731321 0.0037217098 0.0024785886
0.0072830985 0.0016412021 0.0024897382
0.0053619412 -0.0037072699 0.002497409
0.00067683333 -0.0016289956 0.0024991061
0.00080361834 0.0016158221 0.0025092156
0 0.0017556343 0.0025290777
0.0089716036 -0.0036760722 0.0025380685
0.0038955135 -0.0015870302 0.0025313112
0.0013315879 -0.0036680368 0.0025485414
0 0.0028958763 0.0025468487
0.0035604348 -0.0015604134 0.0025517377
0.0080473581 0.0015553342 0.0025556353
0.0080409851 0.0036626202 0.0025556015
0.009035185 -0.0015485004 0.0025608796
0.0023553406 -0.0036514956 0.0025700994
0.00022146756 0.0015329914 0.0025727816
0.00054628565 0.0015174242 0.0025847284
0.0041018687 0.001523244 0.002580262
0.0011459608 -0.0036333613 0.0025937343
0.0009152806 0.0015091905 0.002591047
0.0071562398 -0.0036220688 0.002608452
0.0091748368 -0.0014870409 0.0026034683
0.0056860121 -0.0014700575 0.0026105032
0.00535338 0.0014586152 0.0026152432
0.0060464246 0.0014641113 0.0026129666
0.0046005356 0.0014286728 0.0026276466
0.0074924259 0.001410846 0.0026350308
0.0082491385 -0.003596728 0.0026414793
0.001409239 -0.0013747904 0.0026499666
0 -0.0024311559 0.0026688036
0.0048868181 -0.003572826 0.0026726308
0.0085024936 0.0013115312 0.0026761708
0.0070997719 -0.0012965341 0.0026823832
0.0094999997 -0.002314104 0.002692034
0.0023199448 -0.0012322502 0.0027090118
0.0081578949 0.0035467283 0.0027066444
0.0080397129 -0.0012228542 0.0027129038
0.0075860717 -0.0011834697 0.0027292187
0.0037117486 -0.0035245095 0.0027356022
0.0046501639 -0.00352712 0.0027322003
0.0080932574 0.001135944 0.0027489052
0.00088420912 0.0011460606 0.0027447147
0.0094999997 0.0017735476 0.0027441627
0.0052388497 0.0035171646 0.0027451755
0.0038714309 -0.0011001671 0.0027637254
0.00094115053 -0.0010701728 0.0027761504
0.00010057852 0.0029973725 0.0027720088
0.0069346484 -0.0010535859 0.0027830212
0.0077105043 0.0010526719 0.0027833998
0.0057719303 0.0034893192 0.0027814668
0.0046537854 -0.0010309968 0.0027923784
0.003361068 0.0034795923 0.002794144
0.0064990097 -0.003471951 0.0028041031
0.0028561531 0.003473551 0.0028020176
0 -0.0027073245 0.00282294
0.002279528 -0.00092557981 0.002836046
0.0094999997 -0.0018686958 0.0028403155
0 0.0014128734 0.0028449134
0.0034528507 0.0034439331 0.0028406193
0.0041328855 -0.00087714696 0.0028561086
0.0070133242 0.00087545073 0.0028568113
0.0037106501 0.0034301316 0.0028586064
0.007796173 -0.0034287991 0.0028603433
0.0094999997 -0.0026167491 0.0028776429
0.0042366376 -0.0034116723 0.0028826648
0.0031328253 -0.00079892774 0.0028885095
0.0077356989 0.0034131305 0.0028807647
0.009360237 -0.0029500388 0.0028975271
0.00058463891 0.00078386202 0.0028947506
0.0092354929 0.0031081273 0.0028946996
0.0023133573 -0.00072428159 0.0029046731
0.0085379826 -0.00071999134 0.0029052375
0.00083586626 -0.00070253492 0.0029075351
0.0035301412 0.00069416 0.0029086373
0.0016901788 0.00073960237 0.0029026568
0.0068903565 -0.00066993834 0.0029118257
0.0040819328 -0.00064608059 0.0029149656
0.0043087937 -0.00060837605 0.0029199282
0.0063517536 0.0006591116 0.0029132504
0.0080166003 0.00065687991 0.0029135442
0.0068254899 0.00066444854 0.0029125477
0.0034666597 -0.0033771407 0.002927671
0.0021258763 -0.0033693649 0.0029378049
0.0048586754 0.00051623175 0.0029320556
0.00034438411 0.00052419555 0.0029310074
0.00076897186 0.0033702247 0.0029366845
0.0070715807 -0.00038948646 0.0029487372
0.00038075581 -0.00036375035 0.0029521247
0.00025029713 -0.00031063752 0.0029591152
0.00039884468 0.00023806217 0.0029686673
0.0077009788 0.00026721184 0.0029648307
0.0094999997 0.00042152809 0.0029653821
0.00037392043 0.00020188306 0.0029734289
2.2237837e-05 -0.0026599541 0.0029854532
0.0036089122 -0.00013034038 0.0029828455
0.0043018144 -0.0001255949 0.0029834695
0.0086429371 0.00014920048 0.0029803629
0.0094999997 -0.0025023497 0.0029904763
0.0056527494 -7.5535754e-05 0.0029900586
0.0023497175 -4.0413757e-05 0.002994681
0.0021386191 2.2365994e-05 0.0029970563
0.0072724684 4.6005967e-05 0.002993945
0.0093319891 0.00280545 0.0030559925
0.008213182 -0.0032479328 0.003096069
0.0006991828 -0.0032440575 0.00310112
0.0085168099 -0.0031960225 0.0031637249
0.0031476507 0.003186085 0.0031766756
0 0.0019529959 0.0031984323
0.0085745193 0.0031290227 0.0032226483
0 0.00064552063 0.0032316893
0.0057445518 -0.0030952096 0.0032485924
0.00098131597 0.0030716849 0.0032666423
0.0022741139 0.0030520284 0.0032817242
0 0.0020233053 0.0033072627
0.0040667234 -0.0030017646 0.0033202905
0 0.0012482575 0.0033369127
0.0053698621 -0.0029714976 0.0033435132
0.0010848306 -0.0029679656 0.0033462234
0.00028649135 0.0026006158 0.0033612729
0.00065833342 0.0029400298 0.0033676575
0.0018576387 -0.0029304884 0.0033749784
0.00094120135 0.0029187191 0.0033840088
0.0012054549 -0.002887632 0.0034078611
0 -0.0012367014 0.0034057798
0.0048660706 0.0028802005 0.0034135629
0.0058816578 -0.0028537603 0.0034338499
0.0081642214 0.0028540236 0.0034336478
0.0013275226 -0.0028256092 0.0034554498
0.0080660805 0.0027987345 0.00347607
0.0022301138 0.0028011834 0.0034741911
0.0020511497 0.0027790314 0.0034911877
0.0075340779 0.0027672646 0.0035002162
0.0037239601 0.0027320248 0.0035272548
0.0014275691 0.0027269635 0.0035311384
0.0021006842 -0.0027106141 0.0035436826
0.0065279845 0.0026905921 0.003559045
0.00052470271 0.0026837934 0.0035642616
0.0038847628 -0.002653192 0.0035877414
0.0072511965 0.0026535254 0.0035874851
0.0026347283 -0.0026369682 0.0036001895
0.0015383905 -0.0026291099 0.0036062186
0.0031486035 0.0026269096 0.0036079071
0.0042890641 -0.0026011979 0.0036276351
0.0032620882 -0.0025849207 0.0036401243
0.0082747201 -0.0025666251 0.0036541622
0.0092656361 0.0021216946 0.0036635958
0.0023801303 0.0025538257 0.0036639823
0.0045654005 -0.0025415721 0.0036733847
0.0030110818 -0.0025366913 0.0036771293
0.0087052481 0.0025379404 0.0036761707
0.0014871398 0.0025313266 0.0036812455
0.00035326942 0.0022733491 0.0036958251
0.00097422866 -0.002499318 0.0037058052
0.0094816601 0.0014678249 0.0037042189
0.00038253341 0.0023045256 0.0037084734
0.0011739748 -0.0024771777 0.0037227923
0.0032160818 0.0024753211 0.0037242169
0.0050903191 -0.0024440445 0.0037482148
0.0047984971 -0.0024001892 0.0037818644
0.0086828461 -0.0023731391 0.0038026187
0.0019266531 -0.0023627474 0.0038105918
0.0018371011 0.0023515893 0.0038191529
0.0088828951 -0.0023378115 0.0038297246
0.0088645266 -0.0023185425 0.0038445098
0.0094999997 -0.00077004806 0.0038478386
0.008172825 -0.0023063864 0.0038538368
0.0050580953 0.0022766632 0.0038766419
0.0013942525 0.0022533757 0.0038945097
0.0090673678 0.0020520617 0.0039067976
0.0021751635 -0.002214873 0.0039116521
0.0052470062 0.0021887866 0.0039224583
0.0027355237 0.0021440978 0.0039409716
0.0028726868 0.0020992148 0.003959565
0.0021637562 0.0020699447 0.0039716903
0.0094973203 2.5232201e-05 0.0039993566
0.0025449167 0.0020017764 0.0039999299
0.0077492669 -0.0019985712 0.0040012579
0.0088037327 -0.0019958524 0.0040023844
0.0021266581 -0.0019690448 0.0040134899
0.0078829434 0.001956295 0.0040187715
0.0049712933 0.00197133 0.0040125428
0.0092765549 -0.0012166844 0.0040283687
0.0093860766 0.0007035461 0.0040213005
0.0029095795 -0.0019051915 0.0040399418
0.0058511933 0.0019266829 0.0040310384
0.0081504639 0.0018911328 0.0040457658
0.0042593433 -0.0018353839 0.0040688608
0.0026468837 -0.0018137501 0.0040778229
0.006172521 0.001817801 0.0040761442
0.005934292 0.0018279451 0.0040719421
0.0054606432 -0.0017533296 0.0041028527
0.0041556931 -0.0017411078 0.0041079163
0.0043112226 -0.001696756 0.0041262889
0.0016890413 -0.0016669645 0.0041386313
0.00032455436 -0.0012122076 0.0041387337
0.0038988362 0.0016524745 0.0041446332
0.0026820058 -0.0016321244 0.004153064
0.0093325144 -0.00012644326 0.0041508428
0.0092364317 0.00085321825 0.0041512512
0.00032939663 -0.00094330567 0.0042052264
0.0027023195 -0.0014172323 0.0042420859
0.0002610425 -6.2488194e-05 0.0042528161
0.0059328643 0.0013752326 0.0042594844
0.0015564917 -0.0013578186 0.0042666984
0.0090907589 -0.0010867512 0.0042661964
0.00040729032 0.0010723833 0.0042661377
0.0008231083 -0.0012683584 0.0043037585
0.0005769342 -0.0012130871 0.0043266555
0.00050863257 -0.0012033699 0.0043306812
0.0063929418 -0.0011808553 0.0043400079
0.0051001059 0.0011732727 0.0043431488
0.0079349782 0.0010758005 0.0043584015
0.005989593 0.0010992748 0.0043553114
0.0041068792 0.0011035872 0.0043547442
0.0036193205 -0.0010208448 0.0043656351
0.0038866901 0.00094925432 0.0043750578
0.0053923894 0.00098711438 0.0043700743
0.0084541766 -0.00086318451 0.0043863868
0.0066451258 0.00088074466 0.0043840753
0.0083283475 -0.00077076565 0.0043985508
0.00089361676 0.00081156089 0.0043931818
0.006371262 -0.00071376661 0.0044060531
0.0022177864 -0.00068786187 0.0044094627
0.0042168861 -0.00061018608 0.0044196867
0.0055519459 0.0006424429 0.0044154408
0.0077814832 0.00065781933 0.0044134171
0.0052141594 -0.00056030205 0.0044262526
0.0049514081 -0.00053684844 0.0044293394
0.0029898584 0.00055143429 0.00442742
0.0026805624 0.00057998864 0.0044236616
0.0055866432 0.00058472791 0.0044230367
0.008632103 0.00058929948 0.004422436
0.001669334 -0.00052910793 0.0044303588
0.002334899 -0.00051810377 0.0044318065
0.0083816405 0.00046860951 0.0044383206
0.0012457595 0.00047361871 0.0044376617
0.0013256606 0.00047430582 0.0044375714
0.0016414489 0.00047201346 0.0044378731
0.0043628472 -0.00041879914 0.0044448767
0.0019508067 0.00045492282 0.0044401223
0.0063811862 -0.00035817258 0.0044528567
0.0011770877 -0.00030921603 0.0044593005
0.0057713445 0.00023472329 0.0044691055
0.0067368224 0.00029233456 0.0044615227
0.0014287451 -0.00017078004 0.0044775223
0.0077134231 0.00018450773 0.0044757151
0.0084606893 0.00019370059 0.0044745053
0.0079702204 0.0002072693 0.004472719
0.0066110175 7.6211523e-05 0.004489969
0.0014782489 2.3829753e-06 0.0044996864
0.0082693836 5.6744688e-05 0.0044925315
