# .PCD v0.7 - Point Cloud Data file format
VERSION 0.7
FIELDS x y z
SIZE 4 4 4
TYPE F F F
COUNT 1 1 1
WIDTH 1000
HEIGHT 1
VIEWPOINT 0 0 0 1 0 0 0
POINTS 1000
DATA ascii
0.0071998863 -5.6721281e-05 -0.0044925343
0.0086092735 3.034586e-05 -0.0044960063
0.0019519392 4.7069236e-05 -0.0044938046
0.0063179936 0.0001407135 -0.0044814795
0.0090002697 0.0002540671 -0.0044662906
0.0016548472 0.0002790041 -0.0044632778
0.003343418 -0.00037868574 -0.0044501568
0.0090202922 0.00026923112 -0.0044442713
0.0085558081 0.00040030185 -0.0044473116
0.0074771983 0.00041355108 -0.0044455677
0.0054995674 0.0004400083 -0.0044420855
0.0061678593 0.00044078031 -0.004441984
0.0043404652 -0.00046479516 -0.0044388231
0.0024133204 0.0004639937 -0.0044389288
0.0064520831 0.00046189586 -0.0044392045
0.0052776323 0.00054774422 -0.0044279052
0.0065959501 0.00055165257 -0.0044273911
0.0085191885 0.00059007126 -0.004422334
0.0028761774 -0.00065011374 -0.0044144313
0.0065193721 -0.0006496734 -0.004414489
0.0083666462 0.00066470756 -0.00441251
0.0064028776 -0.0007550717 -0.0044006165
0.00096886553 0.00069375313 -0.0044086874
0.0084337769 0.0007313168 -0.004403743
0.0032134913 0.00074630009 -0.0044017709
0.0061907093 -0.0008301537 -0.0043907338
0.0089331232 0.00078663608 -0.0043964619
0.0047039352 0.00080674049 -0.0043938155
0.0048512961 -0.00090882223 -0.0043803793
0.0021994023 0.00086447515 -0.0043862164
0.0028918195 0.00089082267 -0.0043827482
0.0019965032 -0.00095831323 -0.0043738652
0.0030179289 -0.00093286484 -0.0043772147
0.0028083553 0.0009128059 -0.0043798545
0.00464817 0.00093699194 -0.0043766722
0.00058067124 0.00097514602 -0.0043716496
0.0043725977 -0.0010574313 -0.0043608192
0.0056499178 -0.0010302523 -0.0043643969
0.001501904 0.0010207862 -0.0043656426
0.0016992745 -0.0010990964 -0.0043553356
0.0022165223 0.0011194021 -0.0043526627
0.0033948512 0.0011357381 -0.0043505123
0.0029369378 -0.0011607733 -0.0043472173
0.0031241567 -0.0011467675 -0.0043490608
0.0054015946 -0.0011412359 -0.0043497887
0.0070708883 0.0011778588 -0.0043412498
0.0080248509 0.0011827472 -0.0043392242
0.0078765051 -0.0012111276 -0.0043274672
0.0024759045 0.0012130582 -0.0043266672
0.002869325 0.0012259386 -0.0043213316
0.00038422571 0.00058537349 -0.0043071783
0.0043976484 0.001273165 -0.0043017669
0.0068985554 -0.001286424 -0.0042962744
0.0075872787 -0.0012794933 -0.0042991461
0.0027620893 0.0013044777 -0.0042887963
0.0011667457 -0.0014183983 -0.0042416025
0.007434763 -0.0014927178 -0.0042108148
0.0083913654 -0.0016317206 -0.0041532307
0.0092552193 0.00069611677 -0.0041531534
0.0042675412 0.0016362622 -0.0041513494
0.0092878118 -0.00066369789 -0.0041248132
0.00048734096 0.0016760847 -0.0041212677
0.0090011889 -0.0017572861 -0.0040999386
0.0089962995 0.0017875039 -0.0040886956
0.0034462821 -0.0018310902 -0.0040706391
0.0030233038 -0.0018283249 -0.0040717847
0.0012621003 0.0018258424 -0.0040728129
0.0012214369 -0.0018749767 -0.0040524583
0.0001252628 -0.00055442576 -0.0040522804
7.1603688e-05 0.00015794134 -0.0040508155
0.0048865038 0.0018622347 -0.0040577375
0.0048167594 0.0018761731 -0.0040519629
0.00010907823 -0.00048210681 -0.0040456154
0.0035865332 0.0018950875 -0.0040441277
0.0093742358 0.00067742949 -0.0040365891
0.00028567898 -0.0014141022 -0.0040133828
0.0093251243 -0.001131544 -0.0040115081
0.0021708095 0.0019660313 -0.0040147379
0.0064548929 -0.0019832279 -0.0040076142
0.0077279625 0.0019799415 -0.0040089758
0.0024857481 0.0020102379 -0.0039964248
0.0054639122 -0.0020477381 -0.0039808899
0.00034243616 -0.0016189292 -0.0039894432
0.0092644598 -0.0013483551 -0.0039867982
0.0094105806 0.0008734786 -0.0039744293
0.0094749834 -0.00047161712 -0.0039629266
0.0064235595 0.0021048086 -0.0039572478
0.002214731 0.0021962454 -0.0039193691
0 2.7980524e-05 -0.0038909807
0.0022013665 -0.0022655695 -0.0038851539
0.002193691 0.002284962 -0.0038702746
0.0012585236 -0.0022980627 -0.0038602231
0.00060951523 0.0022899408 -0.0038664541
0.0023225935 -0.0023261933 -0.0038386392
0 -0.00018889784 -0.0038394558
0.0043946821 -0.0023459881 -0.003823451
0.0054915673 0.0023532319 -0.0038178926
0.0063083516 0.0023729831 -0.0038027384
0.0073445155 -0.0023880678 -0.0037911641
0.0035625731 0.0023899344 -0.0037897322
0.005403921 0.0023918634 -0.0037882521
0.0055613662 0.0024120174 -0.0037727882
0.0017430573 -0.0024208222 -0.0037660324
0.0054399483 -0.0024201367 -0.0037665586
0.00027498431 0.0019917409 -0.0037626163
0.00049305038 0.0024215453 -0.0037567921
0.0089275818 0.002447112 -0.0037458611
0.0093660513 -0.0017061119 -0.0037295776
0.0074731335 0.0024785884 -0.0037217101
0.0038292061 -0.0025130864 -0.0036952407
0.0017566783 -0.0025070368 -0.0036998822
0.0001314274 0.0017904014 -0.003691968
0.0092822742 0.0019975991 -0.0036987397
0.0088553438 -0.0025229335 -0.0036876851
0.008040986 0.0025556013 -0.0036626202
0.0095000006 0.00149381 -0.0036534902
0.0091278702 0.0024659818 -0.0035715925
0.0093114367 0.00217616 -0.0035645731
0.0081578949 0.0027066441 -0.0035467283
0 -0.0013645818 -0.0035399287
0.0036392878 -0.0027285931 -0.0035298879
0.0052388501 0.0027451753 -0.0035171648
0.0057719313 0.0027814666 -0.0034893192
0.001624755 -0.0028031459 -0.0034726856
0.0039687455 -0.0028031904 -0.0034726511
0.0023536147 -0.0027950066 -0.0034789303
0.0050372658 -0.0027967058 -0.0034776267
0.0033610684 0.0027941437 -0.0034795925
0.0028561533 0.0028020174 -0.0034735515
0.0095000006 -0.0006217261 -0.0034520898
0.003452851 0.0028406188 -0.0034439331
0.0095000006 -0.0012339464 -0.0034319968
0.0037106506 0.0028586062 -0.0034301321
0.0016017252 -0.0028700621 -0.003421342
0.0018281661 -0.0028633098 -0.0034265232
0.0048236111 -0.0028727516 -0.0034192789
0.0077356989 0.0028807647 -0.003413131
0.00943565 -0.0022071907 -0.0033855229
0.0095000006 0.00092770305 -0.0033851273
0.00076897192 0.0029366841 -0.0033702247
0.0011905719 -0.0029804013 -0.0033366815
0.0081615448 -0.002993847 -0.0033263653
0.00073486287 -0.0031312304 -0.0032209547
0.0066066715 -0.0031236834 -0.0032267447
0.0036114687 -0.0031443445 -0.0032108924
0.0045989724 -0.0031383922 -0.0032154594
0.0039792918 -0.0031466733 -0.0032091055
0.0042484272 -0.0031634946 -0.003196199
0.0046293335 -0.0031827604 -0.0031810089
3.6709949e-05 -0.0024249726 -0.0031838594
0.0031476514 0.0031766756 -0.0031860857
0.0091009513 -0.003068306 -0.0031430633
0.00067702896 -0.0032164583 -0.0031370902
0.0085745193 0.0032226481 -0.0031290229
0.0048539704 -0.0032385779 -0.0031082623
0.0095000006 0.0010713144 -0.0031000336
0.0092354948 0.0028946993 -0.0031081275
0.00098131609 0.0032666419 -0.0030716851
0 -0.0025286686 -0.0030582191
0.0022741142 0.0032817239 -0.0030520286
0.0079704821 -0.0032908102 -0.0030401861
0.0021373061 -0.0032898937 -0.0030413806
0.0095000006 0.00052075787 -0.0030016773
0.0022556044 -3.8350285e-05 -0.0029949525
6.5043896e-05 8.2366495e-07 -0.0029998918
0.00010057854 0.0027720088 -0.0029973728
0.0094591249 -0.00013418756 -0.0029823389
0.00090141059 0.00015189427 -0.0029800083
0.0014648157 0.00016720047 -0.0029779938
0.009298468 0.00019249674 -0.0029746648
0.0072160685 -0.00025886705 -0.002965929
0.0038160309 0.0002405601 -0.0029683386
0.0051263762 0.00024012737 -0.0029683954
0.00571266 0.00026927685 -0.002964559
0 0.0011753686 -0.0029677385
0.003447508 -0.00032606153 -0.0029570854
0.00054454384 0.00031630753 -0.002958369
0.0032262777 0.00036196859 -0.0029523594
0.0055675474 0.00036328414 -0.0029521862
0.0060123531 0.00036155677 -0.0029524132
0 -0.0020187483 -0.0029485412
0.0094797285 -0.00044799622 -0.0029410364
0.0089152493 0.00042443356 -0.0029441377
0.00065833348 0.0033676575 -0.0029400301
0.0064185443 -0.0033746797 -0.0029308777
0.0056168842 -0.0033688042 -0.0029385358
0.0048112459 -0.00047403839 -0.0029376089
0.00043475529 0.00046629473 -0.0029386284
0.0095000006 0.0012267195 -0.0029353041
0.00028594866 -0.00059596158 -0.0029215622
0.0055526048 -0.00064139231 -0.0029155826
0.00094120152 0.0033840088 -0.0029187193
0.0069035576 -0.0007370637 -0.0029029904
0.0041180723 0.00071448222 -0.0029059625
0.0071049253 0.00077671948 -0.0028977091
0.0072288793 0.00079464755 -0.0028902828
0 0.0025468487 -0.0028958768
0 -0.00089134957 -0.0028829833
0.0048660715 0.0034135629 -0.002880201
0.007378493 -0.0008261464 -0.0028772349
0.0092541464 -0.00086634554 -0.0028605829
0.0029210513 0.00084681809 -0.0028686719
0.0086771073 -0.003434333 -0.0028531307
0 -0.0023454649 -0.0028515779
0.00047063039 -0.00088928622 -0.0028510801
0.0073338691 0.00086915033 -0.0028594208
0.0081642214 0.0034336478 -0.0028540241
0.0082796747 -0.00089829694 -0.0028473474
0.0064958287 -0.0034453615 -0.0028387571
0.0027181765 -0.00092845346 -0.0028348553
0.0033645583 -0.0034590401 -0.00282093
0.0024977992 -0.00094490999 -0.0028280385
0.0028520531 0.00094689603 -0.0028272159
0.0061875125 -0.0034616138 -0.0028175756
0.00933199 0.0030559925 -0.0028054502
0.0022301141 0.0034741908 -0.0028011838
0.0080660814 0.0034760698 -0.0027987347
0.0089316256 -0.0034877867 -0.002783464
0.0084132394 0.0010392084 -0.0027889765
0.004619868 0.0010403891 -0.0027884876
0.0062044603 0.0010575693 -0.0027813709
0.0060140505 -0.003490879 -0.0027794344
0.00205115 0.0034911877 -0.0027790316
0.0053838398 -0.0011025628 -0.002762733
0.0075372225 0.0011002707 -0.0027636825
0.0075340788 0.0035002162 -0.0027672646
0.005768043 -0.0035114768 -0.0027525888
0.0065880455 -0.0035074984 -0.0027577735
0.00067330938 0.0011551548 -0.0027409473
0.0029865839 0.0011781871 -0.0027314068
0.0037239604 0.0035272548 -0.0027320252
0.0064919451 -0.0035348728 -0.0027220959
0.0032202359 -0.0011980865 -0.0027231637
0.0014275693 0.0035311382 -0.0027269637
0.0052346727 0.0012346215 -0.0027080295
0.0095000006 -0.0013359662 -0.0026987251
0.00037140268 0.001261869 -0.0026967428
0.006527985 0.0035590448 -0.0026905923
0.0084462352 -0.0012875804 -0.0026860922
0.0011529515 0.0012898594 -0.0026851478
0.00052470277 0.0035642614 -0.0026837934
0.0063378504 -0.0013221552 -0.0026717701
0.0088767661 -0.0013276743 -0.0026694839
0.007965968 0.0013457078 -0.0026620138
0.0072511975 0.0035874851 -0.0026535259
0.0091127148 -0.0013975232 -0.0026405496
0.0074580722 0.0013752561 -0.0026497731
0.00095393963 0.0013901542 -0.002643602
0.0021773302 -0.0014135141 -0.0026339258
0.0053414181 0.0014019116 -0.0026387319
0.0058453796 0.0014246703 -0.0026293043
0.003148604 0.0036079069 -0.0026269099
0.0028716584 0.0014603197 -0.002614537
0.0085347658 -0.003627823 -0.0026009528
0.0016570943 -0.0014813971 -0.0026058061
0.00028649135 0.0033612729 -0.0026006161
0.00089369185 -0.0036333997 -0.0025936845
0.0094254324 0.0015022061 -0.0025964072
0.0073039536 0.001525527 -0.00257851
0.0023801306 0.0036639823 -0.002553826
0.008696449 0.0015879914 -0.0025305734
0.0087052481 0.0036761705 -0.0025379406
0.00148714 0.0036812455 -0.0025313266
0.0073801922 -0.0036866372 -0.0025242995
0.0014966679 -0.0016067129 -0.0025162061
0.0019729461 -0.003701628 -0.0025047618
0.0046106265 -0.00369778 -0.002509777
0.0069724484 -0.003718077 -0.0024833241
0.003216082 0.0037242169 -0.0024753215
0.0021874625 -0.0016822921 -0.0024582047
0.0049930136 0.0016817029 -0.0024586571
0.003245574 -0.0017124139 -0.0024350889
0.0050910562 0.0017089354 -0.0024377583
0.00071232649 0.0017405339 -0.0024135087
0.0044673886 -0.0037805827 -0.0024018595
0.0075744959 -0.0017659713 -0.0023939877
0.0053821425 -0.0037932026 -0.0023854112
0.0020316923 0.0018137883 -0.0023572918
0.0070894794 0.0018115841 -0.002358983
0.0018371013 0.0038191529 -0.0023515895
0.0084993932 -0.0018309799 -0.0023440982
0.00094278413 -0.0018287437 -0.0023458146
0.0017446175 0.0018332719 -0.0023423396
0.0074740215 0.001842308 -0.0023354052
0.00030317815 0.0018518841 -0.0023280559
0 0.0022318296 -0.0023175401
0.00038253344 0.0037084734 -0.0023045256
0.0066067595 0.0018989763 -0.0022919164
0.0090637254 0.0019087185 -0.0022844402
0.00030251342 -0.0019216667 -0.002274503
0.00035326945 0.0036958251 -0.0022733491
0.0050580958 0.0038766419 -0.0022766634
0 -0.0031245167 -0.0022555122
0.0013942526 0.0038945097 -0.0022533762
0.0095000006 -0.0022439049 -0.0022345223
0.0033023115 -0.0019725878 -0.0022354256
0.0037746616 0.0019828521 -0.0022275483
0 -0.0028927072 -0.0022188441
0.0059894663 0.0020113348 -0.0022056899
0.0065988475 -0.0020281575 -0.0021927797
0.0016029003 -0.0039227991 -0.0021879652
0 -0.0032386635 -0.002182584
0.0052470067 0.0039224583 -0.0021887869
0.0013043365 0.0020478056 -0.0021777013
0.0095000006 -0.0020837013 -0.0021563563
0.002735524 0.0039409716 -0.002144098
0.009265637 0.0036635958 -0.0021216946
0.0049133734 -0.0039544832 -0.0021114829
0.0045175478 -0.0021244949 -0.002117137
0.0028726871 0.003959565 -0.0020992151
0.0021637564 0.0039716903 -0.0020699452
0.0095000006 -0.0022381446 -0.0020555044
0.0076604923 -0.0021731732 -0.002053706
0.0086603202 -0.0021723825 -0.0020547367
0.0028202387 0.002175322 -0.002050906
0.0090673696 0.0039067976 -0.002052062
0.0067253932 0.0021915135 -0.002029808
0 0.0033072627 -0.0020233055
0.0042091701 -0.0022064126 -0.0020103932
0.0068621291 -0.0022068713 -0.0020097953
0.0025449169 0.0039999299 -0.0020017768
0.004320797 -0.0022163382 -0.0019974594
0.0055756373 -0.0022166308 -0.0019970783
0.0013249613 -0.0022226498 -0.0019892352
0.0049712937 0.0040125428 -0.0019713303
0.0079517895 0.0022477603 -0.0019565145
0 0.0031984323 -0.0019529961
0.0078829443 0.0040187715 -0.0019562955
0.00067626091 -0.0040223277 -0.0019477109
0.006816532 -0.0022656235 -0.0019332377
0 0.0023913241 -0.0019312022
0.0058511943 0.0040310384 -0.0019266832
0.00099583238 -0.0040353909 -0.0019161772
0.0048827771 0.0022765689 -0.001918975
0.00031966512 -0.0022980615 -0.0018909691
0.00036063616 0.002297756 -0.0018913668
0.0081504639 0.0040457658 -0.001891133
0.0072268876 0.0023004194 -0.0018878963
0.00057802099 -0.0023096348 -0.0018758881
0.0016406531 0.0023110139 -0.0018740917
0.0076057543 -0.0040701628 -0.0018322396
0.00095806294 -0.0040721428 -0.0018274599
0.0053030294 0.0023500158 -0.0018232694
0.0095000006 0.0024140645 -0.0018220501
0.0059342925 0.0040719421 -0.0018279454
0.0063631558 -0.0040783822 -0.0018123996
0.006172522 0.0040761442 -0.0018178013
0.0025639865 -0.0040894803 -0.0017856103
0.0050272113 -0.0040878463 -0.0017895531
0.0052332226 -0.0040882928 -0.0017884758
0 -0.0027644774 -0.0017706553
0.0095000006 0.0027441627 -0.0017735477
0.0041602179 -0.0024057114 -0.0017506944
0.0067050345 -0.0024041962 -0.001752669
0.0026388376 -0.0023987258 -0.0017597972
0 0.0025290777 -0.0017556344
0.0067903018 -0.0041182181 -0.0017162384
0.0045841625 -0.0024430295 -0.001702067
0.0085778935 0.0024608038 -0.0016789053
0.0057157543 0.0024795302 -0.001654504
0.0038988369 0.0041446332 -0.0016524747
0.0072830995 0.0024897382 -0.0016412021
0.00080361846 0.0025092156 -0.0016158222
0.0022357632 -0.0025165721 -0.0016062364
0.0031538445 -0.0041850582 -0.0015548915
0.0080473591 0.0025556353 -0.0015553343
0.007869103 -0.0025610777 -0.0015482426
0.0023083922 -0.0025748848 -0.0015302511
0.00022146759 0.0025727816 -0.0015329915
0.0041018692 0.002580262 -0.0015232441
0.00054628571 0.0025847284 -0.0015174244
0.00091528072 0.002591047 -0.0015091907
0.0022069784 -0.0042165881 -0.0014787798
0.0027274613 -0.0042213248 -0.0014673477
0.0060464251 0.0026129666 -0.0014641114
0.009481661 0.0037042189 -0.001467825
0.0053533805 0.0026152432 -0.0014586154
0.0030132337 -0.0042406265 -0.001420754
0.0046005356 0.0026276466 -0.001428673
0.0074924268 0.0026350308 -0.001410846
0 0.0028449134 -0.0014128736
0.0062209852 -0.004259022 -0.0013763499
0.0059328652 0.0042594844 -0.0013752327
0.0092704324 -0.0039815484 -0.0013455539
0.0085024945 0.0026761708 -0.0013115314
0.0029144762 -0.0026815834 -0.0012984651
0.0016741938 -0.0042962618 -0.0012864532
0.0034005395 -0.0026939337 -0.0012686503
0 0.0033369127 -0.0012482576
0.0048280368 -0.0027095887 -0.0012308575
0.0051001064 0.0043431488 -0.0011732731
0.00088420918 0.0027447147 -0.0011460608
0.0015699463 -0.0043508629 -0.0011330773
0.0080932584 0.0027489052 -0.0011359442
0.0041068802 0.0043547442 -0.0011035874
0.0059895935 0.0043553114 -0.0010992752
0.0055208458 -0.0043567731 -0.001088171
0.005946687 -0.0043576905 -0.0010812023
0.00040729035 0.0042661377 -0.0010723835
0.0079349792 0.0043584015 -0.0010758009
0.0064044655 -0.0027828689 -0.0010539527
0.0077105053 0.0027833998 -0.001052672
0.001352347 -0.004367182 -0.0010090916
0.0038782093 -0.0043672659 -0.0010084511
0.0053923903 0.0043700743 -0.00098711462
0.0083685927 -0.0043731518 -0.00096373342
0.0083463117 -0.0043738997 -0.00095805235
0.0056732991 -0.0043750405 -0.00094938284
0.0038866906 0.0043750578 -0.00094925455
0 -0.0030363651 -0.00090145617
0.0066451267 0.0043840753 -0.00088074489
0.006071419 -0.0043848078 -0.00087517762
0.0092575913 -0.0041265786 -0.00087989541
0.0070133246 0.0028568113 -0.00087545085
0.0092364326 0.0041512512 -0.00085321837
2.0825328e-05 -0.0028707923 -0.00084169937
0.00087821239 -0.0028692435 -0.00084543845
0.0088515664 -0.0043919883 -0.00082062214
0.008911524 -0.0028767402 -0.0008273407
0.00089361682 0.0043931818 -0.00081156107
0.0023660455 -0.0028842499 -0.00080921175
0 -0.0032916141 -0.00079839007
0.0040246528 -0.0028913461 -0.00079208007
0.0090134945 -0.0028930008 -0.00078808615
0.00058463897 0.0028947506 -0.00078386214
0.0051814788 -0.0043975478 -0.00077838625
0.001690179 0.0029026568 -0.00073960255
0.0044584065 -0.0044047199 -0.00072389521
0.0060781883 -0.0029043949 -0.00072639721
0.0093860766 0.0040213005 -0.00070354628
0.0035301414 0.0029086373 -0.00069416012
0.0016787113 -0.0029106634 -0.00067876844
0.0068254909 0.0029125477 -0.00066444866
0.0063517545 0.0029132504 -0.00065911171
0.0080166003 0.0029135442 -0.00065688003
0.0077814842 0.0044134171 -0.00065781956
0 0.0032316893 -0.00064552081
0.0055519463 0.0044154408 -0.00064244313
0.00042937841 -0.0029170774 -0.00063003466
0.00082270353 -0.0044178679 -0.0006240051
0.0055866437 0.0044230367 -0.00058472814
0.0086321039 0.004422436 -0.00058929971
0.0026805627 0.0044236616 -0.00057998876
0.0029898586 0.00442742 -0.00055143452
0.00048718287 -0.0029289154 -0.00054009014
0.0059621772 -0.0029288821 -0.00054034393
0.0039793747 -0.0044302163 -0.00053018617
0.0035697883 -0.0029306891 -0.00052661309
0.00034438414 0.0029310074 -0.00052419567
0.0048586759 0.0029320556 -0.00051623193
0.0012457597 0.0044376617 -0.00047361894
0.0013256607 0.0044375714 -0.00047430603
0.0016414492 0.0044378731 -0.00047201366
0.0083816415 0.0044383206 -0.00046860974
0.0019508068 0.0044401223 -0.00045492302
0 -0.0038030145 -0.00044734351
0.0012418621 -0.004443204 -0.00043150934
0.0080666076 -0.0044428781 -0.00043398942
0.0095000006 0.0029653821 -0.00042152821
0.0064793839 -0.0044454103 -0.00041474644
0.0058118319 -0.0044479435 -0.00039550426
0.00043322617 -0.0043868474 -0.00035233371
0.0061431369 -0.0044556237 -0.00033714873
0.0015323586 -0.00295589 -0.00033514143
0.00035366899 -0.0043116966 -0.00031881625
0.0075806063 -0.0029584223 -0.0003159031
0.0080058146 -0.0029614044 -0.00029324336
0.0067368229 0.0044615227 -0.00029233479
0.001421593 -0.0044640829 -0.0002728808
0.0077009797 0.0029648307 -0.00026721196
0.00040637678 -0.0043745986 -0.00024138913
0.00039884468 0.0029686673 -0.0002380623
0.005771345 0.0044691055 -0.00023472351
0.0044354177 -0.0044728625 -0.00020617635
0.00037392048 0.0029734289 -0.00020188319
0.0079702213 0.004472719 -0.00020726952
0.0084606903 0.0044745053 -0.00019370081
0.0004654552 -0.0044407714 -0.00018752003
0.0077134236 0.0044757151 -0.00018450792
0.0093852784 -0.0040916838 -0.00017500264
0.00077496341 -0.0044789184 -0.000160171
0.0071058217 -0.0029802276 -0.00015022942
0.00066405261 -0.0029807864 -0.00014598439
0.0086429389 0.0029803629 -0.0001492006
0.004393674 -0.0044904738 -7.2375471e-05
0.0095000006 -0.0039834147 -7.2401395e-05
0.0066110184 0.004489969 -7.6211727e-05
0.0022920442 -0.0044910912 -6.7684079e-05
0.0082693845 0.0044925315 -5.6744884e-05
0.0072724693 0.002993945 -4.6006098e-05
0.0014339904 -0.0044950172 -3.7856964e-05
0.0021386193 0.0029970563 -2.2366125e-05
0.0094973212 0.0039993566 -2.5232375e-05
0.0014782491 0.0044996864 -2.3831719e-06
0.0017173872 -0.0044969819 2.2929169e-05
0.0023497178 0.002994681 4.0413626e-05
0.00062828924 -0.0044914591 6.4893429e-05
0.0072331773 -0.0044919346 6.1279148e-05
0.00026104253 0.0042528161 6.2488012e-05
0.00092112535 -0.0044900146 7.5863543e-05
0.0056527499 0.0029900586 7.553563e-05
0.0084210001 -0.0044866353 0.00010153968
0.0068948339 -0.0029829338 0.00012966781
0.0043018148 0.0029834695 0.00012559477
0.0093325144 0.0041508428 0.00012644308
0.0036089122 0.0029828455 0.00013034027
0.0092507554 -0.004226435 0.00017325462
0.0014287452 0.0044775223 0.00017077985
0 -0.0039292765 0.00019126212
0.0030247699 -0.0029747935 0.00019151444
0.0054867682 -0.0029726559 0.00020775759
0.0085147265 -0.0029724021 0.00020968575
0.0091125444 -0.0029731956 0.0002036556
0.0024979396 -0.0044682729 0.00024104815
0.0095000006 -0.0032485153 0.00025729716
0.0016083719 -0.0029642317 0.0002717629
0.0011770878 0.0044593005 0.00030921583
0.00025029716 0.0029591152 0.00031063741
0.0063811867 0.0044528567 0.00035817234
0.0047373879 -0.0044524446 0.00036130549
0.00038075584 0.0029521247 0.00036375024
0.0070017027 -0.0044489908 0.00038754343
0.0070715812 0.0029487372 0.00038948632
0.003299233 -0.0029480779 0.00039449846
0.0043628477 0.0044448767 0.00041879894
0.0042899186 -0.004443814 0.0004268772
0.0056011928 -0.0044435072 0.00042920746
0.0017486669 -0.0044422909 0.00043844804
0.00025899734 -0.0029416389 0.0004434195
0.0020431175 -0.0044388631 0.00046449239
0.00038971638 -0.002933396 0.00050604902
0.0088754669 -0.0029338666 0.00050247286
0.0023348993 0.0044318065 0.00051810354
0.0027641931 -0.0044302801 0.00052970281
0.0081155607 -0.0044303765 0.00052896881
0.0016693341 0.0044303588 0.0005291077
0.0095000006 -0.0031899638 0.000535467
0.0049514086 0.0044293394 0.00053684827
0.0090364013 -0.0029278279 0.00054835249
0.0004500045 -0.0029255946 0.00056532369
0.0052141603 0.0044262526 0.00056030176
0.0079430202 -0.0029249017 0.00057058665
0.0012237225 -0.0029202215 0.00060614554
0.0043087942 0.0029199282 0.00060837594
0.0042168866 0.0044196867 0.0006101859
0.0040819333 0.0029149656 0.00064608047
0.0068903575 0.0029118257 0.00066993822
0.0051777135 -0.0044101845 0.00068237749
0.0022177866 0.0044094627 0.00068786164
0.0095000006 -0.0032352922 0.00070554641
0.00083586638 0.0029075351 0.0007025348
0.0085379826 0.0029052375 0.00071999122
0.0063712629 0.0044060531 0.00071376638
0.0028086838 -0.0044051833 0.00072037755
0.0023133575 0.0029046731 0.00072428148
0.0030944743 -0.0028996821 0.00076219899
0.0087965643 -0.0043980894 0.00077427138
0.0088145556 -0.0028985823 0.00077055709
0.0095000006 0.0038478386 0.00077004806
0.0083283484 0.0043985508 0.00077076547
0.0075920052 -0.0028941701 0.00078526273
0.0094991308 -0.0038955566 0.00079993112
0.0076977191 -0.0028898846 0.00079560844
0.0031328255 0.0028885095 0.00079892756
0.0095000006 -0.0029818814 0.00080127479
0.0033651316 -0.0028758748 0.00082942977
0.0053536561 -0.0043905452 0.00083158986
0.0024216042 -0.0028591061 0.00086991041
0.0084541785 0.0043863868 0.00086318428
0.0033178537 -0.0043851272 0.00087274943
0.0041328855 0.0028561086 0.0008771469
0.0061785229 -0.0043830448 0.00088857132
0.0086424658 -0.0028481095 0.00089645747
0.0095000006 -0.0032562152 0.00090022094
0.0052550328 -0.0028390542 0.00091831759
0.0022795282 0.002836046 0.00092557969
0.00032939666 0.0042052264 0.00094330555
0.0046032127 -0.0043726056 0.0009678874
0.0041273283 -0.0027944222 0.0010260621
0.0036193207 0.0043656351 0.0010208447
0.0046537858 0.0027923784 0.0010309966
8.5162537e-05 -0.00394776 0.0010437191
0.00083569781 -0.0043608951 0.0010568525
0.0095000006 -0.0037129656 0.001050765
0.0069346488 0.0027830212 0.0010535858
0.00094115065 0.0027761504 0.0010701726
0.00089016842 -0.0027712828 0.0010819229
0.0064940685 -0.0027712835 0.0010819213
0.0071273157 -0.0027719203 0.0010803838
0.0090907607 0.0042661964 0.001086751
0.0017059583 -0.002763652 0.001100344
0.0038714311 0.0027637254 0.0011001669
0.0086004809 -0.004352212 0.0011228253
0.0075386665 -0.0043489877 0.0011473205
0.0037409139 -0.0027380025 0.0011622643
0.0075860722 0.0027292187 0.0011834695
0.0063929427 0.0043400079 0.0011808551
0.0010456627 -0.0043337718 0.0011959091
0.004904577 -0.0027203672 0.0012048373
0.00050863269 0.0043306812 0.0012033696
0.0092765549 0.0040283687 0.0012166841
0.00032455439 0.0041387337 0.0012122075
0.00057693425 0.0043266555 0.0012130869
0.0080397138 0.0027129038 0.0012228542
0.002319945 0.0027090118 0.0012322501
0 0.0034057798 0.0012367013
0.0051029362 -0.0026935653 0.0012695392
0.00082310836 0.0043037585 0.0012683582
0.00026173101 -0.0040449789 0.0012757789
0.0070997723 0.0026823832 0.001296534
0.0016966312 -0.0026582542 0.0013547831
0.0015564918 0.0042666984 0.0013578181
0.0044316771 -0.0042626238 0.0013676535
0.0095000006 -0.0029831922 0.0013684848
0.0014092391 0.0026499666 0.0013747902
0.0057220939 -0.0042554303 0.0013850195
0.0029716245 -0.004248606 0.0014014917
0.0038636529 -0.002638835 0.0014016624
0.0042265193 -0.0042416235 0.0014183479
0.0027023198 0.0042420859 0.001417232
0.006188307 -0.0042345286 0.0014354734
0.0056860126 0.0026105032 0.0014700575
0.0091748377 0.0026034683 0.0014870408
0.0044859555 -0.0025991339 0.0014975035
0.0063544847 -0.0042020562 0.0015138598
0.0012744766 -0.0025757167 0.0015291674
0.0090351859 0.0025608796 0.0015485004
0.0035604353 0.0025517377 0.0015604132
0.0038955137 0.0025313112 0.0015870302
0.0028814722 -0.0041665612 0.0015995424
0.0051340726 -0.0025195049 0.0016024144
0.0070940205 -0.0025182182 0.001604091
0.00067683333 0.0024991061 0.0016289956
0.0026820062 0.004153064 0.0016321242
0.0016890415 0.0041386313 0.0016669643
0.0026760516 -0.0024610935 0.0016785281
0.00413479 -0.0041259648 0.0016975387
0.004311223 0.0041262889 0.0016967558
0 -0.0028125269 0.0017084921
0.0041266195 -0.0024444095 0.0017002684
0.00053795293 -0.0041149203 0.0017241989
0.0092944019 -0.0037890435 0.0017481711
0.0041556936 0.0041079163 0.0017411078
0.0054606437 0.0041028527 0.0017533294
0.0029632093 -0.0040819254 0.0018038462
0.003369902 -0.0023578263 0.0018130916
0.004993997 -0.0023586818 0.0018119769
0.0063308598 -0.0023554594 0.0018161762
0.0026468839 0.0040778229 0.0018137499
0.0042593437 0.0040688608 0.0018353835
0.0042525358 -0.004059291 0.0018584832
0.00089542771 0.0023257136 0.0018549364
0.0052900496 -0.0040585767 0.0018602081
0.0015214334 0.002319637 0.0018628545
0.0035477993 0.0023176624 0.0018654277
0.0046187495 0.0023175585 0.0018655633
0.0095000006 0.0028403155 0.0018686958
0.009183581 0.0023132407 0.0018711899
0.0051072985 -0.0040489049 0.0018835556
0.0071032792 -0.0040490469 0.0018832131
0.0044091851 -0.0023029502 0.0018845985
0.0045571001 -0.0023027025 0.0018849213
0.0068038935 0.0022927772 0.0018978546
0.0029095798 0.0040399418 0.0019051912
0.0068626208 0.0022746103 0.0019215274
0.0021266583 0.0040134899 0.0019690446
0.0077492679 0.0040012579 0.0019985712
0.0088037336 0.0040023844 0.0019958522
0.0019751727 -0.0022127673 0.002002113
0.0011268128 -0.0021914062 0.0020299477
0.0030546635 0.0021825626 0.0020414712
0 -0.0030823643 0.0020717473
0.0028269195 -0.0021447169 0.0020907866
0.0040957718 -0.0039527486 0.0021156687
0.0074428562 -0.0021165125 0.002124974
0.007626744 -0.0021138079 0.0021270495
0.0095000006 -0.0031519432 0.0021470794
0.0056291698 -0.002084278 0.0021497116
0.00078891119 -0.003935941 0.0021562411
0.0042381426 0.0020746333 0.0021571133
0.0058098724 0.0020490228 0.0021767674
0.0054175504 -0.0020302706 0.0021911585
0.0089231366 0.0020206999 0.0021985031
0.00078479887 0.0020151127 0.0022027909
0.0060745282 0.0020167429 0.0022015397
0.0021751637 0.0039116521 0.0022148727
0.0050070034 -0.0038984572 0.0022467242
7.2235292e-05 0.0019449595 0.0022566279
0.0044473289 -0.0019320475 0.0022665369
0.0041987044 -0.0019274333 0.0022700781
0.007727698 -0.0038702684 0.0022849704
0.0024621859 -0.0038619735 0.0022957812
0.0081728259 0.0038538368 0.0023063861
0.0032588372 -0.0038490214 0.0023126623
0.0095000006 0.0026920342 0.002314104
0.0088645276 0.0038445098 0.0023185422
0.0020540655 -0.0038323305 0.002334415
0.0030650599 0.0018417604 0.0023358252
0.008882896 0.0038297246 0.0023378113
0.0076441052 -0.0018351942 0.0023408642
0.0080503719 0.0018270274 0.0023471315
0 0.0022767021 0.0023496738
0.0029783095 -0.0018118676 0.0023587658
0.0022976713 0.0018154457 0.0023560196
0.0064233677 0.0018176265 0.002354346
0.0064726193 0.0018139207 0.0023571902
0.0019266532 0.0038105918 0.0023627472
0.0050811628 0.0017880778 0.0023770223
0.008682847 0.0038026187 0.0023731389
0.0061117867 -0.0017611036 0.0023977228
0.00027850538 -0.0017582341 0.0023999254
0.0059763575 0.0017495039 0.0024066248
0.004798498 0.0037818644 0.0024001889
0.004364952 -0.0017396291 0.0024142032
0.0087035289 0.0017423623 0.0024121057
0 -0.0023878238 0.0024250858
0.0017016878 -0.0017076154 0.0024387711
0.0060753827 0.0017145836 0.0024334237
0 0.0026688038 0.0024311559
0.0050903196 0.0037482148 0.0024440442
0.0094570452 -0.0031709187 0.0024520063
0.0051272251 -0.0037215087 0.0024788508
0.0011739749 0.0037227923 0.0024771772
0.0049481243 -0.0016429831 0.0024883715
0.0089927204 0.0016504383 0.0024826503
0.0047347285 0.0016385096 0.0024918045
0.00097422878 0.0037058052 0.0024993178
0.0095000006 0.0029904768 0.0025023497
0.0052831364 -0.0036921133 0.0025171624
0.00634168 -0.0036963457 0.0025116461
0.0059397728 -0.0036789563 0.0025343103
0.0030110821 0.0036771295 0.002536691
0.0024282625 -0.0015671444 0.0025465719
0.004565401 0.0036733847 0.0025415716
0.00629128 0.0015614763 0.0025509221
0.0027563861 0.0015396138 0.0025676996
0.0076505691 0.0015424193 0.0025655467
0.008274721 0.0036541622 0.0025666249
0.0034588035 0.0015156866 0.0025860616
0.008933628 0.0015191188 0.0025834276
0.0032620886 0.0036401243 0.0025849205
0.00077318767 -0.0036306074 0.0025973241
0.0027408211 0.0014900834 0.0026022077
0.0042890646 0.0036276351 0.0026011977
0.0010307824 -0.0036200057 0.0026111414
0.0095000006 0.0028776433 0.0026167491
3.7115526e-05 -0.0014433913 0.0026215494
0.0015383906 0.0036062188 0.0026291099
0.0050364286 -0.0014179182 0.0026321015
0.0057692979 0.0014073252 0.0026364895
0.0026347286 0.0036001895 0.0026369677
0.0043719192 -0.0013928418 0.0026424888
0.0031985729 -0.0035863891 0.0026549541
0.0058422731 -0.0035889489 0.0026516176
0.0017776388 -0.0013697541 0.0026520528
0.0083023906 -0.0013573754 0.0026571804
2.2237838e-05 0.0029854535 0.0026599541
0.0038847635 0.0035877416 0.0026531918
0.0078203809 0.0013208328 0.0026723177
0.0024707282 -0.001266483 0.0026948315
0.005491646 0.001269151 0.0026937262
0.0032172345 0.0012388693 0.00270627
0 0.0028229405 0.0027073245
0 -0.0012618703 0.0027187229
0.00761597 -0.0012207308 0.0027137834
0.0079123778 -0.0012108281 0.0027178857
0.0021006844 0.0035436831 0.0027106137
0 -0.00183414 0.0027290818
0.0009246929 0.0011668237 0.0027361137
0.0083881002 -0.0011548043 0.0027410928
0.0064939586 0.0011464484 0.0027445538
0 -0.0013381025 0.0027501897
0 -0.0021492143 0.0027625696
0.0071790353 -0.0011015654 0.0027631463
0.0032517363 0.001100195 0.0027637139
0.003308112 0.00099361129 0.0028078647
0.0035408912 -0.0034630657 0.0028156838
0.0056204293 -0.00095404574 0.0028242541
0.0013275227 0.0034554503 0.0028256092
0.0087090163 0.00090738584 0.0028435823
0.0058816588 0.0034338499 0.00285376
0 0.0018544146 0.0028840939
0.001205455 0.0034078611 0.0028876318
0.0036589045 -0.0033988196 0.002899416
0.0020010096 -0.00076333073 0.0028995334
0.0005602297 0.00077398302 0.0028981315
1.819547e-06 -0.00075044989 0.0029012288
0.0019786248 -0.00074208411 0.0029023299
0.00325414 0.00069462642 0.002908576
0 0.0019911281 0.0029084987
0.0028707334 -0.0006314338 0.0029168932
0.0025156541 0.00067573076 0.0029110631
7.6718607e-05 -0.00059371605 0.0029218574
0.0069154478 -0.00054760068 0.0029279271
0.0002249465 -0.00050454307 0.0029335939
0.0039539649 -0.00050381513 0.0029336896
0.00011256506 -0.00049062091 0.0029354263
0.0030399114 -0.00045933321 0.0029395444
0.0045190682 0.0005146077 0.0029322691
0.0060658562 0.00051226391 0.0029325779
0.0041136281 0.00052506541 0.0029308931
0.0018576389 0.0033749789 0.0029304882
0.0070853699 -0.00039004631 0.0029486637
0.0061900513 -0.0033579166 0.0029527256
0.0068075364 -0.0003652802 0.0029519233
0.0021122799 -0.0003371457 0.0029556262
0.0069509912 -0.00033019477 0.0029565413
0.0081612868 -0.0003191492 0.0029579948
0.0015570422 0.00036646306 0.0029517675
0.009360238 0.0028975273 0.0029500388
0.0060712146 -0.00028728004 0.0029621893
0.0010821583 -0.00027279908 0.0029640952
0.0073285685 -0.00027594107 0.0029636819
0.00073263299 0.00022988026 0.0029697444
0.003608078 0.00023206041 0.0029694573
0.0054518883 0.0002541758 0.0029665465
0.00595626 0.00025261255 0.0029667523
0.0010848307 0.0033462236 0.0029679656
0.0045252624 -0.00016756935 0.0029779451
0.0053698625 0.0033435137 0.0029714974
0 -0.0014324837 0.0029854495
0.0010132046 -0.00014910386 0.0029803757
0.0072553903 -0.00014177347 0.0029813403
0.0049909884 -7.6379831e-05 0.0029899476
0.0047140257 -7.532342e-05 0.0029900863
0.0012258528 6.861706e-06 0.0029990971
0.0040667239 0.0033202905 0.003001764
0.0086438432 -0.003304773 0.0030219883
0.0089068506 -0.0032822278 0.003051372
0 0.00091692858 0.0030500714
0.0030060927 -0.0032646833 0.0030742381
0.0010015327 -0.0032453053 0.0030994934
0.0057445518 0.0032485926 0.0030952096
0.0023769652 -0.0032386277 0.0031081969
0 -0.00034419034 0.00314745
0.0028025357 -0.0032024805 0.0031553076
0.0083465325 -0.0031969042 0.0031625754
0.0095000006 -0.0019245677 0.0031814326
0.0085168108 0.0031637251 0.0031960222
0.0082131829 0.0030960692 0.0032479325
0.0006991828 0.0031011202 0.0032440573
0.0026563453 -0.0030708299 0.0032672982
0.0022837464 -0.0030623572 0.0032737991
0.0057236929 -0.0030299562 0.0032986593
0 0.001533201 0.0033296971
0.001794194 -0.0029804748 0.0033366256
0.0095000006 -0.00046803581 0.0033356459
0 -0.0020900364 0.0033594228
0 -0.0014657855 0.003354107
0.0012442236 -0.0029413712 0.0033666289
0.0021258767 0.0029378049 0.0033693647
0.0034666602 0.0029276712 0.0033771405
0.00083153683 -0.002910933 0.003389983
0.0075533846 -0.0029062282 0.003393593
0.0042366381 0.002882665 0.0034116723
0.0077961734 0.0028603435 0.0034287991
0.0074213068 -0.0028045587 0.0034716015
0.0064990101 0.0028041035 0.0034719508
0.0086428337 -0.0027779243 0.0034920375
0.0095000006 0.00058005203 0.0035005796
0.0011523708 -0.0027303887 0.0035285098
0.0037117491 0.0027356024 0.0035245095
0.0046501644 0.0027322008 0.00352712
2.9149707e-05 -0.0019039518 0.0035351659
0.0016243936 -0.0027037372 0.0035489593
0.0075976048 -0.0026907646 0.0035589128
0 0.0004131631 0.0035515712
0.0020373256 -0.002683074 0.0035648136
0.0084589375 -0.0026728131 0.0035726863
0.0048868186 0.0026726313 0.003572826
0.0037121333 -0.0026464856 0.0035928867
0.0062568407 -0.0026476078 0.003592026
0.0082491394 0.0026414795 0.003596728
0.0029751773 -0.002632366 0.0036037203
0.0087557975 -0.0026088266 0.0036217819
0.0089603895 -0.002600047 0.0036285182
0.0075922087 -0.0025988223 0.0036294579
0.0095000006 -0.0011564262 0.0036208802
0.0071562408 0.0026084525 0.0036220686
0.0038498244 -0.0025975686 0.0036304193
0.0011459609 0.0025937348 0.0036333613
0.0023553406 0.0025700997 0.0036514956
0.001331588 0.0025485419 0.0036680368
0.0075341985 -0.0025335732 0.0036795214
0.0089716045 0.0025380687 0.0036760722
0.0012277096 -0.0025126138 0.0036956032
0.0017339697 -0.0025116156 0.0036963688
0 -0.00051141251 0.0037064834
0.0053619416 0.002497409 0.0037072697
0.0044024875 -0.0024827477 0.0037185187
0.0060911276 0.002479125 0.0037212984
0.0052849296 -0.0024446957 0.0037477151
0.0095000006 0.00015511131 0.0037518376
0.0076753977 0.0023926962 0.0037876128
0.0028840464 -0.0023893791 0.0037901581
0.0095000006 -8.5232932e-06 0.0037967169
0.007872913 0.002378844 0.0037982413
0 -0.00025189438 0.0038073054
0.0094704013 0.0012134013 0.0038216899
0.00067764963 0.0023434565 0.0038253933
0.00079481356 0.0023445738 0.0038245355
0.0055487663 0.002340148 0.0038279321
0.0072817318 -0.0023279958 0.003837256
0.0092142755 -0.0018399244 0.0038370215
0.0090827374 0.0021225868 0.0038610923
0.0065340847 0.002256328 0.003892245
0.0022324177 -0.0022410075 0.0039008255
0.0032280921 0.0022141545 0.0039119497
0.0030557786 -0.0021553854 0.0039362959
0.0056072082 -0.0021567454 0.0039357324
1.540927e-05 -0.00060241332 0.0039360998
0.0082533509 0.002156537 0.0039358186
0.0076586744 0.0021385492 0.0039432701
0.008158261 -0.0021174711 0.0039520022
0.0044034589 0.0021182913 0.0039516622
0.0040643685 -0.0020507707 0.0039796336
0.0089676138 -0.0020445306 0.0039822189
0.0058484832 -0.0020367312 0.0039854497
0.004407323 -0.0019968436 0.0040019732
0.0094700018 -0.00013659241 0.0040120175
0.005497213 0.0019773024 0.0040100687
0.0021244546 -0.0019478186 0.004022283
0.0092037357 -0.0014241586 0.0040205647
0.0080345189 -0.0019262852 0.0040312037
0.0079383478 -0.0019124452 0.0040369369
0.0022118522 -0.0018228261 0.0040740627
0.0086057307 0.0018195969 0.0040754005
0.0041445522 -0.0017851315 0.0040896782
0.00029999821 0.0012832588 0.0040829484
0.007399763 -0.0017800542 0.004091782
0.0084736804 0.0017738442 0.0040943539
0.0083007896 0.0017346359 0.0041105971
0.0045329249 0.0016939696 0.0041274428
0.0058710654 -0.0016767529 0.0041345754
0.00068937329 0.0016765827 0.0041346466
0.0043549347 0.0016752513 0.0041351975
0.0092892293 -0.00050666585 0.0041440823
0.0059789289 -0.0016256298 0.0041557541
0.0040933825 -0.0015902654 0.0041704043
0.006287118 -0.0015693305 0.0041790768
0.0061845966 -0.0015559745 0.0041846097
0.0075135538 0.0015483664 0.0041877613
0.0041471482 0.0015504014 0.0041869185
0.001603135 0.0015156864 0.0042013
0.002456988 0.001461091 0.0042239167
0.0028281312 -0.0014417408 0.004231933
0.0055073672 -0.0014253944 0.0042387042
0.008094429 -0.0014280067 0.004237622
0.0011147356 0.0014398806 0.0042327028
0.004760026 0.0014428466 0.0042314748
0.0013238409 0.001342352 0.0042731054
0.0091317948 -0.00052705221 0.0042988351
0.006263712 0.0012821758 0.0042980346
0.0047977604 -0.001246465 0.0043128282
0.0033194709 -0.0012097172 0.0043280511
0.0011540301 0.001168084 0.0043452983
0.0052050594 -0.0010944487 0.0043559466
0.0017317018 -0.001067976 0.0043594316
0.0031883933 0.0011023812 0.0043549035
0.0083343079 -0.00098043645 0.0043709539
0.0016931664 -0.00093361118 0.0043771169
0.001806334 -0.00091435958 0.0043796501
0.007298151 0.00094892189 0.0043751011
0.0071280762 0.00095582084 0.0043741935
0.0061471397 0.00097322901 0.004371902
0.0044847797 -0.00084475841 0.0043888115
0.00062214828 0.00084322219 0.0043890136
0.0062789572 0.00086474104 0.004386181
0.0034494833 0.0009034354 0.0043810885
0.001939028 -0.00081786793 0.004392351
0.0080563091 -0.00076036219 0.0043999203
0.0057291347 0.00082421867 0.0043915156
0.0029598784 0.00069652061 0.0044083237
0.0067489902 0.00075655925 0.0044004205
0.0024446361 -0.00065228931 0.0044141449
0.0026868808 -0.00065931329 0.0044132206
0.0022253022 0.00061055354 0.0044196378
0.0077113239 0.00064259884 0.0044154203
0.0087419469 0.00067451078 0.0044112196
0.004892326 -0.00057369703 0.0044244891
0.0031270166 -0.00050607568 0.0044333893
0.001213739 0.00051107397 0.0044327313
0.0056513688 -0.00038020589 0.0044499571
0.001478434 0.00041013517 0.0044460176
0.0089437924 0.00043240466 0.0044430862
0.0063938689 0.00044786601 0.0044410513
0.0068403715 0.00044292299 0.0044417023
0.0036373322 0.00033991499 0.00445526
0.006299722 0.00024840943 0.0044673043
0.0072448868 0.00027597198 0.0044636764
0.00051253679 0.00029414898 0.0044612833
0.0030801056 0.00020441323 0.0044730953
0.0055870241 0.00022345764 0.0044705886
0.0083638951 -0.00014063166 0.0044814902
0.001760743 -0.00013676385 0.0044819992
0.0050762212 -0.00013551615 0.0044821631
0.0017911753 -0.00011189611 0.0044852728
0.0031311051 9.2163609e-05 0.0044878693
0.0086969286 0.00010887602 0.00448567
0.0043203854 4.5069988e-05 0.0044940682
