# .PCD v0.7 - Point Cloud Data file format
VERSION 0.7
FIELDS x y z
SIZE 4 4 4
TYPE F F F
COUNT 1 1 1
WIDTH 1000
HEIGHT 1
VIEWPOINT 0 0 0 1 0 0 0
POINTS 1000
DATA ascii
0.0059556426 0.00034689167 -0.0094899088
0.0090000005 0.0076717506 0.0047041881
0.012000002 0.0084047839 -0.0031694414
0.0073805507 -0.010206587 -0.0089266477
0.012 -0.013327181 0.0018441522
0.0035000001 0.0024292192 -0.0070515745
0.0020000001 0.0021696868 -0.0094185947
0.0090000005 -0.0076173032 -0.0038839977
0.0029178166 0.00047376286 -0.010232714
0.0015637211 -3.9115042e-07 -0.0094999848
0.0082387365 -0.010673186 0.010358692
0.012 0.0094044441 0.0019613737
0.0085536102 0.01489659 -0.0039924928
0.0085000005 -0.00028595273 0.0072086393
0.012 -0.0072665331 -0.0070659299
0.012 0.0087234816 -0.012708207
0 -0.01557187 0.0028264532
0 -0.0092002209 0.0067088855
0.003 0.0082164211 -0.0024615857
0 -0.007847908 -0.0114678
0.0030887546 0.0022425998 -0.0092286794
0.0048051449 -0.0067210821 0.0067082685
0.012 0.0012681959 0.011326336
8.9162953e-05 -0.012580269 -0.0098772254
0.011684085 0.00091497484 -0.015972875
0.0065735858 -0.00014638409 -0.0029923306
0.0038003195 0.0132239 -0.0066542816
0.003 0.005218769 0.0087457607
0.0064036483 0.0054209405 -0.0077966694
0.003204044 0.0023186516 -0.0078091673
0.0022327714 -0.0019849089 0.0097981337
0.0066079623 -0.0003662215 0.0094893463
0.012 0.0074086357 0.0082074739
0.0035000001 -0.0069061932 -0.0016890505
0.003 1.9426587e-05 0.0096530281
0.003 0.0028741206 0.0078462716
0.0037254149 -0.010387721 0.010733864
0.012 -0.00014329235 -0.011856317
0.0058465176 -0.0094048316 0.0012998331
0.010049402 0.014962988 -0.0056471531
0 -0.0055375523 0.0125195
0.0085000005 -0.005151486 0.0062805484
0.0014449364 -0.010164648 0.012347834
0.012 0.00039467993 0.012327224
0.0056415913 6.1904189e-05 -0.013043102
0.0071822414 0.00081960915 0.0028819581
0.003 0.0095956726 -0.00031849131
0.0030000005 0.00036031031 0.0085045323
0.0066546579 -0.0068450011 -0.0065775062
0.0043244543 0.00091904012 0.0028553163
0.0041197189 0.013220808 -0.0053298445
0.0020000001 -0.0036697385 0.0093446262
0 -0.012231011 0.0022539936
0.0063893902 -0.0043817014 -0.0084258253
0 0.01049016 0.0083643934
0.0082898187 4.1179028e-05 0.009498422
0.0020000001 -0.0035523388 -0.0092914607
0 -0.0095480848 0.0025601517
0.004513632 0.01135338 0.0076448112
0.012 0.0045786537 0.0081820991
0.012 -0.01373554 0.0023856952
0.0091439374 -0.012318589 0.010204167
0.0071731419 0.0053941072 0.012245403
0.0020000001 -0.0056807855 -0.006472562
0.0090000005 0.0032497209 0.0034046182
0.0090000005 0.0024948798 0.0024895878
0.0082227085 0.0092412494 0.0022008573
0.0089647491 0.0030955956 0.00063112692
0.0021953569 0.0015046833 -0.015922261
0.0083913403 0.0047146901 -0.0082462803
0.00097602344 -0.001718074 -0.015903236
0.0074086366 0.0081866244 -0.0048061991
0.012 0.0034336927 -0.011949849
0.0034688234 0.01339534 0.0075575742
0.0077486439 -0.0069735036 0.012166402
0.005111408 0.0023989198 0.012996815
0.011283225 0.013506796 0.0085748807
0.01041729 -0.013307004 0.0088715339
0.0090637263 0.0028647943 -0.015740428
0.0074902894 0.0075406339 -0.011397818
0.0010426881 -0.015975855 0.00076289603
0.012 0.0092292409 0.00052974228
0.0033466718 -0.0071269791 0.013870451
0.0025557801 0.0070514055 0.014355811
0.012 0.011910981 -0.0071651647
0.004100319 0.0030290217 0.013959532
0.0062717241 0.0015093661 -0.0025919979
0.0025160192 -0.0094008157 0.012938682
0.0066408613 0.0055254446 0.01189157
0.0031107506 -0.0072825765 0.0059883874
0.00079733483 -0.0056662383 -0.0076173367
0.0072709885 -0.013092387 0.0031530703
0.0085000005 0.0033138085 0.0056755878
0.0030470954 -0.008939866 0.0032135567
0.0038851188 -0.007105716 -0.0062994268
0.011934934 0.0010228215 -0.015965218
0.0085000005 0.0031921086 -0.004237812
0.0019287883 -0.0082486365 0.01370591
0.003 -0.0039360416 0.007653439
0.0060705803 -0.00064785976 0.0094751725
0.012 -0.0035587416 -0.014891708
0.0071112826 0.0093222465 0.0018115384
0.003 -0.004642379 0.0090715596
0.0081004836 0.013558525 -0.0055110082
0.0082637975 0.01486896 0.0012137342
0.002655495 -0.010249578 0.012278925
0.0037923772 0.0010146804 -0.014786347
0.0064204102 -0.0025419062 -0.0015864992
0.0084846579 0.013806719 0.0065983539
0.012 0.010550969 -0.011602923
0.0035000001 0.0034372327 0.0042505441
0.0071033579 -0.0040290034 -0.0085989004
0.012 0.0090395873 0.011321932
0.010833352 -0.00042236279 -0.0079825344
0 -0.0040107565 0.012016183
0.011842589 0.0029198648 -0.0074407915
0.010643038 -0.0064784945 -0.014628717
0.010145151 -0.0077187228 -0.0020864091
0.0084823854 0.0067952978 -0.013704703
0.0032859338 0.0002658492 0.015693022
0.0048143435 0.01271736 -0.0042293281
0.012000002 0.0075292219 0.0092798136
0.0044499473 -0.0017104665 0.0024614001
0.012 -0.0083058123 0.003542084
0.012 0.013602262 0.0075120502
0.0085000005 0.0023024513 0.0061752601
0.0078852512 0.0053075356 0.0078760758
0.011075686 -0.014824405 0.0060191322
0.0048696031 0.0047953436 0.0081981756
0 0.011659649 -0.0097669018
0.012 0.010695959 0.0010679186
0.0019757512 0.0043526897 -0.0084388824
0.010790707 -0.0054667261 0.015034031
0.0099612111 -0.015691027 -0.0031057312
0.0045367433 -0.0062553119 -0.012141973
0.012 -0.0017269042 0.0083066411
0.010169697 0.015918756 0.001572167
0.0079783276 -0.0072819181 -0.01244779
0.008616914 0.0054111267 -0.0078055616
0 0.008250678 -0.0051932437
0.0084334165 -0.0046107038 -0.014497088
0.012 -0.0058609773 -0.014253463
0.012 0.0044034594 -0.007587383
0 -0.010913391 -0.0051422096
0.003438615 0.0010093319 0.015401285
0.0073647983 0.0094181616 0.0012135294
0.00071498792 -0.0029887138 -0.0090133213
0.0030290263 0.0025363476 0.0019021495
0.012 0.0014133139 -0.010631902
0.012 0.0061042523 0.012415059
0.0042854482 0.012689508 -0.0058554243
0.012 0.0026405123 0.0087660374
0.010664476 -0.0029912975 -0.0074129184
0.0035000001 0.0033277713 -0.0041036252
0.001738829 0.0095564211 0.012827032
0 0.01191976 -0.0013239556
0.0035932399 -0.012714089 0.0082650036
0.012 0.0065732668 0.0066460781
0.0089366836 0.0020389894 0.0091550602
0 0.0049435645 0.013481303
0.004279566 -0.0093761152 0.0014857529
0.007455864 0.01338956 0.0025543643
0.012 0.011900249 0.00034808513
0.005598404 -0.0012561642 0.0094133085
0.0019068947 0.0018333895 -0.015892958
0.012 -0.0070568626 0.0062054759
0.003 -0.0065390603 -0.0076035173
0.00056575215 -0.01599024 0.00052063121
0.012 0.009024024 0.011628938
0.0067101615 0.012146113 -0.0049845898
0.0032244718 0.0062992144 -0.0071019693
0.003 -0.0069197943 -0.0024526585
0.003 0.0038308329 -0.0070691737
0.0050873626 0.010195036 0.0084299548
0.003 0.0083218338 -0.0027644136
0.0064739659 -0.011753346 0.0057059797
0.0085000005 -0.006759428 -0.0038489606
0.0032454946 -0.0030979391 -0.01545781
0.0090000005 0.0021391476 0.0079908418
0.0012236426 -0.011381096 -0.011236685
0.0063890717 0.0051275548 -0.011989485
0.0022390655 -0.0078660985 0.0065706368
0.0018658779 0.011978756 0.010598452
0.0084991977 -0.014159663 0.0058629815
0.0086796647 -0.0078529138 0.013524899
0.012 0.0040226546 0.010769679
0.002357289 -0.0018723586 -0.010070617
0.012 -0.0083865207 -0.012365603
0.0060701794 -0.0058152503 -0.011635386
0.011027337 -0.015772767 0.0026508167
0 -0.011197495 -0.0012719334
0.0065766042 0.0056527248 -0.011811673
0.0039321124 0.0084653543 0.011870128
0.01064042 0.0027374402 0.015761554
0.003 0.0074966615 0.001041011
0.0085000005 -0.0024353231 0.0051056729
0.0050617554 0.0091527961 0.00254138
0.011814395 0.0080614379 0.013818081
0.0058317338 -0.0094553269 -0.00085496128
0.0085000005 0.003528391 -0.0034180374
0.0085000005 0.006686518 -0.0022093903
0.012 -0.009058414 -0.0097742947
0.0033544679 -0.0073782438 0.013719304
0.012 0.006545709 -0.006924822
0.0043271515 0.0047876765 0.0082023451
0.0017567424 -0.0031326485 -0.0089616235
0.0023967819 0.014539972 -0.0066649499
0.0076677948 0.0068029389 -0.012132581
0.0071256193 -0.0081656184 -0.01054983
0.012 0.0077282796 -0.013132138
0.0041269464 0.0019720339 -0.014102872
0.003 0.0094329687 -0.0013734421
0.0078570377 0.0073265997 -0.012176456
0.0028845645 0.0033513533 0.0094185797
0.003 -0.0078308778 -0.003974143
0.0090000005 0.0028552806 0.0034442188
0.003 0.0072892173 0.0055595753
0.0040921378 -0.003717066 0.013809767
0.0084671071 -0.0093881646 -0.0014077409
0.0042523155 -0.0011984573 0.0094177229
0.0010965886 0.0093220323 0.0018266606
0 0.00082437694 0.013366642
0.011393921 0.00088313571 0.015973819
0 -0.0049191383 0.0097316336
0.012 -0.010847415 -0.0082555423
0.012 -0.0036202096 -0.011488795
0.0073247571 -0.00795592 0.010928295
0.011695419 0.0057667429 -0.014919405
0.012 0.0054053785 -0.0059073479
0.0083691319 -0.011176377 -0.010154566
0.0017819548 0.011763467 0.010842795
0.0018192743 0.01465694 -0.0063993689
0.0085000005 0.0047007245 -0.0054925065
0.0029603508 -0.012800319 0.0095889755
0.0087208906 -0.0046902727 0.00074128847
0.0043869773 -0.0091513889 0.0025458273
0 0.013724483 -0.0069070947
0.0020000001 0.00017392657 0.010210237
0.003 0.0080138035 -0.0044002105
0.0034999999 -0.0016753249 0.0061949487
0.0070620156 -0.012126485 0.0054837847
0.011490395 0.015835475 0.0022710769
0.0082440795 -0.0063545476 -0.013459038
0.0070461137 0.0090536894 -0.0028545423
0.0076978742 0.011777207 -0.0074829995
0.012 0.010504002 -0.006528859
0.012 0.0094575249 0.0088925613
0.0038820922 0.005979755 -0.01339004
0.0017962459 0.014248567 0.0072633736
0.0085000005 -0.0048551648 0.0042837057
0 0.00099413237 0.015083222
0.0035505656 0.0047107376 -0.014492469
0.0078234226 -0.0049961112 -0.013242362
0.0090000005 0.008778383 0.0030345677
0.003 0.0079669282 -0.0036457756
0.0085880226 0.0077018803 -0.0055563143
0.012 0.0058651697 -0.0095383367
0 -0.0083504366 -0.0054332451
0.012 -0.0049788267 -0.013921866
0.0088249668 -0.001242904 0.015838284
0.0048273099 -0.0084614195 0.0043049627
0 -0.0034551269 -0.010850099
0.0029999998 -0.0024652043 -0.0023452486
0.0028453034 0.0069116717 -0.0072256508
0.011595961 0.015792131 0.0025430489
0 -0.0014327427 0.014621759
0.008926075 -0.0019365191 -0.0024227353
0.0089506395 0.0034824861 0.0073680296
0.010532388 0.00092054554 0.0079402812
0 -0.0075964122 0.0092089605
0.0031898629 -0.004686397 -0.0082574189
0 -0.0054048719 0.0078831576
0.012 -0.013988292 0.0043556653
0.0097024599 -0.011271141 -0.011349953
0.0035295449 0.0045231842 -0.014593017
0.012 0.0019148999 0.0087943617
0.00090680359 -0.0093937898 -0.0013713195
0.0040949294 0.0046084435 0.0082998089
0.012 -0.0093972422 0.012657669
0.0016087721 0.0020968202 0.0092632566
0.012 -0.0099583054 -0.0098123048
0.003 -0.0095830048 0.0028878127
0 0.01070328 -0.0010798909
0.0095915487 0.0016183215 0.01591213
0.0086234165 -0.0081472248 8.8300236e-05
0.0046518776 0.0068168426 0.0066125086
0.0084358258 -0.005434874 -0.014213963
0.0012572728 -0.0012683262 -0.0094096558
0.0036344992 0.01486164 -0.0026324186
0.012 -0.0050823949 -0.0071081622
0.0035000001 -0.0038768165 0.0052764495
0.012 -0.012783587 -0.0020191267
0.0066607031 0.009497473 8.6879183e-05
0.003 -0.0087397685 -0.0044185189
0.003 0.0022476602 -0.003842765
0.0039317049 -0.0014355396 0.014505411
0.00053450279 -0.015422595 -0.0042553912
0.0056949346 0.0048390706 -0.012102352
0.0037097479 -0.0056134574 0.0076575689
0.0063834991 0.0026388529 0.0014199787
0.012 -0.0066843284 0.0082216458
0 0.010280781 -0.0051362305
0.0057815365 -0.0033096469 0.0088980505
0.003 -0.0058535556 -0.0075763599
0.0085000005 -0.0036681043 -0.0038604732
0.012 0.01156235 0.0036769153
0.0050562546 0.0093017509 0.0019108078
0.0039698235 0.0069622356 0.012735863
0.0085000005 0.0013452213 0.0051496164
0.0038947563 -0.01291715 0.0068950155
0.011268597 0.0073341802 -0.0031930839
0.0080867158 -0.0046815122 -0.008260075
0.010802628 -0.015608595 -0.0034955952
0 -0.0075354706 0.013555156
0.0034859416 -0.0094119171 -0.012128399
0.0090000005 0.0044081635 -0.00014455008
0.012 0.0075692022 0.0095297005
0 0.0013918919 -0.012926719
0.003 0.0076699322 0.0032596807
0.010570302 0.013307338 0.0088710384
0.0090000005 0.0010948756 -0.0090670967
0.00026859224 0.0087818643 0.0036055755
0.0083801467 0.0044685183 -0.014445572
0.00180012 0.00039375445 -0.0094849095
0 -0.0017162226 0.009674429
0.0062943609 0.0094870394 0.00044550785
0.00773104 -0.0065829819 -0.0068490761
0.0085000005 -0.0051109372 -0.0025943776
0.0057926611 0.0028683406 0.0090565551
0.0017605434 -0.012607079 -0.0098421071
0.0033290288 0.0064371512 -0.0049920008
0.0081502534 -0.007450541 0.0058861445
0.0017716871 -0.015846768 -0.0021762943
0.0055618021 -0.013015207 0.0010190612
0.003 0.00022686608 0.0037563264
0 0.015244187 -0.0017823778
0.0020746894 0.0029764015 0.015716938
0.0014574364 0.011345994 -0.011272846
0.0086277295 -0.013413947 0.0078548333
0 -0.0024858993 -0.0095565394
0.0031240724 0.0024559682 -0.009113838
0.011542581 0.0073915543 -0.0030460488
0.01085179 -0.013374394 -0.0087714726
0.0089563876 -0.007827431 0.0022557885
0.0098877959 0.0087835481 -0.013368226
0.0023305051 -0.004207016 0.007266744
0.003 7.7901648e-05 -0.010036725
0.012 0.0078737587 0.010835174
0.0090000005 -0.0042718011 0.0018839949
0 -0.0071955756 0.0062730378
0.0035000001 0.0078846933 -0.0014730061
0.0091801919 0.013736273 -0.0081911245
0.0085000005 0.0055181258 0.0057225968
0.0098024691 0.00034168674 0.015989872
0.0041687326 -0.00053409586 -0.014155225
0.0053833919 -0.0013751488 0.0093973232
0 0.0041990648 -0.015304538
0.012 -0.011602693 -0.0053727343
0.0035000001 0.0022739437 -0.0053805741
0.0030091305 -0.0079630446 -0.004742498
0.0031497125 0.0029335734 -0.0037348156
0.0020033712 -0.0033362112 -0.0076561063
0.0057845968 -0.0092704669 0.002047013
0.011905265 -0.0049816822 -0.0062555424
0.0055030119 -0.00090407074 -0.0028593275
0.0097696111 0.0068658739 -0.0040927371
0.0024961492 -0.0047928705 -0.0087731797
0.0091737946 -0.011080042 -0.011539352
0.012 -0.015536844 0.0022077195
0.011218514 -0.0071419301 -0.0035904681
0.0070487163 -0.0094667915 0.00070563162
0 -0.0016294547 0.015309291
0 -0.007485148 -0.0074721496
0.0035246436 0.014508753 -0.0048139268
0.00080114894 -0.015989222 0.00053777645
0.0052581979 0.001704382 0.013042999
0.0080873342 0.0094560403 -0.00084566727
0.0051400959 0.0014320341 0.0093875472
0.0052913041 -0.0021657839 0.009249106
0.0025827042 -0.0073592607 -0.006765781
0.0090000005 -0.0086067393 0.0022608913
0.0035438701 0.0048976522 0.014441483
0.0081760716 -0.014702392 0.0013558177
0.00041765941 0.0038379538 0.015530598
0.0040749791 -0.010705397 0.0095232036
0.0032543303 -0.0021052551 0.0078711631
0.0057993834 -0.0023985312 -0.0017985768
0.0055785426 -0.0069006085 -0.0065197279
0.003233216 0.015659777 -0.0019953265
0 -0.0058332738 -0.0092092315
0.005275737 0.0059644855 0.0073899911
0.0017705532 0.0083396854 -0.004548742
0.0090000005 -0.0041728388 0.0012400567
0.0090000005 0.0022114359 -0.0084218513
0.0033918463 0.0079724062 -0.0016758343
0.011563905 0.014206592 -0.007345153
0 -0.007797353 0.0085483594
0.0029999998 -0.0061893226 -0.005636726
0.0058364319 0.0074206223 0.0059224241
0.0098912036 -0.0042613479 0.015414882
0.0030437675 -0.0026717938 0.008962689
0.0024618229 0.01167506 -0.010933865
0.0090000005 -0.0037949826 -0.008027846
0.012 0.0093802055 -0.0020988644
0.0072450014 0.0046022772 0.0083068917
0 0.011905001 -0.0072571565
0.0054015303 0.012644876 0.0033857455
0.008412445 -0.015132077 0.0011616063
0.0088136904 -0.0021560348 -0.0078564109
0.0089634648 0.0064608254 -0.0069579422
0.0052414294 0.0084076254 -0.0044154557
0.0090000005 0.0039549344 -0.0079584578
0.0085000005 0.0036186473 0.0071538896
0.012 -0.0041498574 -0.011274628
0 -0.005172228 -0.010466744
0.003473622 -0.014882327 0.003851257
0.003 -0.0049027586 0.0085065467
0.0057129292 -0.0029054149 0.00073206297
0.0026997842 0.009927243 -0.0025452883
0.0063675363 0.00067171099 0.0094734887
0.0053334166 0.0068886625 0.0065406878
0.012 0.0072011994 0.013979906
0.0075298436 0.013723599 -6.8845678e-05
0.0019978785 -0.0093252715 -0.0018128201
0.012000002 0.01456964 -0.0004211702
0 -0.013464045 -0.0059617441
0.003 -0.00028649546 -0.0041019386
0.0098866485 0.0033502537 -0.015638255
0 -0.012003847 0.007089104
0.0063474476 0.0049511245 0.0081031853
0.0090000005 0.0013311332 -0.0084723346
0 -0.0049716849 0.0098427618
0 0.0061624721 -0.010238276
0.0020000001 0.0055913622 0.0068914862
0.0022488332 -0.0047511989 -0.0090749236
0.012 -0.0043440624 -0.0087857228
0.003 -0.0020990768 0.0083743688
0.003 -0.0051877014 -0.008715909
0.0046827691 -0.00059573882 0.002938875
0.012 -0.01180789 -0.0086780051
0.012 -0.010281665 -0.0027266673
0.0086555593 -0.0018517077 0.015488884
0.006148268 0.01293934 0.0013658378
0.012 -0.0043906057 0.0097326003
0 0.012106629 -0.0038427855
0.0035000001 0.003132052 0.004358721
0.012 0.0088555869 -0.0068783257
0.012 -0.012233928 -0.008265187
0.0050901659 0.0016100376 -0.0025266199
0.0077156667 -0.0094739003 -0.010272754
0.001462494 0.014648611 0.0064182822
0 0.013716193 0.0077178972
0.0025444003 0.00016339055 -0.0080829915
0 -0.0053579924 -0.012079814
0.012 0.0085457359 -0.009553575
0.0090000005 0.0051766918 -0.0073070871
0.0084461877 0.0029994096 -1.12744e-05
0.0055834018 0.0050516082 0.012032794
0 0.0053497483 -0.0080492022
0.01147608 -0.003008672 0.015710147
0.008160742 -0.0047939257 -0.013937993
0.0075565265 0.0038612329 0.013202151
0.0060235118 -0.010030253 0.0082881721
0.0090000005 0.0035763709 0.0012240717
0 -0.013167821 -0.0078482637
0.0073903869 -0.0086579435 0.010454768
0.0085000005 -0.0072164005 -0.002895484
0.0052855094 0.0091408379 -0.0094380649
0 0.0021027327 0.014011628
0.003 -0.0064752726 0.0028997601
0.003 0.00090527133 0.0037220896
0.0030074322 0.015943566 0.001306779
0.011116457 -0.0052481568 -0.015107924
0.01038926 -0.013514071 -0.0085640801
0 0.0063066427 -0.0082382858
0.011774844 0.015097358 0.0052854195
0.0079664281 -0.0032620621 0.014026184
0.0076213093 -0.012381045 -0.0061926912
0.0024421969 -0.0014276188 0.008082198
0.0077106124 0.0020106318 0.013819638
0.0090000005 0.0066266097 -0.0054839384
0.011234632 -0.015580689 -0.003611095
0.0042916625 0.0059929783 -0.012618122
0 -0.012163262 -0.0064555993
0.0027204501 0.004609976 0.0062089916
0.0061500887 -0.0012211755 -0.002740148
0.0087975496 -0.0060933842 -0.014620753
0.0015693485 0.0055009131 0.0077433591
0 0.011689022 0.0094959615
0.012 -0.0099771228 -0.0061575109
0.0034453985 -0.0013129297 -0.015362438
0.0036540085 0.0080324719 0.0050654872
0.0085000005 0.0026078688 -0.005735246
0.0048475112 0.0078093298 -0.0054028598
0.0020000001 0.0078882575 -0.0058462028
0.0085000005 -0.00062653213 -0.0081171365
0.0067459815 0.0077164993 -0.0055299359
0.012 0.0083460892 -0.0040757414
0.003675407 -0.0057026725 0.013898132
0 0.012151278 -0.0059649306
0.006503819 -0.0029910849 0.00017015741
0.0031117648 0.0050246506 0.0080558397
0.010490439 -0.0079030013 -0.0012196024
0.012 -0.010578161 0.0085543012
0.0090000005 -0.0081672333 0.0019121141
0.0090000005 -0.0076939864 0.0033115116
0.0086271651 -0.0062536416 -0.005224546
0.011624111 0.0059184078 0.0053797392
0.0076155672 -0.0045020357 -0.008360941
0.012 -0.014219217 -0.0043866113
0.008097427 0.01158086 0.0089348406
0.0028239409 0.0061624586 -0.004459973
0.0031682695 0.0048898067 -0.0081431624
0.0060442258 -0.0068084691 -0.0066208816
0.0085000005 0.00081079785 0.0053239348
0 -0.014832204 -0.0043922313
0.012 -0.0097263874 -0.0019249392
0.0091389241 0.0079478817 -0.00085957325
0.0030916429 -0.002008311 -0.0078980876
0.0090000005 0.0091485642 0.00020718841
0.0085000005 -0.0044405735 0.0053656111
0 0.00022595885 0.015220503
0.0035823837 0.0089827469 -0.0030787135
0.008774926 -0.00087127183 -0.0094554983
0.00019800162 0.01018256 -0.012333301
0.0069732699 -0.0090386812 -0.002912397
0.010524544 -0.00086838315 0.015974257
0.0085000005 0.0066820187 -0.0035618851
0 -0.0090768058 0.0048452378
0 -0.0047462019 -0.011962277
0.007780245 0.0026206945 0.001455617
0.0035000001 0.007744431 0.00090622966
0.0090000005 -0.0025703583 0.0031274792
0.005157942 0.0070571769 -0.011152845
0.0076520168 0.01167339 0.0075251791
0.0029964356 -0.015198663 0.0049885688
0.0038315912 -0.0058023473 0.013562432
0.007127014 -0.0055089276 0.0077372496
0.0014952593 -0.014048998 0.0076522031
0.0032411162 -0.0039469101 -0.0071297055
0.0086589456 0.0075321035 0.0057872441
0.002847797 -0.009711694 -0.0032740096
0.0025050535 -0.0069118445 -0.01442229
0.0020000001 -0.0083823381 -0.0053360276
0.003 -0.0030754539 -0.0094420798
0.012 0.010622033 -0.0039525228
0.0086061889 -0.0082546556 -0.0046917666
0.0060353195 0.0028355618 0.0090641407
0.003013191 -0.0133321 -0.0088342717
0.0079231225 0.0097886221 -0.010465323
0.0074017565 0.00083844393 -0.013558017
0.0011181424 0.010839449 0.011759482
0.0082727615 0.00079080672 0.0094630672
0.00926321 0.0045471974 -0.0065748026
0.0026368925 -0.00039093287 0.010235735
0 0.013012292 -0.0054386761
0.0020000001 0.0074528214 -0.0046446878
0.0090000005 -0.0025485225 0.0085263746
0.0028312705 -0.014090966 -0.0075704362
0.012 0.011363325 -0.0017485017
0.0033186038 0.005509756 -0.0077366186
0.0028719418 0.010042382 -0.0020284103
0.0020093841 -0.0076535926 -0.0035813919
0.011156799 -0.015626114 0.0034230843
0 -0.008184595 0.011020622
0.0077337534 -0.0015350281 0.013913336
0.012 0.012696475 -0.0091377003
0.010547199 -0.0065491479 -0.0045831292
0.011847677 -0.0073708957 -0.014198763
0.0076070568 0.0089212442 -0.010563693
0.0094001722 -0.00064088305 0.015981
0.01093074 -0.011940435 -0.010642913
0.0033747042 -0.00022109492 -0.015540595
0.0031214461 -0.01546099 0.0040462362
0.0099416338 0.0015484849 0.015918357
0 -0.0073274318 0.0079276357
0.0082015339 -0.009435866 -0.0011016733
0.003 0.0018106824 -0.0084909471
0 0.010338085 -0.010714208
0.0010676921 -0.0024029266 0.0091846203
0.011450352 0.010150637 0.012359203
0.003 -0.0024063783 -0.002926501
0.0063970112 0.012392632 -0.004079747
0.0062960181 -0.0086241113 0.0039749355
0.003 -0.0080001671 -0.0019612764
0.0083850008 0.0089704059 -0.0031184419
0.0087936232 0.0011935033 -0.0027682739
0.0024151127 0.012290339 -0.010236942
0.0090000005 0.0050125821 0.0069898092
0.0076862676 -0.0090848319 0.0027731222
0.00092076295 -0.0085689221 0.0040878356
0.0035765402 -0.0089298645 0.0032407898
0.0071979626 -0.0094930297 4.0811214e-05
0.0007342415 -0.0082836682 -0.0046429676
0 -0.012166493 0.004484185
0.0071000131 -0.0029567282 -0.0090248091
0.0035000001 -0.0038485967 -0.0068649761
0.0039262832 0.014574979 -0.0006096416
0.0037378089 0.0033587113 0.014530696
0.012 0.013015596 0.00047338245
0.0059696943 -0.003351822 0.0088829026
0.0085000005 -0.0056634177 -0.0013724917
0.0091083823 -0.0014530353 0.015926866
0.0051203691 0.0041160416 0.0085583134
0.0058037378 -0.01270678 0.0027869854
0.0005233002 0.0079981759 -0.0051231766
0.0055326074 -0.012524902 -0.0036960696
0.0013523367 -0.0012523042 0.01594476
0.010434805 -0.014790032 0.0060971784
0.0035000001 -0.0014111798 -0.0057601407
0.0056017954 -0.0057349741 0.007564941
0.0085000005 0.00084666675 0.0056810798
0.012 0.011713594 -0.0077176141
0.0083421785 -0.00016575627 -0.015051861
0 -0.0082153203 -0.0063108741
0.0050595673 0.0018571992 -0.0093128188
0.0085000005 -0.00021671543 -0.0053108698
0.0081711709 -0.014747825 -0.00050172687
0.0085000005 -0.0051616789 -0.0030705249
0.012 0.0087258853 -0.0025617832
0 0.010650576 0.00041243658
0.0021558895 -0.0016195741 -0.0098672789
0 0.014986529 -0.0024122286
0.012 0.0099335462 -0.0036440881
0 -0.00066486752 -0.014378276
0.010090603 -0.0078841597 0.0013488601
0.0011966252 -0.0082306555 0.0047321361
0.0087389089 -0.01572443 -0.00069211319
0 0.011244078 -0.003089678
0.0078649679 -0.012777528 0.006252571
0 -0.014398843 -0.005181232
0.003 0.0067833713 -0.005464951
0.0080107963 0.0049761301 -0.0080877617
0.012 -0.0093182269 0.0047549834
0.0076488676 0.0015735541 -0.0093647335
0.0051977332 -0.0028530909 -0.0090609137
0.0090000005 -0.0084896293 0.0032776557
0 -0.0088814786 -0.0066811591
0.0065234592 -0.0052810577 -0.0078897933
0.003 -0.0049166437 0.0083153881
0.0030739224 -0.0066728578 0.0046736649
0.0060920385 -0.0078488011 -0.010374661
0.003 0.0088233519 0.0032114449
0.012 -0.0079678828 -0.0079411464
0.012 0.01077259 0.01116521
0.0029798544 0.0084048361 0.0054117804
0.003 0.0041291742 0.0082673104
0 -0.013728203 0.0017209122
0.003 0.008249254 0.001420749
0.0025507899 -0.0080778897 0.0062986002
0.0040619541 -0.0034193895 0.0088586351
0 -0.011659021 -0.0036624633
0.0013759596 0.0088341618 -0.013336274
0 -0.0074271476 -0.012470394
0.0088015012 0.0088883825 -0.013125237
0.0015041939 -0.0042289034 -0.0085061956
0.003 -0.0042198291 -0.0087618278
0.0090000005 -0.0013480656 -0.0032379588
0.012 0.0076016439 0.0072763897
0.0058450494 0.009378301 -0.0014715972
0.0063539403 0.00020541786 0.0029892374
0.0027803059 0.0024247286 0.0096978173
0.0065976167 -0.0025455786 -0.0091488771
0 0.013782228 -0.0044848816
0.0051618163 -0.0043113334 -0.0084613711
0.0090000005 0.0031898986 -0.0084979944
0.0088049546 0.012198967 0.010126405
0.0050819353 -0.0087715397 -0.0036311904
0.012 -0.00076572533 -0.015161876
0 -0.0025015681 -0.010690907
0.0063538225 -0.0031955405 -0.012637558
0.008868359 0.003985412 0.0071069361
0.0081020202 0.0025868178 -0.0091340868
0.003 0.0073289485 0.0053849276
0.00015973677 0.0063087028 0.0070935143
0.012 -0.01027532 0.0019098212
0.0049335915 0.011882344 -0.0060001761
0.0041302163 0.014101916 -0.0019439085
0.00089457998 -0.0089427084 0.013267375
0.006581685 -0.0055680647 -0.01185566
0.011523339 -0.014079277 0.0075932117
0.0084225908 -0.014194946 0.0054104924
0.0079540415 0.0081546176 -0.0048677376
0 -0.011773845 -0.0087000262
0.0020000001 -0.0070670228 -0.0071021491
0.0010291853 8.0168888e-05 -0.015997624
0.003 -0.0014929007 0.0036773204
0.0090817316 -0.015535189 -0.0037994164
0.0068154889 -0.012804293 0.0031183744
0.0044594072 -0.0079101855 0.011254654
0.0031177616 -0.009645747 -0.012753357
0.01013467 -0.0043787882 -0.015382784
0.0020000001 -0.0057603768 0.0067020738
0.00079898338 -0.0045000096 0.0083587728
0.0035000001 0.0054313769 -0.0036218611
0.0076473011 0.012594505 0.0058405669
0.012 -0.0091283834 0.0067243082
0.0013192514 -0.0059488565 -0.014845544
0.0085000005 -0.00082878827 0.0055790651
0.002296227 -0.0072148391 0.0021881582
0.012000002 -0.0015584234 -0.013343821
0.012 -0.01224508 0.0033760632
0.0035000001 0.0028631918 0.0053639966
0.0042212568 -0.0010076192 0.0094397562
0.0005073481 0.0091619324 0.0025108145
0.0090000005 0.0087896483 -0.00073988899
0.0047687283 -0.0049137045 -0.012506271
0 0.01446823 0.004623333
0.0085000005 -0.0057206606 -0.00017273896
0.0080370847 0.013554807 0.0052199811
0.0085000005 0.006233823 0.0028967303
0 -0.013828536 0.0024787118
0.003 0.0080052968 0.0029640878
0 0.010149968 0.0041483706
0.0070830099 -0.01230114 -0.0051082871
0.004939748 -0.011466153 -0.0067527187
0.006907532 0.0029151726 -0.00069564558
0.0090000005 -0.0017828179 -0.0089491261
0.0050529377 -0.009359139 0.0015956608
0.0081488127 0.014546658 -0.0022349579
0.012 0.013318882 0.0030391174
0.0085065486 -0.0010953882 0.0094296234
0.0035454228 0.014091677 0.0058252383
0.0074452236 -0.0020045026 -0.0134674
0.003 -0.0086087519 0.0054167937
0.012 0.011660029 0.0016701758
0.0046262322 -0.0042398302 0.01287175
0.010221704 0.0076966975 0.0021603955
0 -0.0088892682 0.013146572
0.008647711 -0.0025269026 0.0077480813
0.012 -0.0073355683 0.0055021243
0.0020000001 0.0078187417 -0.0062205447
0.0022066084 -0.0052375826 0.0088036042
0.0010511692 0.015885416 0.0018519545
0.0065885279 0.0033920167 0.008870339
0.0090000005 -0.0037031912 0.0025286069
0.0025136983 0.0078178952 0.0066244346
0.0022392485 -0.014309383 -0.0071448833
0.012 0.0093289465 -0.0027322497
0.003183028 -0.0055936878 -0.0059264633
0.0078783315 0.0072329249 0.0061564809
0 0.0033825666 0.0099747302
0.010275634 -0.006383976 0.01466907
0 0.0019606119 0.010948811
0.0085000005 -0.0045218654 0.0052957931
0.0071918648 0.0081929341 0.0047955844
0.003 -0.006022525 0.0029784725
0.0030993493 0.011467746 0.011147426
0.010309461 -0.0074448478 -0.0029094685
0.0057793381 -0.0081610922 -0.004857243
0.0034687144 0.002410816 0.0077823913
0.0086556422 -0.0020262818 0.0042921216
0.0039845887 -0.0059493771 -0.013209117
0 -0.0087425523 0.0070382399
0.0085000005 -0.003276435 -0.0051927771
0.0073550902 -0.0094379382 0.0010779899
0.0051259366 0.012944333 0.0026278051
0.0045175012 -0.013565694 -0.0018133515
0 0.0044127177 0.013350517
0.00088648027 0.00081560662 -0.0094619254
0.003563592 0.015215716 -0.00022885617
0.0084397933 1.1504299e-05 0.0094996653
0.0087965606 0.0044722543 0.0068097338
0.0077038035 -0.0041522263 -0.013325491
0.0035000001 -0.0062078238 0.0032010127
7.3312367e-05 -0.004239039 0.015420979
0.0037084268 0.0054234834 0.013949851
0.003 0.0071070357 -0.0042826911
0.0020000001 0.0097234789 -0.00074325281
0.0013066963 0.01560134 -0.0035256241
0.0083701368 0.012918179 -0.0078169331
0.011999999 0.011397355 -0.0082166316
0.012000002 -0.0080498001 0.013078387
0.0065894029 0.0044352268 0.0083969645
0.0020000001 4.8071553e-05 0.00878473
0.0093780309 0.015987229 -0.00057134032
0.0079535898 -0.012328232 -0.0073970626
0 -0.012198158 0.0074263336
0.0077642463 -0.0059128762 0.0074305055
0 -0.0057242494 0.010447185
0.00027560483 0.0072555575 -0.014258562
0.010400364 0.010011915 -0.012471761
0.0029996966 -0.0048484588 0.0090249199
0.0097363107 0.00061703258 -0.015981708
0.012 0.0026724497 0.012905347
0.0088697616 0.0018320289 0.004379584
0.012 0.010360268 0.0090348171
0.0035000001 0.0045854733 0.0034605579
0.006503121 0.009496754 0.00011160287
0.0020000001 0.0077444986 0.0062873275
0 0.0046751671 0.012994591
0.00053225626 0.0093405377 0.0017160893
0.010171778 0.0072623291 0.003344191
0.010937504 0.0074949176 0.0027811513
0.0022110634 0.011607731 0.011003224
0.010467405 -0.0083496785 0.013642123
0.0041185142 0.004269423 -0.0084841605
0.0023487981 -0.013792054 -0.0080966894
0.0036437984 0.0055154734 -0.01403294
0.012 0.010234563 0.00051279797
0.012 -0.0096289562 0.0021060973
0.012 -0.0033756641 -0.014642522
0.01193064 0.014655251 0.0064032045
0.0060819332 0.0034399447 0.0088512516
0.012 -0.0092946049 0.00060853356
0.003 -0.0061840713 -0.0059710727
0.0091085574 0.012295862 -0.010230535
0.012 -0.010326094 0.0067943772
0.003 0.0018765358 -0.0043175626
0.0097443182 0.0014216283 0.015929665
0.002425784 -0.010500601 -0.012069513
0.0027395217 -0.0078340983 -0.0041598096
0.0057356418 -0.0078851394 -0.0052945912
0.012 -0.00070400315 0.014105746
0 0.0036806345 0.0089218551
0.0073050619 0.001689076 0.0093423305
0.0037188013 0.013678501 0.0060222619
0.0077355993 -0.0023043887 -0.0019148276
0.012 0.0042752218 0.012012033
0.010053543 0.013279473 -0.0089124143
0.0020153967 0.0069169397 0.0030139117
0 0.0025161777 -0.009484278
0.0041798712 -0.0063266163 0.0070815203
0.0055035697 0.000592898 -0.013051904
0.0068018856 -0.0030345346 0.012815638
0.011833759 -0.0011765508 0.015951512
0.0085000005 -0.0046752887 0.0055062384
0.0015688593 -0.009818675 0.012628553
0.0035000001 -0.0063471999 -0.0039217318
0 0.0033229697 -0.010531958
0.0088183945 0.010975372 -0.011475113
0.0085893674 -0.010007328 0.01181429
0.0091569219 -0.013540803 -0.0085220374
0.0090000005 -0.0039339634 0.0018806251
0.0032654577 0.015730292 -0.0002481089
0.0086039715 -0.0041467482 -0.014939818
0.0056507187 0.0092466883 -0.0021486275
0.011999999 -0.0026733142 -0.0075545777
0.0020000001 -0.0045599672 -0.0084700817
0 0.0061964802 0.007289168
0.0035000001 -0.0031456917 0.0070979963
0.0090305274 -0.00070769014 0.0079668146
0 -0.012434112 0.0057636369
0.0065727294 -0.00055944402 -0.0094785597
0.0035000001 -0.005873214 -0.0023798763
0.012 0.013945012 -0.0071530594
0.002220822 -0.015703198 -0.0030380012
0.0065876176 0.0059837364 0.011646386
0.0041431608 0.0049873441 -0.013307221
0.012 0.0091407923 0.01234462
0.0051387334 -0.0013623154 0.009398804
0 -0.0041153696 -0.010076303
0.0023517031 -0.0045940392 -0.0069343532
0.0041587506 0.0062966836 0.0071081575
0.012 0.015228755 0.0036126277
0.0048058485 0.0084207803 -0.004391056
0.0032668982 -0.0079594674 0.0017337225
0.010215799 0.0078541208 0.0014921156
0.00094394275 0.0043329638 -0.015395308
0.003 -0.003698576 -0.0082319258
0.0083904974 0.0075993291 0.0056965165
0.003 -0.0050261365 -0.0083654299
0.00023934248 0.0064316653 -0.014649727
0.0090000005 -0.0081273569 0.0041531618
0 0.0062201628 -0.0079937996
0.003034279 -0.0090092272 -0.0029950372
0.0046708537 0.01296507 -0.0037721789
0.0092330519 -0.015724897 0.0029172283
0.00017931772 0.00021901028 -0.0094916075
0.0041328017 -0.013679945 0.003910535
0.003 -0.0020915463 0.0089672655
0 -0.015358699 -0.0037363546
0.0043370146 -0.0063812439 0.0070288652
0.0095950346 0.0078030131 0.013960545
0 0.013034615 0.0038670821
0.0090000005 -0.0079931375 0.0041408497
0 -0.0073613096 0.012093213
0.0036498066 -0.0030630231 0.014751127
0.0035000001 0.0069000586 -0.00074547023
0.0064557535 -0.0076019298 -0.010621642
0 0.003317981 0.012287478
0.010893593 0.015752645 -0.0027628057
0.0022181564 0.0097097335 -0.0023767739
0.0097569851 -0.013130979 0.0091328984
0.0043530813 0.0092804627 -0.0020139117
0.012 0.0044308393 -0.007149497
0.0059175994 0.004006065 0.0086095957
0.011630322 -0.0079553965 0.00079928967
0.00704335 -0.0087798843 -0.0036197023
0.0072187968 0.0079265321 -0.0052313325
0.012 0.010825903 0.0076912339
0.0068752207 0.011908436 0.005721163
0.0018031993 -0.00165316 0.015909025
0.012 0.012972615 0.0082169212
0.0078811627 -0.010940747 -0.0091405557
0.0011852995 -0.0033115211 0.0088973772
0.012 -0.0088870358 -0.0030124579
0.0062420354 0.0059834793 0.0073746787
0 -0.0097921854 -0.0066703572
0.0020000001 -0.0073534967 0.006648839
0.012 -0.0093127796 0.0014212588
0.00082788483 -0.0089086732 -0.0032909503
0.011802019 0.0057990993 0.0055049411
0 0.0084044058 0.010238435
0.0035000001 0.0039784075 0.0026932417
0.003860235 0.0071692984 0.006227979
0.0050086351 -0.00282375 0.0010036951
0.0060470463 -0.010707618 0.0073837368
0 -0.00045784476 -0.013361361
0 -9.4502691e-05 -0.013278535
0.0021614772 0.0036249284 0.0095861796
0.012 -0.0038182375 0.014737787
0.0026925213 0.0087849442 0.0052761836
0.0084424131 -0.0035724011 0.014803523
0.0045708548 0.0092347264 0.0022252004
0 -0.0016772719 -0.015652085
0.012 -0.0054634651 -0.0099529075
0.0090000005 0.00088229519 0.0082966695
0.010588074 0.01515162 0.0051393453
0.011445063 0.0074263164 -0.0029569594
0.011116382 -0.007894489 0.013910117
0.012 -0.012096474 -0.0096046077
0.00040223234 -0.015944676 0.0012880559
0.0020000001 -0.0052891066 0.004955946
0.0090000005 0.0028795707 -0.0025243522
0.0089895763 0.015993001 0.00016978515
0.012 -0.0031947135 -0.00789579
0.0075297779 -0.0042859064 -0.013037917
0.0067372364 -0.0094930297 -0.00029994149
0.0026115146 0.0093233092 -0.0042439862
0.0092017986 0.0010052038 0.015966788
0.010481759 0.014217243 0.0073244059
0.012 0.00812585 0.0013528431
0.0031716535 0.0094656004 0.000721141
0.012 -0.0035665818 -0.0086174523
0.0093853399 0.014542577 -0.0066590356
0.011007897 0.0060059796 0.014822377
0.003 0.0099384254 0.0018417371
0 -0.0067252573 0.01130321
0.012 -0.011804732 0.0051976745
0.0031727746 -0.0047128787 0.00055993279
0 0.0055713924 0.013648089
0 -0.0099306842 -0.010661448
0 0.012501439 -0.0024686861
0.0087879067 -0.0066348291 -0.014365268
0.009841064 -0.01388377 0.0079414258
0.0036794604 -0.008925382 -0.003253466
0 0.010388922 -0.0086850589
0 0.0021467991 0.012918876
0 0.0098402854 -0.010691747
0.0055399011 0.00020974709 -0.013057229
0.0025042091 0.0086391754 -0.0050308802
0.0033499447 -0.015172703 0.0035589768
0.0044505671 0.0094416523 0.0010330532
0.0085000005 -0.0058285831 0.00012621528
0 -0.0091846166 -0.010992174
0.010377896 -0.010339763 -0.01220575
0.012 -0.010925615 0.0080060642
0.0047523836 0.0074870968 -0.0058418196
0.012 -0.00058879238 0.014129204
0.003 0.006448186 0.0063489298
0.0067794961 0.004877869 -0.0081508923
0.0032967522 0.008141336 -0.00027573749
0.0087428689 -0.0014593751 -0.0093868757
0.011625035 -0.0052861818 0.0059976461
0.0081855077 0.014679175 0.0017441432
0.011889964 -0.0035686842 -0.0071525797
0 -0.0054302649 -0.010147405
0.0020563265 0.0055106175 -0.0053236112
0.0077095632 -0.0082239248 -0.0047434568
0.0020000001 0.0058383443 -0.0076289093
0.012 0.011895368 -0.0026513792
0.0074785273 0.0093099251 0.0018783945
0.0011693052 -0.0042525264 0.015417293
0.0046486836 0.00049346616 0.0029550758
0.0032556923 -0.0066094245 -0.0068169357
0.0064914478 -0.0087389713 0.0097163431
0.0018447381 0.0085110003 -0.013540284
0.0068322537 0.0094144652 0.0012374654
0.01042037 0.0050047878 -0.006235973
0.003 -0.0065022581 0.0067358338
0.0085000005 0.0015076029 0.0076608798
0.0077716233 0.00092252501 -0.0028543826
0.011524942 0.0004489398 0.015986692
0.0023291376 0.0007772969 -0.010219499
0.0064891144 0.0083329799 0.010073412
0.0090000005 -0.0062229168 -0.0058235163
0.0059909807 -0.0087353671 0.0037209413
0 0.0099944836 -0.011494759
0.0073235095 -0.0029242167 0.00066189119
0.0091602216 0.013528587 0.0085425265
0.0048111156 0.0029458918 0.0090287011
0.0054462408 -0.0034618711 -0.0088433754
0.0090000005 0.0076442803 0.0041535748
0.0035469402 0.015198613 0.0012213693
0.0061840015 -0.0044762869 -0.012217991
0.0074141761 0.011729453 0.0068606641
0.0035000001 0.00056398229 0.0074645593
0.0056407871 -0.0073929136 0.010740598
0.0055353758 -0.005150842 0.011999504
