# .PCD v0.7 - Point Cloud Data file format
VERSION 0.7
FIELDS x y z
SIZE 4 4 4
TYPE F F F
COUNT 1 1 1
WIDTH 1000
HEIGHT 1
VIEWPOINT 0 0 0 1 0 0 0
POINTS 1000
DATA ascii
0.0059556421 0.0094899088 0.00034689205
0.0089999996 -0.0047041881 0.0076717506
0.012 0.0031694409 0.0084047839
0.0073805498 0.0089266477 -0.010206587
0.012 -0.0018441519 -0.013327181
0.0035000001 0.0070515745 0.0024292194
0.0019999999 0.0094185947 0.0021696873
0.0089999996 0.0038839981 -0.0076173032
0.0029178164 0.010232714 0.00047376327
0.001563721 0.0094999848 -3.9073518e-07
0.0082387356 -0.010358691 -0.010673186
0.011999999 -0.0019613742 0.0094044441
0.0085536093 0.0039924928 0.01489659
0.0084999995 -0.0072086393 -0.00028595305
0.011999999 0.0070659304 -0.0072665331
0.011999999 0.012708207 0.0087234825
0 -0.0028264525 -0.01557187
0 -0.0067088851 -0.0092002209
0.0029999998 0.0024615854 0.0082164211
0 0.0114678 -0.007847907
0.0030887544 0.0092286794 0.0022426003
0.0048051444 -0.0067082676 -0.0067210831
0.011999999 -0.011326336 0.0012681955
8.9162946e-05 0.0098772263 -0.012580269
0.011684084 0.015972875 0.00091497559
0.0065735849 0.0029923306 -0.00014638394
0.0038003193 0.0066542812 0.0132239
0.0029999998 -0.0087457607 0.0052187685
0.0064036478 0.0077966694 0.0054209414
0.0032040435 0.0078091673 0.0023186519
0.0022327711 -0.0097981337 -0.0019849094
0.0066079614 -0.0094893463 -0.00036622191
0.011999999 -0.0082074739 0.0074086352
0.0034999999 0.0016890509 -0.0069061932
0.0029999998 -0.0096530281 1.9426165e-05
0.0029999996 -0.0078462716 0.0028741204
0.0037254144 -0.010733863 -0.010387722
0.011999998 0.011856317 -0.00014329181
0.0058465172 -0.0012998328 -0.0094048316
0.010049401 0.0056471522 0.014962988
0 -0.0125195 -0.0055375532
0.0084999995 -0.0062805479 -0.0051514865
0.0014449363 -0.012347834 -0.010164649
0.011999999 -0.012327224 0.00039467937
0.0056415903 0.013043102 6.1904764e-05
0.0071822405 -0.0028819579 0.00081960903
0.003 0.0003184909 0.0095956726
0.003 -0.0085045323 0.0003603099
0.006654657 0.0065775067 -0.0068450002
0.0043244543 -0.0028553163 0.00091904
0.0041197184 0.0053298441 0.013220808
0.0019999999 -0.0093446262 -0.0036697388
0 -0.0022539932 -0.012231011
0.0063893893 0.0084258253 -0.0043817009
0 -0.0083643952 0.010490159
0.0082898168 -0.009498422 4.1178617e-05
0.0019999999 0.0092914607 -0.0035523381
0 -0.0025601513 -0.0095480848
0.0045136316 -0.0076448112 0.011353379
0.011999998 -0.0081820991 0.0045786533
0.011999999 -0.0023856943 -0.01373554
0.0091439364 -0.010204165 -0.012318589
0.0071731419 -0.012245403 0.0053941063
0.0019999999 0.006472562 -0.0056807855
0.0090000005 -0.0034046185 0.0032497207
0.0089999996 -0.0024895878 0.0024948798
0.0082227075 -0.0022008577 0.0092412494
0.0089647481 -0.0006311271 0.0030955956
0.0021953566 0.015922261 0.0015046841
0.0083913384 0.0082462803 0.0047146906
0.00097602332 0.015903236 -0.0017180733
0.0074086357 0.0048061986 0.0081866244
0.012 0.011949849 0.0034336932
0.0034688232 -0.0075575751 0.01339534
0.0077486429 -0.012166402 -0.0069735046
0.005111407 -0.012996815 0.0023989195
0.011283224 -0.0085748816 0.013506796
0.010417289 -0.008871533 -0.013307004
0.0090637254 0.015740428 0.002864795
0.0074902889 0.011397818 0.0075406353
0.001042688 -0.00076289527 -0.015975855
0.011999999 -0.00052974274 0.0092292409
0.0033466718 -0.013870451 -0.00712698
0.0025557801 -0.014355811 0.0070514046
0.012 0.0071651633 0.011910981
0.0041003185 -0.013959532 0.0030290205
0.0062717237 0.0025919979 0.0015093661
0.0025160192 -0.012938682 -0.0094008166
0.0066408608 -0.011891569 0.0055254442
0.0031107501 -0.0059883869 -0.007282577
0.00079733477 0.0076173372 -0.0056662373
0.0072709881 -0.0031530701 -0.013092387
0.0084999995 -0.0056755878 0.0033138082
0.0030470951 -0.0032135563 -0.008939866
0.0038851183 0.0062994272 -0.007105716
0.011934933 0.015965218 0.0010228223
0.0084999995 0.004237812 0.0031921088
0.0019287881 -0.01370591 -0.0082486374
0.0029999998 -0.007653439 -0.0039360416
0.0060705803 -0.0094751725 -0.00064786017
0.011999999 0.014891708 -0.0035587407
0.0071112821 -0.0018115388 0.0093222465
0.0029999998 -0.0090715596 -0.004642379
0.0081004826 0.0055110077 0.013558525
0.0082637966 -0.0012137349 0.01486896
0.0026554947 -0.012278925 -0.010249579
0.0037923767 0.014786347 0.001014681
0.0064204093 0.0015864993 -0.0025419062
0.0084846579 -0.0065983539 0.013806719
0.011999999 0.011602922 0.01055097
0.0034999999 -0.0042505441 0.0034372327
0.007103357 0.0085989004 -0.0040290025
0.011999999 -0.011321932 0.0090395873
0.010833352 0.0079825344 -0.00042236247
0 -0.012016183 -0.004010757
0.011842587 0.0074407915 0.0029198648
0.010643036 0.014628717 -0.006478494
0.01014515 0.0020864094 -0.0077187228
0.0084823854 0.013704703 0.0067952988
0.0032859338 -0.015693022 0.00026584853
0.0048143435 0.0042293277 0.01271736
0.012 -0.0092798136 0.007529221
0.0044499468 -0.0024614001 -0.0017104665
0.011999999 -0.0035420838 -0.0083058123
0.011999999 -0.0075120507 0.013602262
0.0084999995 -0.0061752601 0.0023024511
0.0078852503 -0.0078760758 0.0053075352
0.011075684 -0.0060191317 -0.014824405
0.0048696026 -0.0081981756 0.0047953431
0 0.0097669009 0.011659649
0.011999998 -0.0010679191 0.010695959
0.0019757512 0.0084388824 0.0043526907
0.010790706 -0.015034031 -0.0054667266
0.0099612111 0.0031057319 -0.015691027
0.0045367428 0.012141973 -0.0062553119
0.011999999 -0.0083066411 -0.0017269047
0.010169696 -0.0015721677 0.015918756
0.0079783266 0.01244779 -0.0072819181
0.0086169131 0.0078055612 0.0054111271
0 0.0051932433 0.008250678
0.0084334156 0.014497088 -0.0046107038
0.011999999 0.014253463 -0.0058609764
0.011999999 0.007587383 0.0044034598
0 0.0051422101 -0.010913391
0.0034386148 -0.015401285 0.0010093312
0.0073647979 -0.0012135298 0.0094181616
0.00071498787 0.0090133213 -0.0029887131
0.0030290261 -0.0019021495 0.0025363476
0.011999998 0.010631902 0.0014133144
0.012 -0.012415059 0.0061042518
0.0042854478 0.0058554243 0.012689508
0.011999999 -0.0087660374 0.0026405121
0.010664475 0.0074129184 -0.0029912973
0.0034999999 0.0041036247 0.0033277718
0.0017388287 -0.012827032 0.0095564201
0 0.0013239551 0.01191976
0.0035932397 -0.0082650026 -0.012714089
0.012 -0.0066460781 0.0065732663
0.0089366827 -0.0091550602 0.002038989
0 -0.013481303 0.0049435636
0.0042795655 -0.0014857525 -0.0093761152
0.007455864 -0.0025543647 0.01338956
0.011999999 -0.00034808562 0.011900249
0.0055984035 -0.0094133085 -0.0012561645
0.0019068946 0.015892958 0.0018333902
0.011999999 -0.0062054754 -0.0070568626
0.003 0.0076035177 -0.0065390598
0.0005657521 -0.00052063057 -0.01599024
0.011999999 -0.011628938 0.0090240231
0.006710161 0.0049845893 0.012146113
0.0032244716 0.0071019693 0.0062992144
0.0029999998 0.0024526587 -0.0069197943
0.0029999998 0.0070691737 0.0038308331
0.0050873617 -0.0084299548 0.010195036
0.0029999998 0.0027644136 0.0083218338
0.0064739655 -0.0057059787 -0.011753346
0.0084999995 0.0038489611 -0.006759428
0.0032454943 0.01545781 -0.0030979381
0.0089999996 -0.0079908418 0.0021391471
0.0012236425 0.011236687 -0.011381095
0.0063890712 0.011989485 0.0051275557
0.0022390652 -0.0065706368 -0.0078660985
0.0018658778 -0.010598453 0.011978756
0.0084991977 -0.0058629811 -0.014159663
0.0086796638 -0.013524899 -0.0078529147
0.011999999 -0.010769679 0.0040226546
0.0023572885 0.010070617 -0.0018723583
0.011999998 0.012365603 -0.0083865207
0.0060701794 0.011635386 -0.0058152494
0.011027336 -0.002650816 -0.015772767
0 0.0012719339 -0.011197495
0.0065766037 0.011811673 0.0056527257
0.0039321119 -0.011870127 0.0084653534
0.010640419 -0.015761554 0.0027374395
0.0029999998 -0.0010410113 0.0074966615
0.0084999995 -0.0051056729 -0.0024353231
0.0050617554 -0.0025413805 0.0091527961
0.011814393 -0.013818081 0.0080614369
0.0058317329 0.00085496169 -0.0094553269
0.0084999995 0.0034180372 0.0035283912
0.0084999995 0.00220939 0.006686518
0.011999999 0.0097742947 -0.0090584131
0.0033544677 -0.013719304 -0.0073782448
0.011999999 0.006924822 0.0065457099
0.0043271505 -0.0082023451 0.004787676
0.0017567421 0.0089616235 -0.0031326481
0.0023967817 0.0066649495 0.014539972
0.0076677939 0.012132581 0.0068029403
0.0071256184 0.01054983 -0.0081656184
0.011999999 0.013132138 0.0077282805
0.004126946 0.014102872 0.0019720346
0.003 0.0013734415 0.0094329687
0.0078570377 0.012176456 0.0073266006
0.0028845642 -0.0094185797 0.0033513529
0.0029999998 0.0039741434 -0.0078308778
0.0089999996 -0.0034442192 0.0028552802
0.0029999998 -0.0055595753 0.0072892173
0.0040921373 -0.013809767 -0.003717067
0.0084671061 0.0014077412 -0.0093881646
0.0042523155 -0.0094177229 -0.0011984577
0.0010965884 -0.0018266609 0.0093220323
0 -0.013366642 0.00082437636
0.011393921 -0.015973819 0.00088313501
0 -0.0097316336 -0.0049191387
0.011999998 0.0082555432 -0.010847415
0.012 0.011488795 -0.0036202094
0.0073247571 -0.010928295 -0.00795592
0.011695418 0.014919405 0.0057667433
0.011999999 0.0059073479 0.005405379
0.0083691319 0.010154567 -0.011176377
0.0017819547 -0.010842795 0.011763467
0.0018192742 0.0063993684 0.01465694
0.0084999995 0.0054925061 0.004700725
0.0029603506 -0.0095889755 -0.012800319
0.0087208897 -0.00074128824 -0.0046902727
0.0043869764 -0.0025458271 -0.0091513889
0 0.0069070947 0.013724483
0.0019999999 -0.010210237 0.00017392614
0.0029999998 0.00440021 0.0080138035
0.0034999999 -0.0061949487 -0.0016753252
0.0070620151 -0.0054837838 -0.012126485
0.011490394 -0.0022710778 0.015835475
0.0082440786 0.013459038 -0.0063545471
0.0070461133 0.0028545419 0.0090536894
0.0076978737 0.0074829995 0.011777207
0.012 0.0065288581 0.010504002
0.011999999 -0.0088925632 0.0094575249
0.0038820917 0.01339004 0.0059797554
0.0017962457 -0.0072633736 0.014248567
0.0084999995 -0.0042837057 -0.0048551643
0 -0.015083222 0.00099413167
0.0035505653 0.014492469 0.0047107385
0.0078234216 0.013242362 -0.0049961107
0.0089999996 -0.0030345679 0.008778383
0.0029999998 0.0036457747 0.0079669282
0.0085880216 0.0055563138 0.0077018812
0.011999998 0.0095383367 0.0058651706
0 0.005433246 -0.0083504366
0.011999999 0.013921866 -0.0049788263
0.0088249659 -0.015838284 -0.0012429047
0.0048273099 -0.0043049622 -0.0084614195
0 0.010850099 -0.0034551264
0.0029999998 0.0023452486 -0.0024652043
0.0028453032 0.0072256499 0.0069116717
0.01159596 -0.0025430496 0.015792131
0 -0.014621759 -0.0014327433
0.008926074 0.0024227353 -0.0019365189
0.0089506377 -0.0073680296 0.0034824859
0.010532388 -0.0079402812 0.00092054519
0 -0.0092089595 -0.0075964127
0.0031898625 0.0082574189 -0.0046863956
0 -0.0078831566 -0.0054048724
0.011999999 -0.0043556648 -0.013988292
0.009702458 0.011349956 -0.01127114
0.0035295445 0.014593017 0.0045231846
0.011999999 -0.0087943617 0.0019148994
0.00090680353 0.00137132 -0.0093937898
0.004094929 -0.0082998089 0.004608443
0.011999999 -0.012657669 -0.0093972431
0.001608772 -0.0092632566 0.0020968197
0.011999998 0.0098123057 -0.0099583054
0.003 -0.0028878122 -0.0095830048
0 0.0010798905 0.01070328
0.0095915478 -0.01591213 0.0016183208
0.0086234156 -8.8299872e-05 -0.0081472248
0.0046518771 -0.0066125086 0.0068168426
0.0084358258 0.014213963 -0.005434873
0.0012572728 0.0094096558 -0.0012683258
0.0036344987 0.0026324177 0.01486164
0.011999999 0.0071081622 -0.0050823945
0.0034999999 -0.0052764495 -0.0038768167
0.011999999 0.0020191274 -0.012783587
0.0066607026 -8.6879598e-05 0.009497473
0.0029999998 0.0044185193 -0.0087397685
0.0029999996 0.003842765 0.0022476602
0.0039317044 -0.014505411 -0.0014355403
0.00053450273 0.0042553917 -0.015422595
0.0056949342 0.012102352 0.0048390711
0.0037097475 -0.0076575689 -0.0056134579
0.0063834987 -0.0014199788 0.0026388529
0.011999999 -0.0082216458 -0.0066843284
0 0.0051362305 0.010280781
0.0057815355 -0.0088980505 -0.0033096473
0.0029999998 0.0075763608 -0.0058535552
0.0084999995 0.0038604732 -0.0036681041
0.011999999 -0.0036769158 0.01156235
0.0050562546 -0.0019108081 0.0093017509
0.003969823 -0.012735863 0.0069622356
0.0084999995 -0.0051496164 0.001345221
0.0038947556 -0.0068950155 -0.01291715
0.011268596 0.0031930839 0.0073341802
0.0080867158 0.008260075 -0.0046815118
0.010802628 0.0034955961 -0.015608595
0 -0.013555156 -0.0075354711
0.0034859411 0.012128399 -0.0094119171
0.0089999996 0.00014454988 0.0044081635
0.011999999 -0.0095297005 0.0075692018
0 0.012926719 0.0013918927
0.0029999998 -0.0032596809 0.0076699322
0.010570301 -0.0088710394 0.013307338
0.0089999996 0.0090670967 0.001094876
0.00026859221 -0.003605576 0.0087818643
0.0083801467 0.014445572 0.0044685192
0.0018001199 0.0094849095 0.00039375486
0 -0.009674429 -0.001716223
0.0062943604 -0.00044550825 0.0094870394
0.0077310395 0.0068490766 -0.0065829805
0.0084999995 0.0025943778 -0.0051109372
0.0057926606 -0.0090565551 0.0028683401
0.0017605434 0.009842108 -0.012607079
0.0033290288 0.0049920003 0.0064371512
0.0081502534 -0.0058861445 -0.0074505419
0.0017716871 0.0021762953 -0.015846768
0.0055618016 -0.0010190606 -0.013015207
0.0029999998 -0.0037563264 0.0002268659
0 0.0017823771 0.015244187
0.0020746891 -0.015716938 0.002976401
0.0014574362 0.011272845 0.011345995
0.0086277286 -0.0078548323 -0.013413947
0 0.0095565394 -0.0024858988
0.0031240722 0.009113838 0.0024559686
0.01154258 0.0030460488 0.0073915543
0.010851789 0.0087714745 -0.013374394
0.0089563867 -0.0022557883 -0.007827431
0.009887795 0.013368226 0.0087835491
0.0023305048 -0.007266744 -0.0042070169
0.0029999998 0.010036725 7.7902092e-05
0.011999999 -0.010835174 0.0078737587
0.0089999996 -0.0018839946 -0.0042718011
0 -0.0062730373 -0.0071955761
0.0034999999 0.0014730059 0.0078846933
0.0091801919 0.0081911245 0.013736273
0.0084999995 -0.0057225968 0.0055181254
0.0098024681 -0.015989872 0.00034168607
0.0041687321 0.014155225 -0.00053409528
0.0053833919 -0.0093973232 -0.0013751491
0 0.015304538 0.0041990657
0.011999999 0.0053727343 -0.011602693
0.0034999996 0.0053805741 0.002273944
0.0030091302 0.004742499 -0.0079630446
0.0031497122 0.0037348154 0.0029335739
0.0020033712 0.0076561063 -0.003336211
0.0057845963 -0.0020470126 -0.0092704669
0.011905264 0.0062555424 -0.0049816822
0.0055030114 0.0028593275 -0.00090407068
0.0097696101 0.0040927366 0.0068658739
0.0024961492 0.0087731797 -0.00479287
0.0091737937 0.011539353 -0.011080041
0.011999999 -0.0022077188 -0.015536844
0.011218512 0.0035904681 -0.0071419301
0.0070487158 -0.00070563133 -0.0094667915
0 -0.015309291 -0.0016294552
0 0.007472151 -0.0074851462
0.0035246431 0.0048139263 0.014508753
0.00080114888 -0.00053777569 -0.015989222
0.0052581974 -0.013042999 0.0017043814
0.0080873333 0.00084566697 0.0094560403
0.0051400959 -0.0093875472 0.0014320337
0.0052913036 -0.009249106 -0.0021657844
0.0025827042 0.0067657814 -0.0073592607
0.0089999996 -0.002260891 -0.0086067393
0.0035438696 -0.014441483 0.0048976517
0.0081760706 -0.0013558171 -0.014702392
0.00041765935 -0.015530598 0.0038379531
0.0040749786 -0.0095232027 -0.010705397
0.0032543298 -0.0078711631 -0.0021052554
0.0057993834 0.0017985769 -0.0023985312
0.0055785421 0.0065197283 -0.0069006076
0.0032332155 0.0019953258 0.015659777
0 0.0092092315 -0.0058332733
0.0052757366 -0.0073899915 0.005964485
0.0017705531 0.004548742 0.0083396854
0.0089999996 -0.0012400565 -0.0041728388
0.0089999996 0.0084218513 0.0022114362
0.0033918459 0.0016758343 0.0079724062
0.011563903 0.0073451526 0.014206592
0 -0.0085483585 -0.0077973534
0.0029999998 0.0056367265 -0.0061893226
0.0058364314 -0.0059224246 0.0074206223
0.0098912017 -0.015414882 -0.0042613489
0.0030437671 -0.008962689 -0.0026717943
0.0024618229 0.010933863 0.01167506
0.0089999996 0.008027846 -0.0037949821
0.011999999 0.0020988639 0.0093802055
0.0072450005 -0.0083068917 0.0046022767
0 0.0072571556 0.011905001
0.0054015303 -0.0033857462 0.012644876
0.0084124431 -0.0011616056 -0.015132077
0.0088136895 0.0078564109 -0.0021560346
0.0089634648 0.0069579417 0.0064608254
0.005241429 0.0044154553 0.0084076254
0.0089999996 0.0079584578 0.0039549349
0.0084999995 -0.0071538896 0.0036186473
0.011999998 0.011274628 -0.004149857
0 0.010466744 -0.0051722275
0.0034736216 -0.0038512566 -0.014882327
0.0029999998 -0.0085065467 -0.0049027591
0.0057129287 -0.00073206285 -0.0029054147
0.002699784 0.0025452878 0.009927243
0.0063675358 -0.0094734887 0.00067171059
0.0053334162 -0.0065406878 0.0068886625
0.011999999 -0.013979906 0.007201199
0.0075298427 6.8845075e-05 0.013723599
0.0019978785 0.0018128204 -0.0093252715
0.012 0.00042116959 0.01456964
0 0.0059617446 -0.013464045
0.0029999998 0.0041019386 -0.00028649531
0.0098866476 0.015638255 0.0033502541
0 -0.007089104 -0.012003847
0.0063474472 -0.0081031853 0.0049511236
0.0089999996 0.0084723346 0.0013311333
0 -0.0098427618 -0.0049716854
0 0.010238276 0.0061624721
0.0019999999 -0.0068914867 0.0055913618
0.002248833 0.0090749236 -0.0047511985
0.011999999 0.0087857228 -0.0043440619
0.0029999998 -0.0083743688 -0.0020990772
0.0029999998 0.008715909 -0.005187701
0.0046827686 -0.0029388748 -0.00059573894
0.011999999 0.008678006 -0.01180789
0.012 0.0027266676 -0.010281665
0.0086555593 -0.015488884 -0.0018517083
0.0061482671 -0.0013658383 0.01293934
0.011999999 -0.0097326003 -0.0043906057
0 0.0038427848 0.012106629
0.0034999999 -0.004358721 0.003132052
0.011999999 0.0068783248 0.0088555869
0.011999999 0.008265188 -0.012233928
0.0050901654 0.0025266199 0.0016100376
0.0077156662 0.010272754 -0.0094739003
0.0014624938 -0.0064182826 0.014648611
0 -0.0077178976 0.013716193
0.0025444003 0.0080829915 0.00016339091
0 0.012079814 -0.0053579919
0.011999999 0.009553575 0.0085457359
0.0089999996 0.0073070871 0.0051766923
0.0084461868 1.1274269e-05 0.0029994096
0.0055834018 -0.012032794 0.0050516082
0 0.0080492022 0.0053497488
0.011476076 -0.015710147 -0.003008673
0.008160742 0.013937993 -0.0047939247
0.0075565265 -0.013202151 0.0038612324
0.0060235113 -0.0082881721 -0.010030253
0.0089999996 -0.0012240718 0.0035763709
0 0.0078482646 -0.013167821
0.0073903869 -0.010454768 -0.0086579435
0.0084999995 0.0028954842 -0.0072164005
0.0052855089 0.0094380649 0.0091408379
0 -0.014011628 0.002102732
0.0029999998 -0.0028997599 -0.0064752726
0.0029999998 -0.0037220896 0.00090527121
0.003007432 -0.0013067798 0.015943566
0.011116457 0.015107924 -0.0052481564
0.01038926 0.008564081 -0.013514071
0 0.0082382848 0.0063066436
0.011774843 -0.0052854195 0.015097358
0.0079664271 -0.014026184 -0.0032620623
0.0076213088 0.0061926921 -0.012381045
0.0024421969 -0.008082198 -0.001427619
0.0077106119 -0.013819638 0.0020106311
0.0089999996 0.0054839379 0.0066266097
0.011234631 0.0036110957 -0.015580689
0.004291662 0.012618122 0.0059929788
0 0.0064555993 -0.012163262
0.0027204496 -0.0062089916 0.004609975
0.0061500883 0.002740148 -0.0012211754
0.0087975487 0.014620753 -0.0060933838
0.0015693484 -0.0077433595 0.0055009127
0 -0.0094959624 0.011689022
0.012 0.0061575114 -0.0099771228
0.0034453981 0.015362438 -0.0013129292
0.003654008 -0.0050654882 0.0080324719
0.0084999995 0.005735246 0.002607869
0.0048475107 0.0054028588 0.0078093302
0.0019999999 0.0058462024 0.0078882575
0.0084999995 0.0081171365 -0.00062653178
0.0067459806 0.0055299359 0.0077164997
0.011999999 0.0040757409 0.0083460892
0.0036754066 -0.013898132 -0.0057026739
0 0.0059649297 0.012151278
0.0065038181 -0.00017015729 -0.0029910849
0.0031117646 -0.0080558397 0.0050246501
0.010490437 0.0012196027 -0.0079030013
0.012 -0.0085543003 -0.010578161
0.0089999996 -0.0019121139 -0.0081672333
0.0089999996 -0.0033115111 -0.0076939864
0.0086271642 0.0052245464 -0.0062536411
0.01162411 -0.0053797397 0.0059184078
0.0076155663 0.008360941 -0.0045020347
0.011999999 0.0043866117 -0.014219217
0.008097427 -0.0089348406 0.01158086
0.0028239407 0.004459973 0.0061624586
0.0031682693 0.0081431624 0.0048898072
0.0060442244 0.0066208821 -0.0068084681
0.0084999995 -0.0053239348 0.00081079768
0 0.0043922318 -0.014832204
0.012 0.0019249395 -0.0097263874
0.0091389231 0.00085957278 0.0079478817
0.0030916429 0.0078980876 -0.0020083108
0.0089999996 -0.00020718882 0.0091485642
0.0084999995 -0.0053656106 -0.004440574
0 -0.015220503 0.00022595818
0.0035823833 0.0030787131 0.0089827469
0.008774925 0.0094554983 -0.00087127142
0.00019800161 0.012333301 0.010182561
0.0069732694 0.0029123975 -0.0090386812
0.010524543 -0.015974257 -0.00086838385
0.0084999995 0.0035618849 0.0066820187
0 -0.0048452374 -0.0090768058
0 0.011962277 -0.0047462014
0.0077802441 -0.0014556171 0.0026206945
0.0034999996 -0.00090623001 0.007744431
0.0089999996 -0.003127479 -0.0025703586
0.005157942 0.011152845 0.0070571778
0.0076520164 -0.00752518 0.01167339
0.0029964354 -0.0049885679 -0.015198663
0.003831591 -0.013562432 -0.0058023483
0.0071270135 -0.0077372487 -0.0055089276
0.0014952591 -0.0076522031 -0.014048998
0.0032411157 0.0071297055 -0.0039469101
0.0086589456 -0.0057872445 0.007532103
0.0028477968 0.00327401 -0.009711694
0.0025050535 0.01442229 -0.006911844
0.0019999999 0.0053360281 -0.0083823381
0.0029999998 0.0094420798 -0.0030754535
0.011999999 0.0039525223 0.010622033
0.008606188 0.004691767 -0.0082546556
0.0060353191 -0.0090641407 0.0028355615
0.0030131908 0.0088342726 -0.0133321
0.0079231216 0.010465322 0.0097886221
0.0074017555 0.013558017 0.00083844451
0.0011181423 -0.011759482 0.010839449
0.0082727605 -0.0094630672 0.00079080631
0.0092632091 0.0065748026 0.0045471978
0.0026368923 -0.010235735 -0.00039093333
0 0.0054386752 0.013012292
0.0019999999 0.0046446873 0.0074528214
0.0089999996 -0.0085263746 -0.0025485228
0.0028312702 0.0075704367 -0.014090966
0.011999999 0.0017485011 0.011363325
0.0033186036 0.0077366182 0.0055097565
0.0028719418 0.0020284101 0.010042382
0.0020093841 0.0035813919 -0.0076535926
0.011156798 -0.0034230838 -0.015626114
0 -0.011020622 -0.008184595
0.007733753 -0.013913336 -0.0015350287
0.011999999 0.0091376994 0.012696475
0.010547199 0.0045831292 -0.0065491479
0.011847676 0.014198763 -0.0073708952
0.0076070563 0.010563693 0.0089212442
0.0094001712 -0.015981 -0.00064088375
0.010930739 0.010642913 -0.011940435
0.0033747035 0.015540595 -0.00022109422
0.0031214459 -0.0040462362 -0.01546099
0.0099416329 -0.015918357 0.0015484842
0 -0.0079276357 -0.0073274318
0.008201533 0.0011016737 -0.009435866
0.003 0.0084909471 0.0018106828
0 0.010714208 0.010338086
0.0010676919 -0.0091846203 -0.002402927
0.011450351 -0.012359203 0.010150637
0.003 0.002926501 -0.002406378
0.0063970112 0.0040797465 0.012392632
0.0062960172 -0.003974935 -0.0086241113
0.003 0.0019612766 -0.0080001671
0.0083849998 0.0031184417 0.0089704059
0.0087936223 0.0027682739 0.0011935034
0.0024151125 0.010236941 0.012290339
0.0089999996 -0.0069898092 0.0050125807
0.0076862676 -0.0027731219 -0.0090848319
0.00092076289 -0.0040878351 -0.0085689221
0.0035765399 -0.0032407893 -0.0089298645
0.0071979621 -4.0810788e-05 -0.0094930297
0.00073424145 0.0046429676 -0.0082836682
0 -0.0044841841 -0.012166493
0.0071000126 0.0090248091 -0.0029567278
0.0035000001 0.0068649761 -0.0038485965
0.0039262827 0.00060964091 0.014574979
0.0037378084 -0.014530696 0.0033587106
0.011999999 -0.00047338297 0.013015596
0.0059696934 -0.0088829026 -0.0033518225
0.0084999995 0.0013724921 -0.0056634177
0.0091083813 -0.015926866 -0.0014530359
0.0051203691 -0.0085583134 0.0041160411
0.0058037373 -0.0027869849 -0.01270678
0.00052330014 0.0051231761 0.0079981759
0.0055326074 0.0036960698 -0.012524902
0.0013523366 -0.01594476 -0.0012523049
0.010434804 -0.006097178 -0.014790032
0.0034999999 0.0057601407 -0.0014111797
0.0056017949 -0.0075649405 -0.005734975
0.0085000005 -0.0056810798 0.00084666652
0.011999999 0.0077176127 0.011713594
0.0083421785 0.015051861 -0.00016575561
0 0.0063108741 -0.0082153194
0.0050595668 0.0093128188 0.0018571997
0.0084999995 0.0053108698 -0.00021671523
0.00817117 0.00050172751 -0.014747825
0.0084999995 0.0030705251 -0.0051616789
0.011999999 0.0025617827 0.0087258853
0 -0.0004124371 0.010650576
0.0021558895 0.0098672789 -0.0016195738
0 0.0024122281 0.014986529
0.012 0.0036440876 0.0099335462
0 0.014378276 -0.00066486682
0.010090602 -0.0013488596 -0.0078841597
0.0011966251 -0.0047321357 -0.0082306555
0.0087389071 0.00069211383 -0.01572443
0 0.0030896775 0.011244078
0.007864967 -0.0062525705 -0.012777528
0 0.0051812325 -0.014398843
0.0029999996 0.0054649492 0.0067833713
0.0080107953 0.0080877617 0.0049761306
0.011999999 -0.0047549829 -0.0093182269
0.0076488671 0.0093647335 0.0015735545
0.0051977332 0.0090609137 -0.0028530904
0.0089999996 -0.0032776555 -0.0084896293
0 0.0066811601 -0.0088814776
0.0065234588 0.0078897933 -0.0052810572
0.0029999998 -0.0083153881 -0.0049166442
0.0030739224 -0.0046736635 -0.0066728578
0.0060920375 0.010374661 -0.0078488011
0.003 -0.0032114454 0.0088233519
0.011999998 0.0079411473 -0.0079678819
0.011999999 -0.01116521 0.010772589
0.0029798537 -0.0054117804 0.0084048361
0.0029999998 -0.0082673104 0.0041291737
0 -0.0017209117 -0.013728203
0.0029999996 -0.0014207494 0.008249254
0.0025507899 -0.0062985998 -0.0080778897
0.0040619536 -0.0088586351 -0.0034193897
0 0.0036624637 -0.011659021
0.0013759596 0.013336274 0.0088341627
0 0.012470394 -0.0074271471
0.0088015003 0.013125237 0.0088883834
0.0015041939 0.0085061956 -0.004228903
0.0029999998 0.0087618278 -0.0042198286
0.0089999996 0.0032379588 -0.0013480653
0.011999999 -0.0072763907 0.0076016439
0.0058450489 0.001471597 0.009378301
0.0063539394 -0.0029892374 0.00020541773
0.0027803055 -0.0096978173 0.0024247281
0.0065976162 0.0091488771 -0.0025455782
0 0.0044848812 0.013782228
0.0051618158 0.0084613711 -0.0043113334
0.0089999996 0.0084979944 0.0031898988
0.0088049537 -0.010126407 0.012198967
0.0050819344 0.0036311909 -0.0087715397
0.011999999 0.015161876 -0.00076572469
0 0.010690907 -0.0025015676
0.0063538221 0.012637558 -0.00319554
0.0088683581 -0.0071069361 0.0039854115
0.0081020202 0.0091340868 0.0025868181
0.0029999998 -0.0053849281 0.0073289485
0.00015973675 -0.0070935148 0.0063087018
0.012 -0.0019098204 -0.01027532
0.004933591 0.0060001756 0.011882344
0.0041302158 0.0019439078 0.014101916
0.00089457992 -0.013267375 -0.0089427093
0.0065816846 0.011855659 -0.0055680643
0.011523338 -0.0075932113 -0.014079277
0.0084225899 -0.005410492 -0.014194946
0.0079540405 0.0048677372 0.0081546176
0 0.0087000271 -0.011773845
0.0019999999 0.0071021491 -0.0070670224
0.0010291853 0.015997624 8.0169586e-05
0.0029999996 -0.0036773204 -0.0014929008
0.0090817306 0.0037994168 -0.015535189
0.0068154885 -0.0031183742 -0.012804293
0.0044594067 -0.011254653 -0.0079101864
0.0031177613 0.012753357 -0.0096457461
0.01013467 0.015382784 -0.0043787872
0.0019999999 -0.0067020734 -0.0057603773
0.00079898332 -0.0083587728 -0.0045000101
0.0035000001 0.0036218606 0.0054313769
0.0076473001 -0.0058405669 0.012594505
0.011999999 -0.0067243078 -0.0091283834
0.0013192513 0.014845544 -0.005948856
0.0084999995 -0.0055790651 -0.0008287885
0.0022962268 -0.0021881582 -0.0072148391
0.012 0.013343821 -0.0015584228
0.012 -0.003376063 -0.01224508
0.0034999999 -0.0053639966 0.0028631915
0.0042212568 -0.0094397562 -0.0010076197
0.00050734804 -0.0025108149 0.0091619324
0.0089999996 0.00073988858 0.0087896483
0.0047687278 0.012506271 -0.004913704
0 -0.0046233335 0.01446823
0.0084999986 0.00017273922 -0.0057206606
0.0080370838 -0.005219982 0.013554807
0.0084999995 -0.0028967303 0.006233823
0 -0.0024787111 -0.013828536
0.0029999998 -0.002964088 0.0080052968
0 -0.0041483711 0.010149968
0.0070830095 0.005108288 -0.01230114
0.004939748 0.0067527192 -0.011466153
0.0069075315 0.00069564546 0.0029151721
0.0089999987 0.0089491261 -0.0017828176
0.0050529372 -0.0015956605 -0.009359139
0.0081488127 0.0022349569 0.014546658
0.012 -0.0030391181 0.013318882
0.0085065477 -0.0094296234 -0.0010953884
0.0035454223 -0.0058252388 0.014091677
0.0074452236 0.0134674 -0.0020045019
0.0029999998 -0.0054167937 -0.0086087519
0.012 -0.0016701764 0.011660029
0.0046262317 -0.01287175 -0.0042398307
0.010221703 -0.0021603957 0.0076966975
0 -0.013146572 -0.00888927
0.0086477101 -0.0077480813 -0.0025269028
0.011999999 -0.0055021234 -0.0073355683
0.0019999999 0.0062205438 0.0078187417
0.002206608 -0.0088036042 -0.0052375831
0.0010511692 -0.0018519552 0.015885416
0.006588527 -0.008870339 0.0033920163
0.0089999996 -0.0025286064 -0.0037031912
0.0025136981 -0.0066244351 0.0078178952
0.0022392485 0.0071448833 -0.014309383
0.011999999 0.0027322492 0.0093289465
0.0031830275 0.0059264642 -0.0055936873
0.0078783305 -0.0061564818 0.0072329245
0 -0.0099747302 0.0033825662
0.010275633 -0.01466907 -0.0063839764
0 -0.010948811 0.0019606112
0.0084999995 -0.0052957931 -0.0045218659
0.0071918634 -0.0047955848 0.0081929341
0.0029999998 -0.0029784723 -0.006022525
0.0030993491 -0.011147426 0.011467746
0.010309459 0.0029094687 -0.0074448478
0.0057793376 0.004857243 -0.0081610922
0.003468714 -0.0077823913 0.0024108158
0.0086556422 -0.0042921216 -0.0020262818
0.0039845882 0.013209117 -0.0059493757
0 -0.0070382399 -0.0087425523
0.0084999995 0.0051927771 -0.0032764345
0.0073550898 -0.0010779896 -0.0094379382
0.0051259366 -0.0026278056 0.012944333
0.0045175008 0.001813352 -0.013565694
0 -0.013350517 0.0044127172
0.00088648021 0.0094619254 0.00081560697
0.0035635917 0.0002288555 0.015215716
0.0084397923 -0.0094996653 1.1503884e-05
0.0087965587 -0.0068097338 0.0044722538
0.0077038035 0.013325491 -0.0041522258
0.0035000001 -0.0032010127 -0.0062078238
7.331236e-05 -0.015420979 -0.0042390395
0.0037084268 -0.013949851 0.005423483
0.0029999998 0.0042826901 0.0071070357
0.0019999999 0.00074325234 0.0097234789
0.0013066962 0.0035256236 0.01560134
0.0083701359 0.0078169322 0.012918179
0.011999999 0.0082166316 0.011397355
0.012 -0.013078387 -0.0080498001
0.0065894024 -0.0083969645 0.0044352259
0.0019999999 -0.00878473 4.8071161e-05
0.00937803 0.00057133962 0.015987229
0.0079535889 0.0073970635 -0.012328232
0 -0.0074263331 -0.012198158
0.0077642454 -0.007430505 -0.0059128767
0 -0.010447185 -0.0057242503
0.00027560481 0.014258562 0.0072555584
0.010400362 0.012471761 0.010011916
0.0029996964 -0.0090249199 -0.0048484593
0.0097363098 0.015981708 0.00061703328
0.011999999 -0.012905347 0.0026724488
0.0088697607 -0.004379584 0.0018320286
0.011999999 -0.009034818 0.010360268
0.0034999996 -0.0034605581 0.0045854733
0.0065031205 -0.00011160329 0.009496754
0.0019999999 -0.006287328 0.0077444976
0 -0.012994591 0.0046751671
0.00053225621 -0.0017160897 0.0093405377
0.010171778 -0.003344191 0.0072623291
0.010937503 -0.0027811518 0.0074949176
0.0022110632 -0.011003224 0.01160773
0.010467405 -0.013642123 -0.0083496803
0.0041185133 0.0084841605 0.0042694239
0.0023487979 0.0080966894 -0.013792054
0.0036437979 0.01403294 0.0055154744
0.012 -0.00051279837 0.010234563
0.012 -0.0021060968 -0.0096289562
0.011999999 0.014642522 -0.0033756632
0.011930639 -0.0064032059 0.014655251
0.0060819318 -0.0088512516 0.0034399445
0.011999999 -0.00060853316 -0.0092946049
0.0029999998 0.0059710727 -0.0061840713
0.0091085555 0.010230534 0.012295862
0.011999999 -0.0067943768 -0.010326094
0.0029999998 0.0043175626 0.0018765359
0.0097443163 -0.015929665 0.0014216276
0.002425784 0.012069513 -0.0105006
0.0027395214 0.0041598105 -0.0078340983
0.0057356409 0.0052945917 -0.0078851394
0.011999998 -0.014105746 -0.00070400373
0 -0.0089218551 0.0036806338
0.007305061 -0.0093423305 0.0016890754
0.0037188004 -0.0060222619 0.013678501
0.0077355984 0.0019148279 -0.0023043887
0.011999998 -0.012012033 0.0042752218
0.010053542 0.0089124134 0.013279473
0.0020153967 -0.0030139119 0.0069169402
0 0.009484278 0.0025161782
0.0041798707 -0.0070815203 -0.0063266167
0.0055035693 0.013051904 0.00059289858
0.0068018851 -0.012815638 -0.0030345351
0.011833758 -0.015951512 -0.0011765516
0.0084999995 -0.0055062375 -0.0046752892
0.0015688591 -0.012628553 -0.009818675
0.0034999999 0.0039217323 -0.0063471999
0 0.010531958 0.0033229701
0.0088183936 0.011475112 0.010975373
0.0085893655 -0.01181429 -0.010007328
0.0091569209 0.0085220383 -0.013540803
0.0089999996 -0.0018806249 -0.0039339634
0.0032654577 0.00024810823 0.015730292
0.0086039705 0.014939818 -0.0041467478
0.0056507182 0.0021486271 0.0092466883
0.011999999 0.0075545777 -0.002673314
0.0019999999 0.0084700817 -0.0045599667
0 -0.0072891684 0.0061964793
0.0035000001 -0.0070979963 -0.0031456919
0.0090305265 -0.0079668146 -0.00070769049
0 -0.0057636369 -0.012434112
0.006572729 0.0094785597 -0.00055944361
0.0034999999 0.0023798766 -0.005873214
0.011999999 0.0071530584 0.013945012
0.0022208218 0.0030380022 -0.015703198
0.0065876166 -0.011646386 0.0059837359
0.0041431608 0.013307221 0.0049873451
0.011999999 -0.01234462 0.0091407914
0.005138733 -0.009398804 -0.0013623156
0 0.010076303 -0.0041153692
0.0023517029 0.0069343532 -0.0045940382
0.0041587502 -0.0071081575 0.0062966836
0.012 -0.0036126284 0.015228755
0.0048058475 0.0043910551 0.0084207803
0.0032668978 -0.0017337222 -0.0079594674
0.010215799 -0.0014921158 0.0078541208
0.00094394269 0.015395308 0.0043329643
0.0029999998 0.0082319258 -0.0036985753
0.0083904965 -0.0056965169 0.0075993282
0.0029999998 0.0083654299 -0.0050261356
0.00023934247 0.014649727 0.0064316657
0.0089999996 -0.0041531613 -0.0081273569
0 0.0079937996 0.0062201638
0.0030342785 0.0029950375 -0.0090092272
0.0046708528 0.0037721784 0.01296507
0.00923305 -0.0029172276 -0.015724897
0.00017931771 0.0094916075 0.00021901069
0.0041328012 -0.0039105345 -0.013679945
0.0029999998 -0.0089672655 -0.0020915468
0 0.0037363551 -0.015358699
0.0043370146 -0.0070288642 -0.0063812439
0.0095950337 -0.013960545 0.0078030122
0 -0.0038670823 0.013034615
0.0089999996 -0.0041408492 -0.0079931375
0 -0.012093213 -0.0073613105
0.0036498061 -0.014751127 -0.0030630238
0.0034999999 0.00074546982 0.0069000586
0.0064557535 0.010621642 -0.0076019298
0 -0.012287478 0.0033179806
0.010893592 0.0027628047 0.015752645
0.0022181561 0.0023767734 0.0097097335
0.0097569833 -0.0091328965 -0.013130979
0.0043530809 0.0020139113 0.0092804627
0.011999999 0.007149497 0.0044308398
0.005917599 -0.0086095957 0.004006065
0.011630322 -0.00079928926 -0.0079553965
0.0070433496 0.0036197028 -0.0087798843
0.0072187963 0.005231332 0.0079265321
0.012 -0.0076912353 0.010825903
0.0068752198 -0.0057211635 0.011908436
0.0018031992 -0.015909025 -0.0016531607
0.011999999 -0.0082169222 0.012972615
0.0078811627 0.0091405557 -0.010940747
0.0011852994 -0.0088973772 -0.0033115216
0.011999999 0.0030124581 -0.0088870358
0.006242035 -0.0073746797 0.0059834789
0 0.0066703581 -0.0097921854
0.0019999999 -0.0066488385 -0.0073534972
0.011999999 -0.0014212581 -0.0093127796
0.00082788477 0.0032909508 -0.0089086732
0.011802018 -0.0055049416 0.0057990993
0 -0.010238436 0.0084044049
0.0034999996 -0.0026932419 0.0039784075
0.0038602345 -0.006227979 0.0071692979
0.0050086346 -0.0010036951 -0.00282375
0.0060470458 -0.0073837368 -0.010707618
0 0.013361361 -0.00045784417
0 0.013278535 -9.4502109e-05
0.002161477 -0.0095861796 0.0036249277
0.011999999 -0.014737787 -0.0038182379
0.0026925209 -0.0052761836 0.0087849442
0.0084424121 -0.014803523 -0.0035724016
0.0045708544 -0.0022252011 0.0092347264
0 0.015652085 -0.0016772712
0.011999998 0.0099529075 -0.0054634642
0.0089999987 -0.0082966695 0.00088229484
0.010588073 -0.0051393453 0.01515162
0.011445061 0.0029569594 0.0074263164
0.011116381 -0.013910117 -0.0078944899
0.011999999 0.0096046096 -0.012096474
0.00040223228 -0.0012880553 -0.015944676
0.0019999999 -0.0049559455 -0.0052891066
0.0089999996 0.0025243522 0.0028795707
0.0089895753 -0.00016978585 0.015993001
0.011999999 0.00789579 -0.0031947135
0.007529777 0.013037917 -0.004285906
0.0067372355 0.00029994192 -0.0094930297
0.0026115142 0.0042439862 0.0093233092
0.0092017986 -0.015966788 0.0010052031
0.010481759 -0.0073244059 0.014217243
0.011999999 -0.0013528435 0.00812585
0.0031716535 -0.00072114146 0.0094656004
0.011999999 0.0086174523 -0.0035665815
0.0093853381 0.0066590351 0.014542577
0.011007895 -0.014822377 0.0060059787
0.0029999998 -0.0018417378 0.0099384254
0 -0.01130321 -0.0067252582
0.011999999 -0.005197674 -0.011804732
0.0031727741 -0.00055993261 -0.0047128787
0 -0.013648089 0.0055713924
0 0.010661449 -0.0099306833
0 0.0024686852 0.012501439
0.0087879058 0.014365268 -0.0066348277
0.0098410631 -0.0079414258 -0.01388377
0.0036794601 0.0032534662 -0.008925382
0 0.0086850589 0.010388922
0 -0.012918876 0.0021467987
0 0.010691747 0.0098402863
0.0055399002 0.013057229 0.00020974765
0.0025042088 0.0050308798 0.0086391754
0.0033499445 -0.0035589763 -0.015172703
0.0044505666 -0.0010330537 0.0094416523
0.0084999995 -0.00012621505 -0.0058285831
0 0.010992174 -0.0091846157
0.010377895 0.01220575 -0.010339761
0.011999999 -0.0080060633 -0.010925615
0.0047523836 0.0058418186 0.0074870973
0.011999998 -0.014129204 -0.00058879302
0.003 -0.0063489298 0.006448186
0.0067794952 0.0081508923 0.0048778695
0.003296752 0.00027573711 0.008141336
0.0087428689 0.0093868757 -0.0014593749
0.011625033 -0.0059976461 -0.0052861823
0.0081855068 -0.001744144 0.014679175
0.011889963 0.0071525797 -0.003568684
0 0.010147405 -0.0054302649
0.0020563265 0.0053236107 0.0055106175
0.0077095623 0.0047434578 -0.0082239248
0.0019999999 0.0076289093 0.0058383453
0.012 0.0026513785 0.011895368
0.0074785263 -0.0018783949 0.0093099251
0.0011693051 -0.015417293 -0.0042525269
0.0046486836 -0.0029550754 0.00049346604
0.0032556921 0.0068169367 -0.006609424
0.0064914469 -0.0097163431 -0.0087389713
0.001844738 0.013540284 0.0085110012
0.0068322527 -0.0012374659 0.0094144652
0.010420369 0.006235973 0.0050047887
0.0029999998 -0.0067358338 -0.0065022586
0.0084999995 -0.0076608798 0.0015076026
0.0077716224 0.0028543826 0.00092252507
0.011524941 -0.015986692 0.00044893907
0.0023291374 0.010219499 0.0007772973
0.0064891139 -0.010073412 0.0083329799
0.0089999996 0.0058235168 -0.0062229158
0.0059909793 -0.0037209408 -0.0087353671
0 0.011494759 0.0099944845
0.0073235086 -0.00066189107 -0.0029242167
0.0091602206 -0.0085425265 0.013528587
0.0048111151 -0.0090287011 0.0029458911
0.0054462408 0.0088433754 -0.0034618704
0.0089999996 -0.0041535753 0.0076442803
0.0035469399 -0.0012213698 0.015198613
0.0061840015 0.012217991 -0.004476286
0.0074141752 -0.0068606646 0.011729453
0.0034999999 -0.0074645593 0.00056398206
0.0056407871 -0.010740598 -0.007392914
0.0055353758 -0.011999504 -0.005150842
