# .PCD v0.7 - Point Cloud Data file format
VERSION 0.7
FIELDS x y z
SIZE 4 4 4
TYPE F F F
COUNT 1 1 1
WIDTH 1000
HEIGHT 1
VIEWPOINT 0 0 0 1 0 0 0
POINTS 1000
DATA ascii
0.018454695 0.00087505061 -0.0028569766
0.028058296 0.0005949387 -0.0029216965
0.010784225 9.5907664e-05 0.0029873773
0.009082214 -0.0029737931 0.00019911594
0.0083304849 -0.00074992183 0.0029012982
0.02276268 0.00250146 -0.001625928
0 -0.0012453394 0.0028896602
0.018500336 0.0019362113 0.0022633416
0 0.0031792934 -0.0017373184
0.0064261626 0.0028978551 0.00077608251
0.0024675636 -0.0027914566 0.0010332222
0.018224278 0.00092230778 0.0028374013
0.020908276 -0.0026022077 0.0014900834
0.008058602 -0.00012966768 -0.0029829338
0.021525372 -0.00081686536 0.0028810797
0.0051143891 -7.8632416e-05 0.0029896509
0.029999999 -0.0022718471 0.00034444261
0.030000001 0.0011970141 0.00069844187
-0.0019181343 0.0026061849 -0.003476185
-0.0019999999 -0.0014075355 0.0014948406
-0.0019778113 0.001355482 0.00094944483
0.015175097 0.00094845169 -0.0028265717
0.0037637511 -0.00044646329 0.0029412382
0.0079604071 -0.002455286 -0.0016860961
0.0029819761 -0.0015215493 0.0025815626
0.017814672 -0.0011622641 -0.0027380025
0.017358864 -0.0024050055 -0.0017516143
-0.0013624248 0.0040842039 0.0017983476
0.003867245 0.0011923317 -0.0027255479
0.011992268 0.0023150947 -0.0018687736
0.021660019 0.0028280385 -0.00094490981
0.0099034524 0.0018805994 -0.0023060192
0.01123722 -0.00084693695 0.0028686225
0.013379669 0.0024524929 -0.0016897355
0.005360309 0.0028855824 -0.00080599473
0.016020909 0.0019974594 -0.0022163382
0.013807236 -0.0026321015 -0.0014179182
0.014181057 0.0010162637 0.0027984811
0.022535786 0.0027402837 0.0011567577
0.017284144 -0.0014722315 0.0026096031
0.018952208 0.0029820213 0.00013660028
0.0021202955 -0.00077055697 -0.0028985823
0.015747499 -0.0018845984 -0.0023029502
0.013448275 -0.00045316952 0.002940356
0.014858367 -0.0029406263 -0.00045111359
0.018977085 -0.00082942954 -0.0028758748
0 0.0015059941 -0.0034232042
0.026164148 0.0026667891 -0.0013341791
0.014988242 0.0027806503 0.0010593093
0.0055750255 -0.00079560833 -0.0028898846
0.026992084 -0.0025368922 -0.0015797579
-0.00049999997 -0.0010818839 -4.4066164e-05
0.030000001 -0.00072155613 0.0014128556
-0.0019514356 0.00091951544 -0.0042275265
-0.0019999999 0.0025035283 0.0013588748
0.001664023 0.0025416643 0.0015735397
0.029875826 0.0024875416 -0.0001757585
0.029999999 0.00044333821 0.0020823725
0.016905978 -0.0029341241 -0.00050051638
0.0063698562 -0.00080867833 0.0028844706
0.01673013 -0.00019933282 0.0029737649
0.0050224974 -0.0016575134 0.0024772207
-0.001631294 -0.0043872949 0.00085628068
0.026654646 0.0029754299 -0.00018668122
0.02856103 -0.00061579427 -0.0029189514
0.0045636846 -0.00070880388 -0.0029067099
0.028835557 0.002066385 -0.0021634432
0.029416895 -0.00077991275 -0.0028637673
0.0086641517 -0.0024023931 -0.0017550184
0.0021332754 0.0014586454 -0.0026152306
0.020173647 -0.0023587658 -0.0018118676
0.012583212 0.0021990042 0.0020200473
0.016297959 0.00040294937 0.0029469656
0.015488939 -0.0026475468 -0.0013806315
0.00042229521 -0.0026851292 0.0012899042
0.026563253 -0.0029133249 0.00065854727
0.0080253314 -0.0022310754 0.0019782558
0.012343569 -0.0020664167 0.0021634188
0.028810272 -0.0020859819 0.0021484045
0.029869016 -0.0025103954 -5.3850214e-05
-0.0014034299 -0.0028698549 -0.003421501
0.0091156205 0.00088947255 0.0028510026
0.023446042 -0.0026336033 -0.0014142924
0.0052620545 -0.0016848209 -0.0024562643
-0.00071834575 -0.00050044525 0.0044341311
0.0042661228 -0.0027701647 -0.0010846218
0.016171956 -0.00080222992 -0.0028871419
0.023276666 -0.002002113 -0.0022127673
0.027120233 -0.0029697444 0.00022988013
0.00732667 0.0020146396 -0.0022031539
0.021906171 0.0029385439 0.0004669349
0.0053945035 -0.0029571436 -0.00032561563
0.013605664 -0.00027953109 -0.0029632093
0.00033499731 0.0026004524 0.0014943213
0.0031841823 0.0011930495 -0.0027252499
0.0029467365 -0.0015129853 0.0025881352
0.0048162322 -0.00057058659 -0.0029249017
0.01528995 -0.0018849213 -0.0023027025
0.0012571119 0.0028453665 -0.00090307946
0.0032068249 0.0023653088 0.0018033416
0.026860589 0.00081174925 0.0028831984
0.020596543 0.0019385093 -0.0022615779
0 -0.0012566918 -0.0036545633
-0.00063371722 -0.0042032455 0.0015109893
0.026526133 -0.0027361137 0.0011668236
0.02590091 -0.0020299477 -0.0021914062
0.012103079 -0.0028084079 -0.00099230011
0.026632927 -0.0010819227 -0.0027712828
0.027971901 -0.0027934378 0.0010284388
0.013779203 -0.00033395851 0.0029560458
0.025604488 0.0024973666 -0.0016312619
-0.00094351172 0.00079740555 -0.0012716783
0.014863087 -0.00091274665 0.0028413618
0.018787628 0.0018796871 0.0023067193
0.0057452959 0.0029701055 0.00022713565
0.012469832 0.0014620374 0.0026138255
0.012808603 -0.0015206941 0.002582219
0.023704655 0.0016170328 0.0025082862
0.017732535 -0.0025759838 0.001528819
0.0082422085 -0.0027689217 -0.0010876228
0.010201832 -0.0029886535 8.6208842e-05
0.024650965 -0.0011423782 0.0027462402
0.0059020319 -0.00078526256 -0.0028941701
0.005334239 4.0846433e-05 0.002994624
0.027225332 -0.001488469 0.0026028766
0.013461347 -0.00037254897 -0.0029509666
0.0044338168 0.0015259362 -0.0025781961
0.0001995198 -0.0019410561 0.0022596235
0.0091568464 0.0023141229 0.0018700404
0.02011417 0.002987653 9.3813163e-05
0.024838852 0.00091350952 0.0028410458
-0.00049999997 -1.8186676e-05 0.00095638563
0.011414731 -0.0021767674 0.0020490228
0.019244483 -0.0020333074 0.0021888276
0.016657492 -0.0029721959 -0.00021125331
0.014980113 -0.00034816659 0.0029541759
0.017276542 -0.0025214173 0.0015999223
-0.0012035576 -0.0015 -0.00049659587
0.004493481 0.002163765 0.0020659661
0.0011429111 0.0029833366 0.00012660955
0.015432061 -0.0025588786 0.0015511082
0.011823473 0.0011202288 0.0027554152
0.029811228 6.0087918e-05 0.0025673637
-0.0019999999 -0.00021461655 -0.0025016968
0.0025158634 -0.0027876941 -0.0010423048
0.024318464 0.0023859264 0.0017764755
0.024131091 0.0029160588 0.00063777337
0.024109429 -0.0011003438 -0.002763652
0.010026871 0.00065833319 0.0029133528
-0.0014489519 -0.001287277 0.0042959214
0.025838228 -0.002992352 5.8109981e-05
-0.001328956 -0.0002176775 0.0016064132
0.018782692 0.0016205233 0.0025056077
0.024756834 0.0025162061 -0.0016067127
0.012973397 -0.0016228807 -0.0025037986
-0.0019999999 -0.0021072079 0.003225063
0.0058278996 -0.0027137834 -0.0012207309
0.016673636 -0.0010646032 0.0027784572
0.024193715 0.00054155599 -0.0029287224
-0.0019999999 -0.0037501357 -0.0013412543
0.022457609 0.0026620144 0.0013457059
0.029380871 -0.0029012288 -0.00075045001
0.024206882 0.0011299734 0.0027513783
0.016878715 0.0015902694 -0.0025288253
0.0018350395 -0.0022762818 -0.0019193493
0.0017410922 0.00064043468 0.0029157086
0 0.0029279771 -0.0010180494
-0.001736142 -0.0030126332 -0.0033119512
0.0079303123 -0.00089205912 0.0028499314
0.0058305925 -0.0029121463 0.00066750066
0.016698122 0.0021391381 0.0020980563
0.0087236539 0.0027145434 -0.0012188961
0.003108236 0.0028162897 -0.00097327266
0.0055634719 -0.0028981895 -0.00077354151
0.012645442 0.0027473751 -0.0011396381
0.0059182756 -0.0029174434 -0.00062725262
0.0031861633 -0.0005103813 -0.0029328254
0.026020952 -0.0028036872 -0.0010036959
0.023861747 0.00072222255 -0.0029049439
0.010513077 -0.0022401209 -0.0019664692
0.0057746433 -0.0029356924 -0.00048859976
0 -0.0029081784 -0.0013707589
0.0082333088 -0.0015748618 -0.0025406496
0.01952349 -0.002846481 0.00090038875
0.022914816 -0.0028855468 0.00080608
-0.0018722069 -0.00023464776 0.0043969085
0 -0.0031953217 0.00098383683
0.025503851 -0.0014730049 0.0026092823
0.013947798 -0.0029899476 -7.6379962e-05
0.0090829721 -0.0021192248 0.002122893
-0.0019999999 0.00082270632 -0.0036045867
0.015521728 -0.0029354212 -0.0004906627
0.0011462006 -0.0026735766 -0.0013177939
0.012833307 -0.002282344 0.0019114497
0.026497738 0.0028900441 -0.00079522363
0.012414194 -0.00020775749 -0.0029726559
0.028367473 0.002268607 0.00192935
0.0026562577 -0.002149726 0.0020842592
0.025015512 0.0026949674 0.0012661546
0.0014340591 -0.00054835237 -0.0029278279
0.019814312 -0.00076219888 -0.0028996821
0.01718518 -0.00095820322 0.0028225323
0.016542627 -0.0026664813 -0.0013349219
0.0076073911 -0.00014860016 0.0029804418
0.0065000532 0.0022767338 0.0019187604
0.014999949 0.0029375365 0.00047459087
0.014080389 -0.0024883715 -0.0016429832
0.022256987 -0.0029086883 -0.00069377362
0.029697808 -0.0026393032 0.00037524797
0.029941561 0.00056450523 0.0023706402
-0.0016412532 -0.003996525 -0.0020099957
0.01716141 0.0026539536 -0.001365165
0.0031808703 -0.0024446105 0.0017000065
-0.00086229923 0.0044071199 -0.00070565974
0.027598497 0.0018758882 -0.0023096348
0.023852937 -0.00053561921 -0.002929504
0.028005952 0.0027029205 -0.001246955
0.0044743326 -0.0026172721 -0.001453717
0.016383318 0.0027385685 0.0011608985
-0.0013473742 0.0033312552 0.002987474
-0.00049999997 3.797729e-05 0.00010152168
-0.0019999999 -0.0006862203 0.0026834435
0.0077272342 -0.0022141221 0.0020003472
0.006355531 0.0029943488 4.2938522e-05
0.020346968 -0.00099023758 0.0028092624
0.028114595 0.001142567 0.0027461618
-0.0010677134 -0.0044976762 -1.7657894e-05
0.0094131911 -0.0015607844 0.002551453
0.028339451 -7.8874729e-07 0.0029998964
0.016213384 -0.0028523628 0.00088618905
0.012566325 -0.0015393514 -0.0025679008
0.028524993 -0.0023999254 -0.0017582342
0.0030477648 -0.00020968562 -0.0029724021
0.020641945 -0.0020907866 -0.0021447169
0.016404105 -0.00042383888 -0.0029442161
0.0080004465 0.0026673796 0.0013327538
0.017732423 0.0029901045 7.5184187e-05
-0.001953508 0.0043399646 4.958822e-05
-0.00045894741 0.0031300788 -0.0031705326
-0.00025444062 0.0034841192 -0.002388272
0.017311646 -0.002915245 -0.00064395694
0.0028482117 -0.0025662656 0.0015414822
-0.0013348538 -0.0015 -0.00045560818
0.023852173 0.0023530361 0.0018193338
0.025854228 -0.0029868125 0.00010019721
-0.00078146975 -0.00052825839 0.0044304701
0.018313035 -0.0010990165 0.0027642022
0.024122642 -0.0024387711 -0.0017076157
0.012431429 -0.0017815698 -0.002382017
0.019180929 -0.00039449835 -0.0029480779
-0.0019999999 0.00020475815 0.0018225227
-0.0012370868 -0.0041764248 -0.0015757323
-0.0018813037 -0.0015 -0.00032987376
0.021433897 0.0020348134 0.0021876721
-0.00018334924 0.0027774137 -0.003096693
-0.00083513226 0.0022274947 -0.0039064232
0.029631929 0.00069251371 0.0026634242
-0.0019999999 -0.0041005076 1.5726665e-06
0.0046553118 0.0010006248 0.0028049594
0.027814133 -0.0026928899 0.0012711702
0.027820647 0.0026893741 0.0012796571
-0.0019999999 0.0030534705 -0.0012311853
-0.0014219867 -0.0014014915 -0.004248606
-0.00060292968 0.0015 -0.00047921579
0.0038137971 -0.0025057825 0.0016202958
-0.0019999999 0.0019679472 0.002541685
0.029410729 -0.0013981607 -0.0026142837
0.002901183 0.00075541739 -0.0029005753
-4.6537323e-05 0.0024464116 0.0031796887
0.0039925785 0.0029755179 0.00018601085
0.00092989899 0.0026769857 0.0013095645
0.00027889927 0.0029144331 0.00065012538
0.016096208 0.00013034014 0.0029828455
0.021686887 -0.0016188422 0.002506898
-0.0018721044 -0.0043255724 -0.00077740609
0.018511266 -0.00067876122 0.0029106641
0.017871428 0.0029040908 0.00072870444
0.0053626895 0.0023919463 0.0017686313
-0.00079265307 3.3547552e-05 0.0044955849
0.026598154 0.0029800083 0.0001518944
0.023268173 -0.0011672173 0.0027359505
0 0.0015924569 -0.0027477804
-0.0019999999 0.0014153668 0.0031730968
0.022733795 -0.0024597587 0.0016802676
0.022132993 0.00064251659 -0.0029154345
0.022029659 0.0015073391 -0.0025924682
-0.0011313075 -0.0015 0.00081341778
0.021994922 0.0029363404 0.00048367682
0.016120989 -0.0025203163 -0.0016013571
0.0027365596 -0.0012229042 0.0027128831
0.026470169 0.0023458146 -0.0018287437
0.011226507 -0.00034342724 0.0029547994
0.018288758 0.00012213014 -0.0029839256
0.0023050965 0.0028277426 -0.00094562426
0.017298046 -0.0013531271 -0.0026589402
0.0085572693 -0.002687572 -0.0012840073
-0.00075752957 -0.0014371489 -0.0009022904
-0.00015958131 -0.0041033393 -0.00042728882
0.025351774 0.0026335521 0.0014144164
0.016780231 -0.00087994349 -0.00285495
0.019838087 0.00055234449 0.0029273026
0.0090316636 0.0029808639 0.00014539203
-0.0002682053 0.0039641825 0.0014875695
0.022560505 0.0027392833 -0.0011591726
0.00095061306 -0.00064459594 -0.0029151607
0.021562163 0.00095809536 0.0028225766
0.024763681 0.0017998044 -0.0023680236
0.0025729558 -0.0026492379 -0.0013765496
0.024429617 -5.3647971e-05 -0.0029929392
0.0094975922 -0.0028600185 -0.0008677076
0.021245144 0.0013236098 0.0026711673
0.016954007 0.0028521817 0.00088662689
0.011302207 -0.001986532 0.0022247243
0.01261529 0.0029492886 0.00038529877
0.021743756 -0.0026948315 -0.0012664831
0.022579793 -0.00049034931 -0.0029354622
0.020193078 -0.0011225374 0.0027544589
0.029999999 -0.0020290636 0.0010131875
0.016366208 0.0020103932 -0.0022064126
0.025820239 -0.0023402611 0.0018359802
0.0070697591 0.0019791999 0.0022303511
-0.00049999997 0.0012985559 0.00026236923
0.0164937 -0.0025685765 0.0015384709
-0.00049999997 -0.00081217976 0.00049844681
-0.0019999999 0.0021751572 0.0035366411
0.023701094 0.00019569272 -0.0029742438
0.023171447 0.0028369687 0.00092335162
0.019509651 -3.620733e-05 -0.0029952347
8.5403139e-05 0.0023432237 0.0018321201
0.0093296003 -0.0021770955 -0.0020485951
-0.0011523435 0.0037853625 -0.0023956292
0.006647482 0.0026234498 0.0014388034
-0.0002845398 -0.0035692202 -0.002326417
0.01666175 -0.0029308931 0.00052506529
0.018600313 -0.0012672375 -0.0026945188
-0.0019999999 -6.3517451e-05 0.0033697134
0.0098031517 -0.0018161762 -0.0023554594
0.024580849 -0.0023445091 -0.0018304448
0.010197057 -0.002769324 0.0010866518
-0.0019999999 0.0040996452 0.00032733291
0.015412298 0.002117137 -0.0021244949
0.016914144 0.0013896856 0.0026437961
0.0022332384 -0.0019393718 0.0022609162
0.002563213 0.00048261764 -0.0029364799
0.023713244 -0.0019215251 0.002274612
0.01967412 0.0029271559 -0.00055345939
0 0.0038576389 0.000290483
0.018826269 -0.0010116027 0.002800412
-0.00049245358 -0.0012068361 -0.0043211458
0.029999999 0.00082703365 0.0018085776
0.0015154389 0.0021392605 -0.0020978965
-4.7127771e-05 -0.0015986107 0.0036809419
0.0061955177 -0.00056766678 -0.0029252861
0.020742878 -0.0022931797 0.0018973302
-0.0010188975 -0.0039357324 -0.0021567456
-0.00088149944 0.0032562064 0.0030852861
0.029999999 -0.0022918112 -0.00024438524
-0.0019114283 -0.00046759515 0.0043270262
0.028450727 0.002274503 -0.0019216667
0.028375067 0.0017720783 -0.0023893008
0.020587465 0.0026717682 -0.0013221598
0.0084250672 0.0028981445 -0.00077388197
0.023520559 0.0027371906 0.0011642242
0.0048874584 0.0015837126 0.002533857
0.014215094 -0.0012048371 -0.0027203672
0.0075387177 0.0011367832 0.0027485576
0.020978322 0.0028348553 -0.00092845334
0.026677053 -0.0020637885 0.0021654358
0.0011170615 -0.00010368133 0.0029863541
0.01074066 0.0015652368 0.0025480357
0.013840696 0.0026417887 0.0013945325
-0.0019999999 0.0025482064 0.0023787015
-0.0019999999 0.0020889102 0.0022021371
0.018916762 -0.0023048713 -0.0018820955
-0.0017125959 -0.002942163 -0.0033660205
0.017809492 -0.0029931001 5.2425796e-05
0.023981985 0.0024378847 0.0017087711
0.0076765697 0.0017117134 -0.0024356267
-0.0012604002 0.0031388332 -0.0032151209
0.019425292 0.0027231637 -0.0011980864
0.011750578 0.0017792357 0.0023838081
0.01158113 -0.0026679228 -0.0013314426
0.011300089 -0.0028059112 0.00099832774
0.025444141 -0.0015291674 -0.0025757167
0.0049110185 -0.0027178857 -0.0012108282
0.014947738 0.0022795079 -0.0019151453
0.013601508 -0.0012695389 -0.0026935653
0.012629054 0.0028407159 0.00091430539
-0.00091954198 -0.0035920255 -0.0026476085
-0.0019999999 -0.0032594178 5.2997802e-05
0.011145989 0.0023678981 0.0017999674
-0.00049999997 0.00014714198 0.001419635
-0.0019237018 -0.0014143477 -0.0041105207
0.015458314 0.0019617705 0.0022437267
0.0023874694 0.0022244351 -0.0019869083
0.0041163866 -0.0011745204 0.0027329258
-0.00055199978 0.0043956386 0.00079288817
0.012139294 0.0019970783 -0.0022166308
0.013892132 0.0024853675 0.0016468979
0.019905301 -0.0023358252 0.0018417602
0.028792266 0.0019458013 -0.002255982
0.0057945726 -0.0021270495 -0.0021138079
0.018344019 0.00023482999 -0.0029690925
0.0059387921 0.0003179058 0.0029581587
0.0079180244 0.0017652052 -0.0023945756
0.00073073996 0.0029677353 0.00024514445
0.024568452 -0.0029190858 -0.0006147736
0.0011371589 -0.0027328022 0.0011748176
0.007723012 0.00028933882 -0.0029619185
0.0068575749 0.0022296619 0.001980098
-0.0003438915 0.0007419762 -0.0042462214
0.0017500861 0.00027650959 -0.002963607
0.0011156619 -0.00033099874 -0.0029564353
0.01475325 0.0014302641 0.0026269872
-0.0019999999 -0.0036695064 -0.0014220541
0.020215234 -0.0027360227 -0.0011670439
0.0032959012 0.002790092 -0.0010365156
0.018891247 -0.0011767121 -0.0027320175
0 0.0029155598 0.0013437454
0.012693139 0.0016346818 -0.0024947422
0.01832076 0.0016999501 -0.0024446538
0.0015322008 -0.0008012639 0.0028875419
0.0046491483 -0.0029919962 6.0812828e-05
0.02921647 0.0029993004 5.3166141e-06
0.025554622 0.0013712796 0.0026514207
-0.0019999999 0.00070773141 -0.0019747512
0.02337103 -0.0013309091 -0.0026681437
0.019948293 -0.0017731264 0.0023884964
0.030000001 5.2716437e-05 -0.00088631664
0.01256607 0.0018506258 -0.0023290217
0.016411519 0.0020862576 0.0021481926
0.0069101891 0.0029952743 3.5907095e-05
0.029999997 0.00056389335 0.0005590173
0.0259504 0.0029495589 -0.00038324381
0 -0.0034339356 0.0016851248
0.0066372734 -0.0011910114 0.0027260943
-0.0019118016 0.0026227871 -0.0034713594
0 0.003773934 -0.00068737596
0.0026526242 -0.00089645735 -0.0028481095
0.025831511 -0.00089793355 0.002847498
0.029405516 -0.00027521531 0.0029447596
0.02394221 -0.0028377948 0.00092135731
0.028690668 -0.0029335939 -0.00050454325
0.022733161 0.00051639514 0.0029320342
0.014498436 0.0029540034 0.0003494742
0.0053645056 0.0023113622 -0.0018736373
0.011812283 -0.0001961243 0.002974187
0.015773999 -0.00088771241 0.0028517318
0.0097419815 -0.001078794 -0.0027725787
0.0024404405 -0.0029126091 0.00066398032
0.01558177 -0.0017899891 -0.0023755557
-0.0019999999 0.00066843414 -0.0016069479
0.013388481 0.0029072128 -0.00070498441
-0.0019999999 0.0020510757 -0.0023494619
0.015786771 -0.00010862255 0.0029857038
0.0057519972 0.002018224 0.0022004026
0.028005265 -0.00078449398 -0.0028944886
0.020521984 -0.0029359232 0.00048684573
0.029999999 0.00081286934 0.00070121553
0.010596068 -0.0022015397 0.0020167427
-0.0014431123 -0.0015 0.00085454696
0.015407597 -0.0029322691 0.00051460753
0.029120756 -0.0029631134 -0.00028025827
0.016686676 -0.00051812653 -0.0029318063
-0.0019999999 -0.0012492 -0.0011925263
0.029149182 -0.0029218574 -0.00059371622
0.0032290244 -0.00066593813 -0.0029123519
0.022141324 -0.0029413491 0.00044561998
-0.0019999999 -0.002025241 0.0011974488
0.0089272438 0.0028781386 -0.00082396413
0.017302847 -0.0012340377 -0.0027082711
0.0009988338 -0.0020465082 -0.0021786969
0.018908523 -0.0016763256 0.0024627838
0.014348093 -0.002103203 0.0021351883
0.029999999 0.001349612 0.00034709182
0.0021252856 -0.0025116892 0.0016125984
0.015404851 -0.0026589322 0.0013531463
0.018004864 -0.0029572675 0.00032467535
0.016391881 0.0029131668 -0.00065974676
0.027007855 -0.0029611846 0.00029491278
0.016723748 0.00072083256 -0.0029051269
0.007224442 -0.0019086788 0.0022844707
0.027653532 -0.0028981315 0.00077398284
-0.0019999999 -0.002091845 -0.0011333904
0.0082150036 0.002942954 -0.0004334276
0.015510022 -0.0014975033 -0.0025991339
-0.0015622285 -0.0015 -0.00022672258
0.029518601 0.0027751683 0.00070454349
-0.0019999999 0.0040793247 0.00014218708
0.015688872 -0.00095929648 0.0028220792
0.020933507 -0.0027756807 -0.0010713058
0.0032031694 0.0025750683 0.0015300119
0.028585339 -0.00044341935 -0.0029416389
0.0084214676 0.0012082799 -0.0027189413
0 -0.0033675428 0.00044525941
0.022756763 -0.00017653225 -0.0029767656
0.018071076 0.0022353865 0.0019726385
0.018059982 0.00012559466 0.0029834695
0.0038872932 -0.0027122484 -0.0012244364
0.01826519 0.0029953748 3.5141857e-05
0.017435001 -0.0014016621 -0.002638835
0.00054739596 0.0024743113 0.001661305
0.019138405 0.0015920009 0.0025274965
0.0076402319 0.00023244614 0.0029694063
0.0067426083 0.00064524391 -0.0029150755
0.0064379047 0.00051894656 -0.0029316985
0.021912623 0.00063872902 -0.0029159328
0.025704471 0.0014447767 0.0026209757
-0.0018578788 0.00023389641 -0.0044113351
-0.0011525609 -0.0012913336 0.000986484
0.024324879 -0.0026929327 0.0012710661
0.0051737633 0.0029159102 -0.00063890277
-0.001871677 4.2067248e-05 0.0017078103
0.0072944723 0.0011441755 -0.0027454954
0.02268468 -0.0001453967 -0.0029808634
-0.0019999999 0.0017261239 0.00019996533
0.0060551888 -0.00034632208 0.0029544185
0.001360826 0.0012806336 0.0026889695
-0.00054815668 0.0037925225 -0.0023862976
0.01966951 0.0019779562 0.0022313057
0.025601139 -0.00060614548 -0.0029202215
-0.0019999999 -0.002675524 0.0023623109
0.02377693 0.0021675802 0.0020609943
-0.0014921986 0.0039866865 0.0020337461
0.010480812 -0.0023977228 -0.0017611037
0.018867556 0.0012686504 -0.0026939337
0.013927081 -0.0021612744 0.0020692109
0.024411298 -0.00027176278 -0.0029642317
0.029999999 0.00055851921 0.001736401
-0.0019999999 2.6475907e-05 -0.0022987938
0.024381243 -0.00078496122 -0.0028942951
0.023453923 0.0021705246 -0.0020571575
-8.4490712e-05 -0.0015765548 -0.0037301683
0.010622892 -0.0029325779 0.0005122638
0.025996419 -0.0029286831 -0.00054185546
0.0055012819 -0.002097988 -0.0021391904
0.011105101 -0.0026570477 -0.0013576961
0.027183047 0.0027817723 0.0010566004
0.017797081 -0.0017984034 -0.0023690984
0.01417111 0.0021436093 -0.0020922294
0.027716102 0.0025948647 0.0015042161
0 -0.0022954317 0.0022229149
0.0057408693 -0.0023408642 -0.0018351944
0.027676949 0.0029411714 -0.00044697072
0.028214308 0.0028593021 -0.0008694373
0.027064441 0.00026263422 0.0029654333
0.022178974 0.0028781292 0.00082398712
0.014501042 0.0016313897 -0.0024972686
0.00094447378 -0.0022836623 -0.0019097317
-0.00045540329 -0.0037472316 0.0023726816
0.023695135 -0.0029193268 -0.0006129439
0.016560329 -0.0015480319 -0.0025612393
0.0023250084 0.0017690937 -0.0023915917
0.0025782664 0.0010707072 0.0027759287
0 -0.0013685501 -0.0032228602
0.0192865 0.0029702149 0.00022630124
0.027916247 0.0029534441 -0.00035372411
0.01768392 0.002080552 0.0021525712
-0.00063838583 -0.00013586097 -0.0016536538
0.01285015 0.00036969184 0.0029513426
0.029433377 0.0025373609 0.0015028043
0 0.0024544855 0.0022669954
0.0095546041 0.002898759 -0.00076921325
0.0040625203 -0.0020389166 0.0021845233
0.0016209782 0.0029391248 0.00046252212
0.0074216598 -0.0025985423 0.0014989328
0.028076338 -7.0282981e-06 0.002999075
0.018052692 0.001820425 0.0023521988
0.028530328 -0.0015303991 0.0025747712
-0.0018943885 -0.0041231862 0.0014597247
0.024540227 -0.0022757144 0.0019200883
0.01009293 -0.0016356147 0.0024940262
-0.0012024093 -0.0040019732 -0.0019968438
0.029177919 -0.0026541799 -0.001364619
0.019429278 -0.0024245044 0.0017262057
-0.00057519262 0.0043773497 0.00093184225
0.02932208 0.00084169948 -0.0028707923
0.016581822 0.001816337 -0.0023553357
0.029999999 0.0020810745 0.00041872924
0.019406604 0.0029523594 0.0003619687
0.011754705 -0.0022054797 0.0020116088
-0.00079008681 -0.0018832128 -0.0040490469
0.0045163035 -0.0029937399 4.7563266e-05
0.016936978 0.00079208025 -0.0028913461
0.0056901802 0.002053706 -0.0021731732
-0.00096137862 8.7499902e-05 -0.0016815778
0.0043169344 -0.00094257586 -0.0028290055
0.0065898388 -0.0024948532 -0.0016345374
0.016703133 0.00065124995 -0.0029142851
0.026669912 0.00084543863 -0.0028692435
0.022616575 0.0029448511 0.00041901393
0.0015049152 0.00078808633 -0.0028930008
0.016341198 0.0026747449 0.0013149731
0.024471441 0.0029353199 0.00049143092
0.029999999 -0.00047324187 6.6054825e-05
0.020080838 0.002858253 0.00087197032
0.0024024104 0.0021845573 -0.0020388719
-0.00072124705 -0.003393593 -0.0029062284
0.013491816 -0.0026853592 -0.0012893497
0.021582795 0.0012311519 0.0027094665
-0.00025252547 0.0039767213 0.0014166809
0.020060765 -0.0001036996 -0.0029863517
0.027294477 -0.0023430793 0.0018323081
0.010822642 0.0017094436 -0.0024373683
-0.00034448772 -0.0042580152 -0.00065697863
-0.00049999997 9.7626456e-05 -0.00099478732
0.012751393 -0.0029240942 0.00057672191
0.02609393 -0.0017698809 -0.002390987
0.0028424156 -0.0018690352 0.002314894
0.026205271 0.0022870414 -0.0019053288
0.028448673 0.0027280597 0.0011862671
0.020386951 -0.00022725193 -0.0029700901
0.022158328 -0.00019849143 0.0029738757
0.010388471 -0.002514719 0.0016086504
-0.0019999999 -0.0033432508 0.0020779511
0.011269337 0.00081820349 -0.0028805251
0.019566577 -0.00064655481 -0.002914903
0.011175372 -0.0028216543 0.00096032256
0.0025647916 -0.00042104337 -0.0029445838
0.0040426627 0.0004237463 0.002944228
-0.0019999999 0.00043679663 0.001806632
0.02951253 0.0025261194 -0.0013472597
-0.0019999999 -0.00094736193 0.0036380345
0.027499463 0.00020101904 0.0029735428
-0.0019999999 -0.0020211039 -0.0024158908
0.012140693 0.0017258638 0.0024247672
0.026686262 0.0029589476 0.00031191044
0.0051575419 -0.0026890717 0.0012803875
0.029155286 0.0029309744 0.00052444672
0.0033826758 -0.0028267629 0.00094798981
-0.0019999999 0.0028904837 -0.0014047478
0.029466016 0.0017322503 -0.0023204891
0.011507457 0.0014076596 -0.0026363507
0.020332644 0.00053770811 0.0029292291
-0.00019894456 0.0034753538 0.0023093487
0.0102087 0.0027078767 0.0012349902
0.0077287322 0.0020606746 0.0021678256
-0.0019999999 -0.0036368014 0.001921164
0.017257022 0.0028646041 0.00085663766
0 0.0013065719 -0.003532998
0.0043446319 0.0024666029 -0.0016713487
-0.0009002125 -0.0043797828 -0.00091335713
0.017005082 0.0027980427 -0.0010173225
0.017432947 -0.00086488557 0.0028611878
0.02760862 -0.0014295932 0.0026272652
-0.0018040291 0.0041528768 -0.0016221383
0.010185989 0.0027137802 -0.0012207394
0.029999999 -0.0010867622 0.0016773941
0.025287976 0.0019892352 -0.0022226498
0 -0.0028786971 -0.0011214002
0.029495085 0.0026930158 0.00098955375
-0.0019999999 0.0029167053 0.00029855268
0.016398581 -0.0022700781 -0.0019274333
-0.0019999999 -0.0021393066 0.00058194739
0.029954707 -0.0017207089 0.0017179849
0.0079084057 0.0028999683 0.00076002756
0 0.0038983494 -0.00035553725
0.025756231 -0.00076121319 -0.0028998121
0.0092816008 -0.00083654682 0.0028729266
0.015612247 0.0021238974 0.0021179155
0.016619369 -0.0010260621 -0.0027944222
-0.00084890518 0.0044215233 -0.00059622974
-0.0010839953 8.0834703e-05 -0.0016854262
0.0079855751 0.0029019476 0.00074498681
0.010588034 0.0028528019 0.0008851295
0.0082029365 0.0020349803 0.0021875438
0.027304832 -0.0026510877 0.0013720837
0.010196795 0.0028885887 0.00079873652
0.026391191 0.00084177195 0.002870762
-0.0019999999 0.003249537 0.001229679
0.027673284 -0.0029882807 -8.9042209e-05
0.0077369525 0.00067232968 -0.0029115106
-0.0016269822 0.00059751252 0.0013870964
0.0081597688 0.0020097953 -0.0022068713
0.029652439 0.0027258967 6.2017913e-05
0.028949071 -0.00053833774 0.0029291462
0.0067230635 -0.0029784183 0.0001639735
-0.001470206 -0.003267298 -0.0030708304
0.021108629 -0.0016785281 -0.0024610935
0.029038301 -0.0029354263 -0.00049062102
0.0044992957 -0.0020244794 0.0021956025
0.0085043767 -0.0028053042 0.00099979248
-0.0016204173 0.0012864537 -0.0042962618
-0.0019999999 -0.0034178111 0.0014256863
0 -0.00033866148 0.0032027608
0.019671844 -0.0021616276 -0.0020687508
0.021289101 -0.001364704 -0.0026541445
0.013325805 -0.0018206509 0.0023520254
0.00024349126 -0.0029791705 -0.00015826158
0.022094481 -0.0029740238 -0.0001973644
0.02927169 -0.0026215494 -0.0014433914
0.017607177 -0.0016724848 0.0024657312
0.017323667 0.0029575345 -0.00032264751
0.028041666 0.0029386284 0.00046629488
0.022619989 0.0024582047 -0.0016822921
0.019983094 -0.0029395444 -0.00045933336
0.0017736924 0.00045226645 0.0029404745
0.012628306 -0.0021911585 -0.0020302706
0.0011985236 -0.00020365549 -0.0029731956
0.0087050721 0.0029181431 -0.00062193646
0.022690834 0.0012681599 0.0026941367
0.012105259 -0.00021330411 0.0029719258
0.0082952594 0.0021734573 -0.0020533362
-0.0010042125 0.0033275534 0.0029922982
-0.00049999997 0.0011057178 -0.00021488093
0.010584746 0.00022958542 -0.0029697833
0.0097475722 -0.002961861 -0.00028977546
-0.0019999999 -0.0037327458 -0.00030776954
0.0019318786 -0.00050247269 -0.0029338666
0.0077629695 -0.0026230533 0.0014397602
-0.00098760228 0.00039550447 -0.0044479435
0.029999997 -0.0014547642 0.00093616999
0.028397674 0.0018909691 -0.0022980615
-0.0019999999 -0.002613323 -0.0017798792
0.025935816 -0.0029129589 0.00066132733
0.008072434 -0.0029457114 0.00041247858
0.019631987 -0.00084512902 -0.0028693713
0.010943603 5.3014493e-05 -0.0029930226
0.020681262 0.0026118632 0.0014667744
0.019434579 -0.00270627 0.0012388693
0.0251738 0.0011851308 0.0027285302
-0.0010551225 0.0035329286 0.0027246301
0.029871993 -0.0022796728 -0.0010109398
0.027475344 -0.0029403365 -0.00045331556
0 0.0021618076 -0.00218151
0.020210939 0.0011186167 0.0027560829
-0.00057799509 -0.004480924 -0.00014493117
0.0028545032 0.0010711341 0.0027757518
0.028035663 0.0029973374 2.0231571e-05
0.020191912 0.00054710498 -0.002927992
0.0032108903 0.00066264177 0.0029127856
0.012494873 0.0029997821 -1.656847e-06
0 -0.0035906041 -0.00048248193
0.015928514 -0.0015747556 -0.0025407311
0.011490515 0.0016727872 -0.0024654991
-0.00030059568 -0.0019751629 -0.0037969607
0 0.0019792884 0.0029309904
-0.0011097805 -0.00042110408 -0.0014889545
0.0063436781 0.00043108274 0.0029432625
0.010757078 0.0021405644 -0.0020961978
0.0044714757 0.0019515109 -0.0022516004
-0.0019999999 -0.0033319802 -0.0019328715
-0.0011223988 -0.0038433881 0.0023200039
-0.0019999999 -0.001818129 0.0011277333
0.028180983 -0.00050604891 -0.002933396
0.017301923 0.0024544136 0.0016872325
0.028875353 0.0027679459 -0.001089978
0.000131212 -0.0018175213 -0.002354427
0.014507738 0.001771189 0.0023899833
0.0067919972 0.0011086855 -0.0027601968
0.021112198 0.0021511342 -0.0020824245
0.020238934 -0.00026029677 -0.0029657409
0.012000738 -0.0028242541 -0.00095404591
0.030000001 0.001794643 -0.00023015047
-6.7724613e-05 -0.00042378769 -0.0040119323
0.022067573 0.00080921181 -0.0028842499
0.023891179 -0.002971035 -0.00022007361
0.025967296 -0.0029528223 0.00035844865
-0.0019999999 -0.0027485397 -0.0017055019
-0.00049999997 -0.00083513994 0.0010381349
-0.0010897606 -0.0036182057 -0.0026134874
0.00061203074 0.0020913619 -0.0021442755
0.011956776 0.00058347685 -0.002923205
0.026252339 -0.0029803757 -0.00014910399
0.019346915 0.0024350889 -0.0017124139
0.028694492 -0.0018266073 -0.002347454
0.002255399 -0.0027203213 -0.0012049483
-0.00031533602 0.0026110755 -0.0033892931
0 -0.0016831985 0.0029664335
-0.0014756607 -0.0017944769 -0.0040858071
-0.0010816216 -0.0040509934 0.0018785148
0.024206754 -0.00058741361 0.002922687
0.0023408514 0.00057034718 0.0029249333
0.010369437 0.0018784644 -0.0023076581
0.018722268 0.0029570854 -0.00032606139
0.024749221 -0.0025718228 0.0015342408
0.0056380504 -0.0027774624 0.0010670045
0.029999999 0.00011776327 -0.0011437126
0.024294179 0.0011768581 -0.002731957
0.010934676 0.0029426366 0.00043583947
0.001733916 -0.0025277573 -0.0015916607
0.027195191 -0.001819234 0.0023531129
0 -0.0022082438 -0.003303691
0.021367356 -0.0017168456 0.0024316879
0.010336926 -0.00065352576 0.0029139856
0.0076544536 -0.00073564542 -0.0029031772
0.010349592 -0.0012345744 0.002708049
0.008605754 0.002450356 -0.0016925194
0.017431205 0.00015688536 -0.0029793517
0 -0.00061972125 0.0034473441
-0.0019999999 -0.0039326772 -0.001453286
-0.00049999997 0.00090762036 -0.00028611897
0.0050157802 0.0010590935 0.0027807397
0.018978814 0.0014593585 0.0026149354
0.0085158935 -0.0016858449 -0.0024554785
-0.0019015437 -0.0028734352 0.0032918698
-0.0015934844 0.00027962838 0.0015706427
0.029537143 -0.0022320212 -0.0017317045
0.015884325 -0.0024142032 -0.0017396291
0.012513665 0.000980185 0.0028134263
0.02254873 -0.00020118852 0.0029735204
0.025826311 0.00090525369 0.0028444657
0.00065470778 -0.0023838398 0.0017791946
0.015094534 0.0024437034 0.0017011887
0.00095113501 -0.00015303124 0.0029798588
0.018865142 0.0027856922 -0.0010471378
-0.0014374721 -0.0029884968 0.0033304703
0.013354773 0.00049728859 0.0029345488
0.028345054 -0.0014791951 -0.0026067181
0.02129177 -0.0023604666 0.0018096513
0.0064891092 -0.0024550566 -0.0016863948
0.0014311323 0.0029733791 -0.00020226139
0.013254624 0.0012215059 -0.0027134626
0.0068815211 -0.00075857056 0.0029001599
-0.0019999999 0.0029432727 -0.0029379493
0.0015253371 0.002463409 0.0016755111
0.029678265 -0.0025126128 -0.000950491
0.024138281 -0.0013547828 -0.0026582542
-0.0013911418 -0.00074253918 0.0013033579
-0.0004513817 -0.0016526736 0.0040923767
0.0090723261 0.0028993736 -0.00076454441
0.029999999 -0.00095550588 -0.00036316892
0.015670301 0.0010444189 -0.0027868187
0.0056161205 -0.0029067241 -0.00070869701
0.0049750577 -0.0029868686 9.9771794e-05
0.0086846603 -0.00214676 0.0020881239
0.027994493 -0.00056532351 -0.0029255946
0.018962329 -0.0018130916 -0.0023578263
0.0059332275 0.0021429406 -0.0020931012
0.029999999 5.8400605e-05 0.0013715272
-8.4638617e-05 -0.0029305893 0.0028330833
0.019979212 -0.0028790447 0.00082177715
0.00068862172 -0.0015684764 0.00254555
-0.00036681216 -0.0013347252 -0.0041333265
-0.00089554209 -0.0038028385 -0.0023728528
0.0075313295 -0.0023602624 0.0018099172
0.027078934 0.0023319439 0.0018468183
6.0129707e-05 0.0014182142 0.0026319788
0.022409204 0.0029949525 -3.8350154e-05
-0.0019999999 0.00033236868 0.001559718
0.029580381 0.0023765003 -0.0014730134
0.029392742 0.0015351134 0.0025633511
0.029999999 -0.00022231672 -0.00066211255
-0.00079991849 0.0041648163 0.0016037532
0.01682687 0.0025478802 -0.0015654396
0.014943859 0.00036375012 0.0029521247
-0.0015700177 -0.00084408285 -0.0012447267
0.019320415 -0.002908576 0.00069462636
0.021875117 -0.0025465719 -0.0015671448
0.02222346 -0.00083386735 0.0028740363
-0.00080541306 0.0032689006 0.0030687414
-0.0019999999 -0.0022398022 -0.0022852523
0.019051181 0.0029025176 -0.00074065744
0.013539589 0.001598804 -0.0025222756
0.017465767 0.0011755791 0.0027324869
-0.00036897286 0.00059609406 -0.0042905058
0.015686397 0.0023184118 -0.001864451
0.0039462582 0.0010697101 0.002776342
0.010921074 -0.0022763375 -0.0019192765
0.01188751 0.0028645564 -0.00085675251
0.00010644828 0.002549665 0.0015631141
0.025016179 0.0026503769 -0.0013737992
0.027127303 -0.0021480185 -0.0020864846
0.015427345 0.00072547863 -0.0029045155
0.029999999 0.0011774671 0.00081617507
0.00016788815 0.0028061594 0.00099772867
0.0017725101 -0.0029543715 0.00034667889
0.017471196 -0.0019384924 0.0022615911
-0.00049999997 -0.0013655117 0.00042204125
0.017460318 -0.0028627226 -0.00086118019
0.013332807 0.0028970877 -0.00077821926
-0.0019999999 0.0015803098 -2.8885463e-05
0.01771028 0.0026648841 0.0013387785
0.02270088 -0.00229815 0.0018908537
-0.0019999999 -0.0033343288 -0.00069260102
0.012452651 0.00063294906 -0.0029166939
0.015467775 0.0029804991 0.00014816722
0.0053148959 -0.0027043337 -0.0012435437
0.0030265551 0.0022906626 -0.0019006103
0.026039042 -0.0029640952 -0.0002727992
-0.0019999999 -0.0028780506 -0.00055031816
0.010443576 -0.0023258836 0.0018547148
-0.00082723465 0.0015 0.00048453524
0.021172212 -0.0019674385 0.0022393772
0.009607709 0.00010244218 -0.002986517
0.029418431 0.00057617651 0.0028922362
3.1246291e-05 0.0018011695 -0.0023669759
0.0098312367 0.0016312953 0.0024973408
0.020371104 0.0012984651 -0.0026815834
0.023992131 0.0024565535 0.0016844437
0.019403134 -0.0014382661 0.0026236726
0.025660485 -0.0029766404 -0.00017748612
0.012365794 -0.0019639488 -0.002242055
0.026617758 -0.0014900325 0.0026022289
0.0027470461 -0.0028871142 0.00080229674
0.027702054 0.002958369 0.00031630765
-0.00072251138 -0.00025959173 0.0015822118
0.013376107 0.0016621979 -0.0024736258
-0.0019999999 -0.0042061671 0.00071023841
0.01327739 0.0029592153 -0.00030987657
0.0036525403 -0.00023468411 0.002969112
0.025912737 0.002940105 0.0004550739
0.023937674 0.0014522534 0.0026178786
-0.0019999999 0.0020217418 0.001158888
0.0004909113 0.0022087716 -0.0020073194
0.020737678 0.0015644582 -0.0025486334
0.021703633 -0.0012710745 -0.0026929295
0.012423167 -0.0029167205 -0.00063274568
-0.0019999999 -0.00091472582 -0.0026104092
-0.0019999999 -0.00056522741 -0.0029518055
0 -0.0032597459 -0.002164738
0.021905322 -7.4786811e-05 0.0029901571
0 0.0022678017 0.0028206112
0.020795828 -0.0027824731 0.0010549084
0.027495388 0.0016462191 -0.0024858883
-0.0019999999 -0.0026778602 -0.0031899721
0.0056829415 -0.0010800913 0.0027720414
0.0087431893 0.00037646035 -0.0029504518
0.013327416 -0.0025900409 0.0015105015
0.011708586 0.0013661673 0.0026535382
-0.001431027 -0.0031874378 0.0031749133
0.0067486349 -0.00082627957 0.0028771795
-0.00068220659 -0.0030615851 -0.0032743914
0.009524079 0.0029720678 -0.00021222493
0.027054381 -0.00049190287 -0.0029352575
0.0094316555 -0.0022900777 0.0019013723
0.0019228949 0.0010271864 0.0027939565
0.0069432864 -0.0029813403 -0.00014177359
0.020885712 0.0027847749 0.0010493519
0 0.0031690726 0.0011280215
0.026412698 -0.0021502525 0.002083573
0.014330947 -0.0023475233 0.0018265169
0.029229088 0.00079413306 0.0028904958
0.015758408 0.0021349411 0.0021035254
0.0048872568 0.00094272976 0.0028289414
0.017162437 -0.0013149111 0.0026747705
0.024212586 -0.0022732432 0.0019233095
0 -0.0010973295 -0.0033525757
0.015566387 0.0029966929 2.512935e-05
0.020298336 0.00030063521 0.0029604316
-0.0016896627 0.0040524583 -0.0018749764
-0.0019999999 -0.00029518738 -0.0020694495
-0.0019999999 0.0020310846 0.002619422
-0.0019999999 0.0022165999 0.0033817189
-0.00062840147 -0.0015 0.00025906262
0.0078009488 -0.0018553794 0.0023253737
0.0018203432 0.00082734082 -0.0028767402
0.017284678 0.0029613904 0.00029335156
-0.0019999999 -0.0021087392 0.0013716043
0.029999999 0.0019577383 0.00028631435
0.0080488967 -0.0029459195 -0.00041089614
-0.00087578839 0.0015 0.00042662024
0.023362752 -0.0028245798 -0.00095325999
0.0093901334 0.0022365719 0.0019710939
0.02002993 -0.00019151432 -0.0029747935
-0.0019999999 -0.00030763412 0.0019125619
0.015311326 -0.0017347601 0.0024179397
0.0090094237 0.00027066248 0.0029643767
0.012910176 0.0022605564 0.0019398408
0.0068079042 -0.000662242 0.0029128382
0.021223743 0.0017597972 -0.0023987258
-0.00099818339 0.00094487396 0.0011865298
0.0038885421 0.0023151175 -0.001868744
0.00037861979 0.0028849565 0.00080750592
0.0076920716 0.0015849732 0.0025328898
0.01154024 -0.0026364895 0.0014073248
0.017568192 0.0018486446 0.0023305423
-0.0019999999 -0.0026933649 -0.0017214227
0.0041461736 0.0029035567 -0.00073276227
0.01975072 0.0028333426 0.00093210547
0.024434635 0.0029995604 -3.3409003e-06
0.015389566 0.0004185857 0.0029449074
0.026497014 0.0024303114 0.001718639
0.018349228 -0.0018357683 -0.0023404236
0.0073394626 -0.0010803837 -0.0027719203
0.023676738 0.0016509691 -0.0024822431
0.022852549 -0.0029556262 -0.00033714582
0.011973701 -0.0021497116 -0.002084278
0.023340479 0.0023277388 0.0018522973
0.0086080255 0.0011190455 0.0027559053
0.0088816863 0.002752031 -0.0011283978
0.002946764 -2.587883e-05 -0.0029965942
0.024334325 -0.00089008914 -0.0028507474
0.019952035 -0.0021940561 0.0020264944
0 0.0034315211 -0.0012259652
0.012587175 -0.0029561797 -0.00033294066
0.0089468854 0.00073667936 -0.0029030412
0.022193931 0.0026741459 0.0013164199
0.029999999 0.0021067555 0.00081309158
0.025689773 -0.0009609242 -0.0028214047
0.02685581 -0.0025562176 0.0015545757
0.0034127748 0.0022652231 0.0019337591
0.0081457766 0.0027202899 0.0012050243
0.0002321288 0.0017899672 0.0023755727
-0.00098826259 -0.0036318507 -0.0025957038
0.021449419 -0.0029855985 -0.00010942233
0.024775228 -0.0029725782 -0.00020834808
0.0043533584 0.0024346032 -0.0017130463
0.01480453 -0.0029900863 -7.5323551e-05
-0.0014573355 -0.0044306288 -0.00052705244
