# .PCD v0.7 - Point Cloud Data file format
VERSION 0.7
FIELDS x y z
SIZE 4 4 4
TYPE F F F
COUNT 1 1 1
WIDTH 1000
HEIGHT 1
VIEWPOINT 0 0 0 1 0 0 0
POINTS 1000
DATA ascii
0.018454697 -0.0028569766 -0.00087505049
0.028058298 -0.0029216965 -0.00059493858
0.010784225 0.0029873773 -9.5907788e-05
0.009082214 0.0001991161 0.0029737931
0.0083304849 0.0029012982 0.00074992172
0.02276268 -0.001625928 -0.00250146
0 0.0028896602 0.0012453394
0.018500337 0.0022633416 -0.0019362115
0 -0.0017373186 -0.0031792934
0.006426163 0.00077608239 -0.0028978551
0.0024675638 0.0010332223 0.0027914566
0.018224278 0.0028374013 -0.0009223079
0.020908276 0.0014900834 0.0026022077
0.0080586029 -0.0029829338 0.00012966781
0.021525372 0.0028810797 0.00081686524
0.0051143896 0.0029896509 7.8632285e-05
0.030000001 0.00034444273 0.0022718471
0.030000001 0.00069844181 -0.0011970142
-0.0019181343 -0.003476185 -0.0026061847
-0.0020000001 0.0014948407 0.0014075354
-0.0019778116 0.00094944483 -0.001355482
0.015175098 -0.0028265717 -0.00094845158
0.0037637514 0.0029412382 0.00044646318
0.007960408 -0.0016860958 0.002455286
0.0029819764 0.0025815626 0.0015215492
0.017814672 -0.0027380025 0.0011622643
0.017358864 -0.0017516142 0.0024050055
-0.0013624249 0.0017983473 -0.0040842039
0.0038672453 -0.0027255479 -0.0011923313
0.011992269 -0.0018687738 -0.0023150947
0.021660019 -0.00094490999 -0.0028280385
0.0099034524 -0.0023060192 -0.0018805994
0.011237221 0.0028686225 0.00084693677
0.01337967 -0.0016897355 -0.0024524929
0.00536031 -0.00080599484 -0.0028855824
0.016020911 -0.0022163382 -0.0019974594
0.013807237 -0.0014179182 0.0026321015
0.014181058 0.0027984811 -0.0010162637
0.02253579 0.0011567574 -0.0027402837
0.017284146 0.0026096031 0.0014722312
0.01895221 0.00013660014 -0.0029820213
0.0021202958 -0.0028985823 0.00077055709
0.015747501 -0.0023029502 0.0018845985
0.013448276 0.002940356 0.00045316937
0.014858368 -0.00045111348 0.0029406263
0.018977087 -0.0028758748 0.00082942977
0 -0.0034232044 -0.0015059939
0.02616415 -0.0013341792 -0.0026667891
0.014988243 0.0010593092 -0.0027806503
0.0055750259 -0.0028898846 0.00079560844
0.026992084 -0.0015797579 0.0025368922
-0.00050000002 -4.4066102e-05 0.0010818839
0.030000001 0.0014128557 0.00072155608
-0.0019514357 -0.0042275265 -0.00091951515
-0.0020000001 0.0013588747 -0.0025035283
0.0016640231 0.0015735396 -0.0025416643
0.02987583 -0.00017575863 -0.0024875416
0.030000001 0.0020823725 -0.00044333833
0.01690598 -0.00050051627 0.0029341241
0.0063698567 0.0028844706 0.00080867816
0.016730132 0.0029737649 0.00019933267
0.0050224978 0.0024772207 0.0016575133
-0.0016312943 0.00085628091 0.0043872949
0.02665465 -0.00018668135 -0.0029754299
0.028561031 -0.0029189514 0.00061579433
0.0045636846 -0.0029067099 0.000708804
0.028835559 -0.0021634432 -0.002066385
0.029416896 -0.0028637673 0.00077991287
0.0086641526 -0.0017550184 0.0024023931
0.0021332754 -0.0026152306 -0.0014586453
0.020173648 -0.0018118676 0.0023587658
0.012583213 0.0020200473 -0.0021990042
0.016297959 0.0029469656 -0.00040294949
0.01548894 -0.0013806315 0.0026475468
0.00042229524 0.0012899044 0.0026851292
0.026563257 0.00065854739 0.0029133249
0.0080253314 0.0019782558 0.0022310754
0.01234357 0.0021634188 0.0020664167
0.028810274 0.0021484045 0.0020859819
0.029869018 -5.3850104e-05 0.0025103954
-0.00140343 -0.0034215008 0.0028698551
0.0091156205 0.0028510026 -0.00088947266
0.023446042 -0.0014142923 0.0026336033
0.0052620545 -0.0024562643 0.001684821
-0.00071834581 0.0044341311 0.00050044502
0.0042661233 -0.0010846215 0.0027701647
0.016171958 -0.0028871419 0.00080223003
0.023276668 -0.0022127673 0.002002113
0.027120234 0.00022988026 0.0029697444
0.0073266705 -0.0022031539 -0.0020146396
0.021906171 0.00046693478 -0.0029385439
0.0053945035 -0.00032561549 0.0029571436
0.013605665 -0.0029632093 0.00027953123
0.00033499734 0.0014943212 -0.0026004524
0.0031841823 -0.0027252499 -0.0011930495
0.002946737 0.0025881352 0.0015129853
0.0048162322 -0.0029249017 0.00057058665
0.015289952 -0.0023027025 0.0018849213
0.001257112 -0.00090307958 -0.0028453665
0.0032068251 0.0018033414 -0.0023653088
0.026860591 0.0028831984 -0.00081174937
0.020596543 -0.0022615779 -0.0019385093
0 -0.0036545633 0.0012566919
-0.00063371728 0.0015109896 0.0042032455
0.026526133 0.0011668237 0.0027361137
0.025900912 -0.0021914062 0.0020299477
0.012103079 -0.00099230011 0.0028084079
0.026632927 -0.0027712828 0.0010819229
0.027971903 0.0010284388 0.0027934378
0.013779204 0.0029560458 0.00033395836
0.02560449 -0.001631262 -0.0024973666
-0.00094351178 -0.0012716783 -0.00079740543
0.014863087 0.0028413618 0.00091274647
0.01878763 0.0023067193 -0.0018796872
0.0057452964 0.0002271355 -0.0029701055
0.012469833 0.0026138255 -0.0014620376
0.012808604 0.002582219 0.0015206939
0.023704655 0.0025082862 -0.001617033
0.017732535 0.0015288191 0.0025759838
0.0082422085 -0.0010876227 0.0027689217
0.010201833 8.6208973e-05 0.0029886535
0.024650967 0.0027462402 0.0011423781
0.0059020324 -0.0028941701 0.00078526273
0.0053342395 0.002994624 -4.0846557e-05
0.027225334 0.0026028766 0.0014884688
0.013461348 -0.0029509666 0.00037254908
0.0044338172 -0.0025781961 -0.0015259362
0.00019951981 0.0022596235 0.0019410561
0.0091568464 0.0018700404 -0.0023141229
0.020114172 9.3813032e-05 -0.002987653
0.024838854 0.0028410458 -0.00091350969
-0.00050000002 0.00095638563 1.8186634e-05
0.011414732 0.0020490228 0.0021767674
0.019244485 0.0021888276 0.0020333074
0.016657494 -0.00021125319 0.0029721959
0.014980114 0.0029541759 0.00034816648
0.017276542 0.0015999223 0.0025214173
-0.0012035577 -0.00049659581 0.0015
0.004493481 0.0020659661 -0.002163765
0.0011429113 0.00012660943 -0.0029833366
0.015432062 0.0015511082 0.0025588786
0.011823473 0.0027554152 -0.0011202289
0.02981123 0.0025673637 -6.008803e-05
-0.0020000001 -0.0025016968 0.00021461678
0.0025158634 -0.0010423048 0.0027876941
0.024318464 0.0017764755 -0.0023859264
0.024131093 0.00063777331 -0.0029160588
0.024109432 -0.002763652 0.001100344
0.010026872 0.0029133528 -0.00065833336
-0.0014489519 0.0042959214 0.0012872767
0.02583823 5.8110112e-05 0.002992352
-0.0013289561 0.0016064132 0.00021767744
0.018782692 0.0025056077 -0.0016205234
0.024756836 -0.0016067129 -0.0025162061
0.012973398 -0.0025037986 0.0016228808
-0.0020000001 0.0032250632 0.0021072074
0.0058279 -0.0012207308 0.0027137834
0.016673638 0.0027784572 0.0010646031
0.024193719 -0.0029287224 -0.00054155593
-0.0020000001 -0.0013412541 0.0037501357
0.022457611 0.0013457057 -0.0026620144
0.029380873 -0.00075044989 0.0029012288
0.024206884 0.0027513783 -0.0011299736
0.016878715 -0.0025288253 -0.0015902693
0.0018350396 -0.0019193492 0.0022762818
0.0017410923 0.0029157086 -0.00064043474
0 -0.0010180495 -0.0029279771
-0.0017361421 -0.0033119512 0.0030126334
0.0079303123 0.0028499314 0.00089205906
0.0058305929 0.00066750078 0.0029121463
0.016698124 0.002098056 -0.0021391381
0.0087236548 -0.0012188962 -0.0027145434
0.0031082362 -0.00097327284 -0.0028162897
0.0055634724 -0.0007735414 0.0028981895
0.012645442 -0.0011396382 -0.0027473751
0.005918276 -0.00062725245 0.0029174434
0.0031861635 -0.0029328254 0.00051038148
0.026020953 -0.0010036958 0.0028036872
0.023861749 -0.0029049439 -0.0007222225
0.010513077 -0.0019664692 0.0022401209
0.0057746437 -0.00048859965 0.0029356924
0 -0.0013707587 0.0029081784
0.0082333088 -0.0025406496 0.0015748618
0.01952349 0.00090038887 0.002846481
0.022914818 0.00080608012 0.0028855468
-0.0018722072 0.0043969085 0.00023464757
0 0.00098383694 0.0031953217
0.025503853 0.0026092823 0.0014730048
0.013947799 -7.6379831e-05 0.0029899476
0.0090829721 0.002122893 0.0021192248
-0.0020000001 -0.0036045867 -0.00082270621
0.015521728 -0.00049066258 0.0029354212
0.0011462007 -0.0013177939 0.0026735766
0.012833308 0.0019114497 0.002282344
0.02649774 -0.00079522375 -0.0028900441
0.012414195 -0.0029726559 0.00020775759
0.028367475 0.0019293498 -0.002268607
0.0026562579 0.0020842592 0.002149726
0.025015516 0.0012661546 -0.0026949674
0.0014340592 -0.0029278279 0.00054835249
0.019814314 -0.0028996821 0.00076219899
0.017185181 0.0028225323 0.00095820311
0.016542627 -0.0013349218 0.0026664813
0.0076073916 0.0029804418 0.00014860003
0.0065000537 0.0019187604 -0.0022767338
0.014999949 0.00047459075 -0.0029375365
0.014080391 -0.0016429831 0.0024883715
0.022256987 -0.00069377356 0.0029086883
0.029697809 0.00037524808 0.0026393032
0.029941563 0.0023706402 -0.00056450535
-0.0016412534 -0.0020099955 0.003996525
0.017161412 -0.0013651651 -0.0026539536
0.0031808706 0.0017000067 0.0024446105
-0.00086229929 -0.00070565991 -0.0044071199
0.027598498 -0.0023096348 -0.0018758881
0.023852937 -0.002929504 0.00053561933
0.028005952 -0.0012469551 -0.0027029205
0.0044743326 -0.0014537169 0.0026172721
0.01638332 0.0011608982 -0.0027385685
-0.0013473743 0.0029874737 -0.0033312554
-0.00050000002 0.00010152168 -3.7977297e-05
-0.0020000001 0.0026834435 0.00068622018
0.0077272342 0.0020003472 0.0022141221
0.0063555315 4.2938387e-05 -0.0029943488
0.020346968 0.0028092624 0.00099023746
0.028114595 0.0027461618 -0.0011425671
-0.0010677135 -1.7657698e-05 0.0044976762
0.0094131911 0.002551453 0.0015607843
0.028339453 0.0029998964 7.8861615e-07
0.016213385 0.00088618917 0.0028523628
0.012566326 -0.0025679008 0.0015393515
0.028524995 -0.0017582341 0.0023999254
0.003047765 -0.0029724021 0.00020968575
0.020641945 -0.0021447169 0.0020907866
0.016404107 -0.0029442161 0.000423839
0.0080004465 0.0013327537 -0.0026673796
0.017732425 7.5184049e-05 -0.0029901045
-0.0019535082 4.9588027e-05 -0.0043399646
-0.00045894744 -0.0031705329 -0.0031300785
-0.00025444065 -0.0023882722 -0.0034841192
0.017311646 -0.00064395682 0.002915245
0.0028482119 0.0015414823 0.0025662656
-0.0013348539 -0.0004556081 0.0015
0.023852177 0.0018193338 -0.0023530361
0.02585423 0.00010019734 0.0029868125
-0.00078146986 0.0044304701 0.00052825821
0.018313035 0.0027642022 0.0010990163
0.024122644 -0.0017076154 0.0024387711
0.01243143 -0.002382017 0.0017815699
0.019180931 -0.0029480779 0.00039449846
-0.0020000001 0.0018225227 -0.00020475821
-0.001237087 -0.001575732 0.0041764248
-0.0018813038 -0.00032987376 0.0015
0.021433899 0.0021876721 -0.0020348134
-0.00018334926 -0.0030966934 -0.0027774137
-0.00083513226 -0.0039064232 -0.0022274945
0.029631931 0.0026634242 -0.00069251383
-0.0020000001 1.5728453e-06 0.0041005076
0.0046553123 0.0028049594 -0.0010006248
0.027814139 0.0012711703 0.0026928899
0.027820649 0.0012796569 -0.0026893741
-0.0020000001 -0.0012311854 -0.0030534705
-0.0014219868 -0.004248606 0.0014014917
-0.00060292974 -0.00047921584 -0.0015
0.0038137974 0.0016202959 0.0025057825
-0.0020000001 0.0025416848 -0.0019679472
0.029410731 -0.0026142837 0.0013981609
0.002901183 -0.0029005753 -0.00075541734
-4.6537327e-05 0.0031796887 -0.0024464121
0.0039925785 0.00018601071 -0.0029755179
0.00092989905 0.0013095645 -0.0026769857
0.0002788993 0.00065012526 -0.0029144331
0.016096208 0.0029828455 -0.00013034027
0.021686891 0.002506898 0.0016188421
-0.0018721045 -0.00077740586 0.0043255724
0.018511267 0.0029106641 0.00067876116
0.01787143 0.00072870433 -0.0029040908
0.00536269 0.0017686313 -0.0023919463
-0.00079265313 0.0044955849 -3.3547749e-05
0.026598155 0.00015189427 -0.0029800083
0.023268174 0.0027359505 0.0011672172
0 -0.0027477804 -0.0015924569
-0.0020000001 0.0031730966 -0.001415367
0.022733796 0.0016802677 0.0024597587
0.022132995 -0.0029154345 -0.00064251653
0.022029661 -0.0025924682 -0.001507339
-0.0011313076 0.00081341784 0.0015
0.021994924 0.0004836767 -0.0029363404
0.016120991 -0.001601357 0.0025203163
0.0027365598 0.0027128831 0.0012229041
0.026470173 -0.0018287437 -0.0023458146
0.011226508 0.0029547994 0.00034342709
0.01828876 -0.0029839256 -0.00012213
0.0023050967 -0.00094562437 -0.0028277426
0.017298046 -0.0026589402 0.0013531272
0.0085572693 -0.0012840071 0.002687572
-0.00075752963 -0.00090229034 0.0014371489
-0.00015958132 -0.00042728861 0.0041033393
0.025351776 0.0014144164 -0.0026335521
0.016780231 -0.00285495 0.0008799436
0.019838089 0.0029273026 -0.0005523446
0.0090316636 0.00014539191 -0.0029808639
-0.00026820533 0.0014875693 -0.0039641825
0.022560509 -0.0011591729 -0.0027392833
0.00095061312 -0.0029151607 0.00064459606
0.021562163 0.0028225766 -0.00095809548
0.024763681 -0.0023680236 -0.0017998043
0.0025729558 -0.0013765494 0.0026492379
0.024429619 -0.0029929392 5.3648106e-05
0.0094975932 -0.00086770748 0.0028600185
0.021245146 0.0026711673 -0.00132361
0.016954007 0.00088662683 -0.0028521817
0.011302208 0.0022247243 0.001986532
0.01261529 0.00038529868 -0.0029492886
0.021743758 -0.001266483 0.0026948315
0.022579793 -0.0029354622 0.00049034943
0.020193079 0.0027544589 0.0011225373
0.030000001 0.0010131875 0.0020290636
0.016366208 -0.0022064126 -0.0020103932
0.02582024 0.0018359802 0.0023402611
0.0070697595 0.0022303511 -0.0019791999
-0.00050000002 0.00026236917 -0.0012985559
0.0164937 0.001538471 0.0025685765
-0.00050000002 0.00049844681 0.0008121797
-0.0020000001 0.0035366411 -0.0021751572
0.023701096 -0.0029742438 -0.00019569258
0.023171449 0.00092335156 -0.0028369687
0.019509651 -0.0029952347 3.6207461e-05
8.5403146e-05 0.00183212 -0.0023432237
0.0093296012 -0.0020485951 0.0021770955
-0.0011523436 -0.0023956294 -0.0037853625
0.006647483 0.0014388033 -0.0026234498
-0.00028453983 -0.0023264166 0.0035692204
0.01666175 0.00052506541 0.0029308931
0.018600315 -0.0026945188 0.0012672376
-0.0020000001 0.0033697134 6.3517218e-05
0.0098031526 -0.0023554594 0.0018161762
0.024580851 -0.0018304448 0.0023445091
0.010197058 0.0010866519 0.002769324
-0.0020000001 0.00032733276 -0.0040996452
0.015412299 -0.0021244949 -0.002117137
0.016914144 0.0026437961 -0.0013896857
0.0022332387 0.0022609162 0.0019393718
0.002563213 -0.0029364799 -0.0004826175
0.023713246 0.002274612 0.0019215251
0.019674122 -0.00055345951 -0.0029271559
0 0.00029048289 -0.0038576389
0.018826269 0.002800412 0.0010116026
-0.00049245358 -0.0043211458 0.0012068363
0.030000001 0.0018085776 -0.00082703377
0.001515439 -0.0020978965 -0.0021392605
-4.7127774e-05 0.0036809419 0.0015986104
0.0061955182 -0.0029252861 0.00056766684
0.020742878 0.0018973302 0.0022931797
-0.0010188976 -0.0021567454 0.0039357324
-0.00088149949 0.0030852859 -0.0032562066
0.030000001 -0.00024438513 0.0022918112
-0.0019114285 0.0043270262 0.00046759492
0.028450731 -0.0019216667 -0.002274503
0.028375071 -0.0023893008 -0.0017720783
0.020587465 -0.0013221601 -0.0026717682
0.0084250681 -0.00077388209 -0.0028981445
0.023520561 0.0011642241 -0.0027371906
0.0048874589 0.002533857 -0.0015837128
0.014215094 -0.0027203672 0.0012048373
0.0075387186 0.0027485576 -0.0011367833
0.020978324 -0.00092845346 -0.0028348553
0.026677055 0.0021654358 0.0020637885
0.0011170616 0.0029863541 0.0001036812
0.010740662 0.0025480357 -0.0015652368
0.013840696 0.0013945324 -0.0026417887
-0.0020000001 0.0023787012 -0.0025482064
-0.0020000001 0.0022021371 -0.0020889102
0.018916763 -0.0018820955 0.0023048713
-0.001712596 -0.0033660205 0.0029421637
0.017809493 5.242593e-05 0.0029931001
0.023981985 0.0017087711 -0.0024378847
0.0076765707 -0.0024356267 -0.0017117133
-0.0012604003 -0.0032151211 -0.003138833
0.019425293 -0.0011980865 -0.0027231637
0.011750579 0.0023838081 -0.0017792357
0.01158113 -0.0013314425 0.0026679228
0.01130009 0.00099832786 0.0028059112
0.025444143 -0.0025757167 0.0015291674
0.004911019 -0.0012108281 0.0027178857
0.014947739 -0.0019151454 -0.0022795079
0.013601509 -0.0026935653 0.0012695392
0.012629054 0.00091430516 -0.0028407159
-0.0009195421 -0.0026476078 0.003592026
-0.0020000001 5.2997955e-05 0.0032594178
0.01114599 0.0017999674 -0.0023678981
-0.00050000002 0.001419635 -0.00014714204
-0.0019237018 -0.0041105207 0.0014143479
0.015458315 0.0022437267 -0.0019617705
0.0023874696 -0.0019869083 -0.0022244351
0.0041163866 0.0027329258 0.0011745202
-0.00055199984 0.00079288788 -0.0043956386
0.012139294 -0.0022166308 -0.0019970783
0.013892133 0.0016468979 -0.0024853675
0.019905303 0.0018417604 0.0023358252
0.028792268 -0.002255982 -0.0019458013
0.0057945731 -0.0021138079 0.0021270495
0.018344019 -0.0029690925 -0.00023482987
0.0059387921 0.0029581587 -0.00031790591
0.0079180254 -0.0023945756 -0.0017652051
0.00073074002 0.00024514433 -0.0029677353
0.024568453 -0.00061477348 0.0029190858
0.0011371591 0.0011748178 0.0027328022
0.0077230125 -0.0029619185 -0.0002893387
0.0068575754 0.001980098 -0.0022296619
-0.00034389153 -0.0042462214 -0.00074197596
0.0017500862 -0.002963607 -0.00027650947
0.001115662 -0.0029564353 0.00033099885
0.014753251 0.0026269872 -0.0014302642
-0.0020000001 -0.0014220539 0.0036695064
0.020215238 -0.0011670438 0.0027360227
0.0032959015 -0.0010365157 -0.002790092
0.018891249 -0.0027320175 0.0011767122
0 0.0013437454 -0.0029155598
0.012693139 -0.0024947422 -0.0016346818
0.018320762 -0.0024446538 -0.00169995
0.0015322008 0.0028875419 0.00080126373
0.0046491483 6.0812959e-05 0.0029919962
0.029216472 5.3164827e-06 -0.0029993004
0.025554623 0.0026514207 -0.0013712797
-0.0020000001 -0.0019747512 -0.00070773141
0.02337103 -0.0026681437 0.0013309093
0.019948293 0.0023884964 0.0017731263
0.030000001 -0.00088631664 -5.271639e-05
0.012566071 -0.0023290217 -0.0018506258
0.016411519 0.0021481926 -0.0020862576
0.0069101895 3.5906964e-05 -0.0029952743
0.030000001 0.0005590173 -0.00056389341
0.025950402 -0.00038324393 -0.0029495589
0 0.0016851249 0.0034339356
0.0066372738 0.0027260943 0.0011910113
-0.0019118018 -0.0034713594 -0.0026227867
0 -0.00068737607 -0.003773934
0.0026526242 -0.0028481095 0.00089645747
0.025831513 0.002847498 0.00089793338
0.029405518 0.0029447596 0.00027521519
0.02394221 0.00092135742 0.0028377948
0.02869067 -0.00050454307 0.0029335939
0.022733163 0.0029320342 -0.00051639526
0.014498437 0.00034947408 -0.0029540034
0.005364506 -0.0018736373 -0.0023113622
0.011812284 0.002974187 0.00019612417
0.015774 0.0028517318 0.00088771235
0.0097419815 -0.0027725787 0.0010787941
0.0024404407 0.00066398043 0.0029126091
0.015581771 -0.0023755557 0.0017899892
-0.0020000001 -0.0016069479 -0.00066843408
0.013388482 -0.00070498447 -0.0029072128
-0.0020000001 -0.0023494621 -0.0020510757
0.015786773 0.0029857038 0.00010862242
0.0057519977 0.0022004026 -0.002018224
0.028005268 -0.0028944886 0.0007844941
0.020521985 0.00048684588 0.0029359232
0.030000001 0.00070121553 -0.00081286946
0.010596068 0.0020167429 0.0022015397
-0.0014431124 0.00085454708 0.0015
0.015407598 0.0005146077 0.0029322691
0.02912076 -0.00028025813 0.0029631134
0.016686678 -0.0029318063 0.00051812665
-0.0020000001 -0.0011925262 0.0012492
0.029149186 -0.00059371605 0.0029218574
0.0032290246 -0.0029123519 0.00066593819
0.022141326 0.0004456201 0.0029413491
-0.0020000001 0.0011974488 0.002025241
0.0089272438 -0.00082396419 -0.0028781386
0.017302847 -0.0027082711 0.0012340379
0.00099883392 -0.0021786969 0.0020465082
0.018908525 0.0024627838 0.0016763255
0.014348094 0.0021351883 0.002103203
0.030000001 0.00034709176 -0.001349612
0.0021252856 0.0016125987 0.0025116892
0.015404851 0.0013531464 0.0026589322
0.018004866 0.00032467546 0.0029572675
0.016391883 -0.00065974682 -0.0029131668
0.027007859 0.0002949129 0.0029611846
0.016723748 -0.0029051269 -0.00072083244
0.0072244424 0.0022844707 0.0019086788
0.027653534 0.00077398302 0.0028981315
-0.0020000001 -0.0011333902 0.002091845
0.0082150036 -0.00043342775 -0.002942954
0.015510023 -0.0025991339 0.0014975035
-0.0015622287 -0.00022672252 0.0015
0.029518602 0.00070454343 -0.0027751683
-0.0020000001 0.00014218688 -0.0040793247
0.015688874 0.0028220792 0.00095929642
0.020933507 -0.0010713057 0.0027756807
0.0032031697 0.0015300118 -0.0025750683
0.028585341 -0.0029416389 0.0004434195
0.0084214685 -0.0027189413 -0.0012082797
0 0.00044525956 0.0033675428
0.022756763 -0.0029767656 0.00017653237
0.018071078 0.0019726385 -0.0022353865
0.018059984 0.0029834695 -0.00012559477
0.0038872934 -0.0012244363 0.0027122484
0.018265191 3.5141726e-05 -0.0029953748
0.017435003 -0.002638835 0.0014016624
0.00054739602 0.001661305 -0.0024743113
0.019138405 0.0025274965 -0.0015920011
0.0076402323 0.0029694063 -0.00023244627
0.0067426083 -0.0029150755 -0.0006452438
0.0064379047 -0.0029316985 -0.00051894644
0.021912623 -0.0029159328 -0.00063872896
0.025704473 0.0026209757 -0.0014447768
-0.0018578789 -0.0044113351 -0.00023389622
-0.001152561 0.00098648411 0.0012913336
0.024324879 0.0012710663 0.0026929327
0.0051737637 -0.00063890283 -0.0029159102
-0.0018716772 0.0017078103 -4.206732e-05
0.0072944728 -0.0027454954 -0.0011441753
0.022684682 -0.0029808634 0.00014539681
-0.0020000001 0.00019996523 -0.0017261239
0.0060551893 0.0029544185 0.00034632193
0.001360826 0.0026889695 -0.0012806337
-0.00054815668 -0.0023862976 -0.0037925225
0.019669512 0.0022313057 -0.0019779562
0.025601141 -0.0029202215 0.00060614554
-0.0020000001 0.0023623114 0.0026755237
0.023776932 0.0020609943 -0.0021675802
-0.0014921986 0.0020337456 -0.0039866865
0.010480813 -0.0017611036 0.0023977228
0.018867558 -0.0026939337 -0.0012686503
0.013927083 0.0020692109 0.0021612744
0.024411298 -0.0029642317 0.0002717629
0.029999999 0.001736401 -0.00055851927
-0.0020000001 -0.0022987938 -2.6475907e-05
0.024381245 -0.0028942951 0.00078496127
0.023453925 -0.0020571577 -0.0021705246
-8.4490719e-05 -0.0037301683 0.0015765548
0.010622893 0.00051226391 0.0029325779
0.025996421 -0.00054185535 0.0029286831
0.0055012829 -0.0021391904 0.002097988
0.011105102 -0.0013576961 0.0026570477
0.02718305 0.0010566001 -0.0027817723
0.017797083 -0.0023690984 0.0017984036
0.014171111 -0.0020922294 -0.0021436093
0.027716104 0.001504216 -0.0025948647
0 0.0022229152 0.0022954317
0.0057408698 -0.0018351942 0.0023408642
0.027676953 -0.00044697084 -0.0029411714
0.028214309 -0.00086943741 -0.0028593021
0.027064443 0.0029654333 -0.00026263436
0.022178976 0.00082398707 -0.0028781292
0.014501043 -0.0024972686 -0.0016313897
0.00094447384 -0.0019097314 0.0022836623
-0.00045540332 0.0023726821 0.0037472316
0.023695135 -0.00061294384 0.0029193268
0.016560331 -0.0025612393 0.0015480322
0.0023250084 -0.0023915917 -0.0017690936
0.0025782664 0.0027759287 -0.0010707073
0 -0.0032228602 0.0013685504
0.0192865 0.00022630111 -0.0029702149
0.027916249 -0.00035372423 -0.0029534441
0.01768392 0.0021525712 -0.002080552
-0.00063838583 -0.0016536538 0.00013586105
0.012850151 0.0029513426 -0.00036969199
0.029433379 0.0015028042 -0.0025373609
0 0.0022669954 -0.0024544857
0.0095546041 -0.00076921337 -0.002898759
0.0040625208 0.0021845233 0.0020389166
0.0016209782 0.00046252197 -0.0029391248
0.0074216602 0.001498933 0.0025985423
0.02807634 0.002999075 7.0281676e-06
0.018052693 0.0023521988 -0.0018204252
0.028530329 0.0025747712 0.001530399
-0.0018943886 0.0014597249 0.0041231862
0.024540227 0.0019200883 0.0022757144
0.010092931 0.0024940262 0.0016356144
-0.0012024094 -0.0019968436 0.0040019732
0.029177921 -0.001364619 0.0026541799
0.019429279 0.0017262058 0.0024245044
-0.00057519268 0.00093184202 -0.0043773497
0.029322082 -0.0028707923 -0.00084169937
0.016581824 -0.0023553357 -0.001816337
0.030000001 0.00041872915 -0.0020810745
0.019406606 0.00036196859 -0.0029523594
0.011754706 0.0020116088 0.0022054797
-0.00079008692 -0.0040490469 0.0018832131
0.0045163035 4.7563393e-05 0.0029937399
0.016936978 -0.0028913461 -0.00079208007
0.0056901812 -0.0021731732 -0.002053706
-0.00096137868 -0.0016815778 -8.749983e-05
0.0043169349 -0.0028290055 0.00094257598
0.0065898392 -0.0016345372 0.0024948532
0.016703133 -0.0029142851 -0.00065124984
0.026669912 -0.0028692435 -0.00084543845
0.022616576 0.00041901381 -0.0029448511
0.0015049152 -0.0028930008 -0.00078808615
0.0163412 0.001314973 -0.0026747449
0.024471443 0.00049143075 -0.0029353199
0.030000001 6.6054825e-05 0.0004732419
0.020080838 0.00087197014 -0.002858253
0.0024024106 -0.0020388719 -0.0021845573
-0.00072124711 -0.0029062282 0.003393593
0.013491817 -0.0012893496 0.0026853592
0.021582795 0.0027094665 -0.0012311519
-0.0002525255 0.0014166806 -0.0039767213
0.020060765 -0.0029863517 0.00010369973
0.027294481 0.0018323081 0.0023430793
0.010822643 -0.0024373683 -0.0017094436
-0.00034448775 -0.0006569784 0.0042580152
-0.00050000002 -0.00099478744 -9.7626413e-05
0.012751393 0.00057672203 0.0029240942
0.02609393 -0.002390987 0.001769881
0.0028424161 0.002314894 0.0018690352
0.026205273 -0.0019053289 -0.0022870414
0.028448675 0.001186267 -0.0027280597
0.020386953 -0.0029700901 0.00022725205
0.02215833 0.0029738757 0.0001984913
0.010388471 0.0016086505 0.002514719
-0.0020000001 0.0020779513 0.0033432508
0.011269337 -0.0028805251 -0.00081820338
0.019566577 -0.002914903 0.00064655486
0.011175373 0.00096032256 0.0028216543
0.0025647918 -0.0029445838 0.00042104351
0.0040426631 0.002944228 -0.00042374639
-0.0020000001 0.001806632 -0.00043679669
0.02951253 -0.0013472599 -0.0025261194
-0.0020000001 0.0036380345 0.0009473617
0.027499465 0.0029735428 -0.00020101918
-0.0020000001 -0.0024158908 0.0020211039
0.012140694 0.0024247672 -0.0017258639
0.026686266 0.00031191032 -0.0029589476
0.0051575419 0.0012803875 0.0026890717
0.02915529 0.00052444654 -0.0029309744
0.003382676 0.00094798993 0.0028267629
-0.0020000001 -0.0014047479 -0.0028904837
0.029466018 -0.0023204891 -0.0017322503
0.011507458 -0.0026363507 -0.0014076595
0.020332646 0.0029292291 -0.00053770823
-0.00019894459 0.0023093484 -0.0034753538
0.010208701 0.0012349901 -0.0027078767
0.0077287327 0.0021678256 -0.0020606746
-0.0020000001 0.0019211642 0.0036368014
0.017257024 0.00085663755 -0.0028646041
0 -0.003532998 -0.0013065716
0.0043446324 -0.0016713487 -0.0024666029
-0.00090021256 -0.00091335684 0.0043797828
0.017005082 -0.0010173228 -0.0027980427
0.017432949 0.0028611878 0.0008648854
0.027608622 0.0026272652 0.001429593
-0.0018040293 -0.0016221385 -0.0041528768
0.01018599 -0.0012207397 -0.0027137802
0.030000001 0.0016773943 0.0010867621
0.025287976 -0.0022226498 -0.0019892352
0 -0.0011213999 0.0028786971
0.029495087 0.00098955364 -0.0026930158
-0.0020000001 0.00029855259 -0.0029167053
0.016398583 -0.0019274333 0.0022700781
-0.0020000001 0.0005819475 0.0021393066
0.029954709 0.001717985 0.0017207088
0.0079084057 0.00076002744 -0.0028999683
0 -0.0003555374 -0.0038983494
0.025756232 -0.0028998121 0.0007612133
0.0092816008 0.0028729266 0.00083654671
0.015612248 0.0021179153 -0.0021238974
0.016619373 -0.0027944222 0.0010260621
-0.00084890524 -0.00059622998 -0.0044215233
-0.0010839954 -0.0016854262 -8.083463e-05
0.0079855751 0.0007449867 -0.0029019476
0.010588035 0.00088512938 -0.0028528019
0.0082029374 0.0021875438 -0.0020349803
0.027304834 0.0013720839 0.0026510877
0.010196795 0.00079873635 -0.0028885887
0.026391193 0.002870762 -0.00084177201
-0.0020000001 0.0012296789 -0.003249537
0.027673285 -8.9042071e-05 0.0029882807
0.0077369525 -0.0029115106 -0.00067232962
-0.0016269824 0.0013870964 -0.00059751252
0.0081597697 -0.0022068713 -0.0020097953
0.029652443 6.2017796e-05 -0.0027258967
0.028949074 0.0029291462 0.00053833763
0.006723064 0.00016397363 0.0029784183
-0.0014702061 -0.0030708299 0.0032672982
0.021108629 -0.0024610935 0.0016785281
0.029038301 -0.00049062091 0.0029354263
0.0044992957 0.0021956025 0.0020244794
0.0085043777 0.0009997926 0.0028053042
-0.0016204175 -0.0042962618 -0.0012864532
-0.0020000001 0.0014256864 0.0034178111
0 0.0032027608 0.0003386614
0.019671846 -0.0020687508 0.0021616276
0.021289103 -0.0026541445 0.0013647041
0.013325806 0.0023520254 0.0018206507
0.00024349127 -0.00015826143 0.0029791705
0.022094483 -0.00019736426 0.0029740238
0.029271692 -0.0014433913 0.0026215494
0.017607179 0.0024657312 0.0016724847
0.017323667 -0.00032264765 -0.0029575345
0.028041666 0.00046629473 -0.0029386284
0.022619989 -0.0016822921 -0.0024582047
0.019983096 -0.00045933321 0.0029395444
0.0017736926 0.0029404745 -0.00045226657
0.012628306 -0.0020302706 0.0021911585
0.0011985236 -0.0029731956 0.0002036556
0.008705073 -0.00062193658 -0.0029181431
0.022690836 0.0026941367 -0.0012681602
0.012105259 0.0029719258 0.000213304
0.0082952604 -0.0020533362 -0.0021734573
-0.0010042127 0.002992298 -0.0033275534
-0.00050000002 -0.00021488093 -0.0011057178
0.010584746 -0.0029697833 -0.00022958529
0.0097475732 -0.00028977534 0.002961861
-0.0020000001 -0.00030776937 0.0037327458
0.0019318787 -0.0029338666 0.00050247286
0.0077629704 0.0014397604 0.0026230533
-0.00098760228 -0.0044479435 -0.00039550426
0.030000001 0.00093617005 0.0014547642
0.028397676 -0.0022980615 -0.0018909691
-0.0020000001 -0.001779879 0.002613323
0.025935818 0.00066132745 0.0029129589
0.0080724349 0.00041247866 0.0029457114
0.019631989 -0.0028693713 0.00084512908
0.010943603 -0.0029930226 -5.3014366e-05
0.020681264 0.0014667743 -0.0026118632
0.019434579 0.0012388693 0.00270627
0.025173802 0.0027285302 -0.0011851309
-0.0010551226 0.0027246301 -0.0035329286
0.029871995 -0.0010109398 0.0022796728
0.027475348 -0.00045331538 0.0029403365
0 -0.00218151 -0.0021618076
0.020210939 0.0027560829 -0.0011186168
-0.00057799509 -0.00014493096 0.004480924
0.0028545035 0.0027757518 -0.0010711341
0.028035665 2.0231442e-05 -0.0029973374
0.020191913 -0.002927992 -0.00054710486
0.0032108906 0.0029127856 -0.00066264183
0.012494873 -1.656978e-06 -0.0029997821
0 -0.00048248179 0.0035906041
0.015928516 -0.0025407311 0.0015747558
0.011490515 -0.0024654991 -0.0016727871
-0.00030059571 -0.0037969607 0.0019751631
0 0.0029309904 -0.0019792889
-0.0011097806 -0.0014889545 0.00042110417
0.0063436786 0.0029432625 -0.00043108285
0.010757079 -0.0020961978 -0.0021405644
0.0044714757 -0.0022516004 -0.0019515109
-0.0020000001 -0.0019328715 0.0033319802
-0.0011223988 0.0023200039 0.0038433881
-0.0020000001 0.0011277335 0.001818129
0.028180985 -0.002933396 0.00050604902
0.017301925 0.0016872325 -0.0024544136
0.028875355 -0.0010899781 -0.0027679459
0.000131212 -0.002354427 0.0018175213
0.014507739 0.0023899833 -0.001771189
0.0067919977 -0.0027601968 -0.0011086854
0.0211122 -0.0020824245 -0.0021511342
0.020238936 -0.0029657409 0.00026029692
0.012000739 -0.00095404574 0.0028242541
0.030000001 -0.00023015053 -0.001794643
-6.7724621e-05 -0.0040119323 0.00042378786
0.022067575 -0.0028842499 -0.00080921175
0.023891179 -0.00022007349 0.002971035
0.025967298 0.00035844877 0.0029528223
-0.0020000001 -0.0017055018 0.0027485397
-0.00050000002 0.0010381349 0.00083513989
-0.0010897606 -0.002613487 0.0036182057
0.0006120308 -0.0021442755 -0.0020913619
0.011956776 -0.002923205 -0.00058347674
0.026252341 -0.00014910386 0.0029803757
0.019346917 -0.0017124139 -0.0024350889
0.028694494 -0.002347454 0.0018266074
0.0022553992 -0.0012049482 0.0027203213
-0.00031533604 -0.0033892931 -0.0026110753
0 0.0029664338 0.0016831985
-0.0014756609 -0.0040858071 0.001794477
-0.0010816217 0.0018785151 0.0040509934
0.024206756 0.002922687 0.00058741344
0.0023408516 0.0029249333 -0.00057034736
0.010369438 -0.0023076581 -0.0018784642
0.01872227 -0.00032606153 -0.0029570854
0.024749223 0.001534241 0.0025718228
0.0056380508 0.0010670046 0.0027774624
0.030000001 -0.0011437126 -0.00011776322
0.024294181 -0.002731957 -0.001176858
0.010934677 0.00043583932 -0.0029426366
0.0017339161 -0.0015916605 0.0025277573
0.027195193 0.0023531129 0.001819234
0 -0.003303691 0.0022082441
0.021367358 0.0024316879 0.0017168454
0.010336926 0.0029139856 0.00065352558
0.0076544541 -0.0029031772 0.00073564553
0.010349592 0.002708049 0.0012345741
0.0086057549 -0.0016925195 -0.002450356
0.017431207 -0.0029793517 -0.00015688523
0 0.0034473441 0.00061972108
-0.0020000001 -0.0014532858 0.0039326772
-0.00050000002 -0.00028611903 -0.00090762036
0.0050157802 0.0027807397 -0.0010590937
0.018978816 0.0026149354 -0.0014593587
0.0085158944 -0.0024554785 0.001685845
-0.0019015438 0.00329187 0.0028734352
-0.0015934845 0.0015706427 -0.00027962844
0.029537145 -0.0017317043 0.0022320214
0.015884327 -0.0017396291 0.0024142032
0.012513665 0.0028134263 -0.00098018511
0.022548733 0.0029735204 0.00020118839
0.025826313 0.0028444657 -0.00090525375
0.00065470784 0.0017791947 0.0023838398
0.015094535 0.0017011886 -0.0024437034
0.00095113507 0.0029798588 0.00015303111
0.018865142 -0.0010471378 -0.0027856922
-0.0014374722 0.0033304703 0.0029884961
0.013354773 0.0029345488 -0.00049728877
0.028345056 -0.0026067181 0.0014791952
0.021291772 0.0018096513 0.0023604666
0.0064891097 -0.0016863947 0.0024550566
0.0014311324 -0.00020226152 -0.0029733791
0.013254626 -0.0027134626 -0.0012215058
0.0068815215 0.0029001599 0.00075857039
-0.0020000001 -0.0029379497 -0.0029432727
0.0015253372 0.0016755111 -0.002463409
0.029678266 -0.00095049088 0.0025126128
0.024138285 -0.0026582542 0.0013547831
-0.0013911419 0.0013033579 0.00074253912
-0.00045138173 0.0040923767 0.0016526734
0.0090723261 -0.00076454447 -0.0028993736
0.030000001 -0.00036316892 0.000955506
0.015670303 -0.0027868187 -0.0010444189
0.005616121 -0.00070869696 0.0029067241
0.0049750581 9.9771933e-05 0.0029868686
0.0086846612 0.0020881239 0.00214676
0.027994495 -0.0029255946 0.00056532369
0.018962331 -0.0023578263 0.0018130916
0.0059332275 -0.0020931012 -0.0021429406
0.030000001 0.0013715272 -5.8400692e-05
-8.4638625e-05 0.0028330835 0.0029305893
0.019979214 0.00082177727 0.0028790447
0.00068862172 0.00254555 0.0015684763
-0.00036681219 -0.0041333265 0.0013347254
-0.00089554209 -0.0023728525 0.0038028385
0.00753133 0.0018099172 0.0023602624
0.027078936 0.0018468183 -0.0023319439
6.0129711e-05 0.0026319788 -0.0014182142
0.022409204 -3.8350285e-05 -0.0029949525
-0.0020000001 0.001559718 -0.00033236874
0.029580383 -0.0014730134 -0.0023765003
0.029392743 0.0025633511 -0.0015351136
0.030000001 -0.00066211255 0.00022231677
-0.00079991855 0.001603753 -0.0041648163
0.01682687 -0.0015654397 -0.0025478802
0.01494386 0.0029521247 -0.00036375024
-0.0015700178 -0.0012447267 0.00084408285
0.019320417 0.00069462642 0.002908576
0.021875119 -0.0015671444 0.0025465719
0.02222346 0.0028740363 0.00083386723
-0.00080541318 0.0030687412 -0.0032689008
-0.0020000001 -0.0022852523 0.0022398022
0.019051183 -0.0007406575 -0.0029025176
0.01353959 -0.0025222756 -0.001598804
0.017465767 0.0027324869 -0.0011755793
-0.00036897289 -0.0042905058 -0.00059609395
0.015686397 -0.001864451 -0.0023184118
0.0039462582 0.002776342 -0.0010697102
0.010921075 -0.0019192765 0.0022763375
0.011887511 -0.00085675262 -0.0028645564
0.00010644829 0.001563114 -0.002549665
0.025016181 -0.0013737992 -0.0026503769
0.027127305 -0.0020864846 0.0021480185
0.015427345 -0.0029045155 -0.00072547852
0.030000001 0.00081617507 -0.0011774672
0.00016788817 0.00099772855 -0.0028061594
0.0017725102 0.00034667901 0.0029543715
0.017471198 0.0022615911 0.0019384924
-0.00050000002 0.00042204131 0.0013655117
0.01746032 -0.00086118007 0.0028627226
0.013332808 -0.00077821937 -0.0028970877
-0.0020000001 -2.8885526e-05 -0.0015803098
0.017710282 0.0013387784 -0.0026648841
0.02270088 0.0018908537 0.00229815
-0.0020000001 -0.00069260079 0.0033343288
0.012452651 -0.0029166939 -0.000632949
0.015467776 0.00014816709 -0.0029804991
0.0053148963 -0.0012435436 0.0027043337
0.0030265553 -0.0019006103 -0.0022906626
0.026039045 -0.00027279908 0.0029640952
-0.0020000001 -0.00055031804 0.0028780506
0.010443577 0.0018547149 0.0023258836
-0.0008272347 0.00048453518 -0.0015
0.021172214 0.0022393772 0.0019674385
0.0096077099 -0.002986517 -0.00010244204
0.029418431 0.0028922362 -0.00057617668
3.1246291e-05 -0.0023669759 -0.0018011694
0.0098312376 0.0024973408 -0.0016312953
0.020371106 -0.0026815834 -0.0012984651
0.023992132 0.0016844437 -0.0024565535
0.019403135 0.0026236726 0.001438266
0.025660487 -0.00017748598 0.0029766404
0.012365794 -0.002242055 0.0019639488
0.02661776 0.0026022289 0.0014900325
0.0027470463 0.0008022968 0.0028871142
0.027702054 0.00031630753 -0.002958369
-0.00072251144 0.0015822118 0.00025959167
0.013376108 -0.0024736258 -0.0016621979
-0.0020000001 0.00071023864 0.0042061671
0.013277391 -0.00030987672 -0.0029592153
0.0036525407 0.002969112 0.00023468398
0.025912739 0.00045507375 -0.002940105
0.023937676 0.0026178786 -0.0014522535
-0.0020000001 0.0011588879 -0.0020217418
0.0004909113 -0.0020073194 -0.0022087716
0.020737678 -0.0025486334 -0.0015644582
0.021703633 -0.0026929295 0.0012710746
0.012423168 -0.00063274556 0.0029167205
-0.0020000001 -0.0026104092 0.00091472617
-0.0020000001 -0.0029518055 0.00056522764
0 -0.0021647378 0.0032597459
0.021905323 0.0029901571 7.4786672e-05
0 0.0028206112 -0.0022678019
0.02079583 0.0010549085 0.0027824731
0.02749539 -0.0024858883 -0.0016462191
-0.0020000001 -0.0031899721 0.0026778602
0.0056829415 0.0027720414 0.0010800913
0.0087431893 -0.0029504518 -0.0003764602
0.013327417 0.0015105015 0.0025900409
0.011708586 0.0026535382 -0.0013661676
-0.0014310272 0.0031749133 0.0031874375
0.0067486353 0.0028771795 0.00082627946
-0.00068220665 -0.0032743912 0.0030615856
0.00952408 -0.00021222504 -0.0029720678
0.027054381 -0.0029352575 0.00049190299
0.0094316565 0.0019013723 0.0022900777
0.001922895 0.0027939565 -0.0010271864
0.0069432869 -0.00014177347 0.0029813403
0.020885713 0.0010493516 -0.0027847749
0 0.0011280215 -0.0031690726
0.026412699 0.002083573 0.0021502525
0.014330948 0.0018265169 0.0023475233
0.02922909 0.0028904958 -0.00079413323
0.01575841 0.0021035254 -0.0021349411
0.0048872568 0.0028289414 -0.00094272988
0.017162438 0.0026747705 0.0013149109
0.024212589 0.0019233095 0.0022732432
0 -0.0033525757 0.0010973297
0.015566388 2.5129219e-05 -0.0029966929
0.020298338 0.0029604316 -0.00030063535
-0.0016896627 -0.0018749767 -0.0040524583
-0.0020000001 -0.0020694495 0.00029518738
-0.0020000001 0.0026194218 -0.0020310848
-0.0020000001 0.0033817189 -0.0022166001
-0.00062840153 0.00025906274 0.0015
0.0078009493 0.0023253737 0.0018553794
0.0018203433 -0.0028767402 -0.0008273407
0.01728468 0.00029335142 -0.0029613904
-0.0020000001 0.0013716044 0.0021087392
0.030000001 0.00028631426 -0.0019577383
0.0080488976 -0.00041089603 0.0029459195
-0.00087578845 0.00042662016 -0.0015
0.023362754 -0.00095325988 0.0028245798
0.0093901344 0.0019710939 -0.0022365719
0.020029932 -0.0029747935 0.00019151444
-0.0020000001 0.0019125619 0.00030763407
0.015311327 0.0024179397 0.00173476
0.0090094237 0.0029643767 -0.00027066263
0.012910176 0.0019398408 -0.0022605564
0.0068079047 0.0029128382 0.00066224195
0.021223743 -0.0023987258 -0.0017597972
-0.0009981835 0.0011865296 -0.00094487396
0.0038885423 -0.0018687441 -0.0023151175
0.00037861979 0.00080750574 -0.0028849565
0.0076920721 0.0025328898 -0.0015849734
0.011540242 0.0014073252 0.0026364895
0.017568192 0.0023305423 -0.0018486447
-0.0020000001 -0.0017214225 0.0026933649
0.0041461741 -0.00073276239 -0.0029035567
0.019750722 0.00093210529 -0.0028333426
0.024434639 -3.3410315e-06 -0.0029995604
0.015389567 0.0029449074 -0.00041858587
0.026497018 0.0017186389 -0.0024303114
0.018349228 -0.0023404236 0.0018357685
0.0073394631 -0.0027719203 0.0010803838
0.02367674 -0.0024822431 -0.0016509689
0.022852551 -0.0003371457 0.0029556262
0.011973702 -0.002084278 0.0021497116
0.023340479 0.0018522973 -0.0023277388
0.0086080274 0.0027559053 -0.0011190457
0.0088816863 -0.0011283979 -0.002752031
0.0029467642 -0.0029965942 2.5878961e-05
0.024334326 -0.0028507474 0.00089008926
0.019952035 0.0020264944 0.0021940561
0 -0.0012259653 -0.0034315211
0.012587176 -0.00033294054 0.0029561797
0.0089468863 -0.0029030412 -0.00073667924
0.022193933 0.0013164199 -0.0026741459
0.030000001 0.00081309152 -0.0021067555
0.025689775 -0.0028214047 0.00096092431
0.026855811 0.0015545757 0.0025562176
0.003412775 0.001933759 -0.0022652231
0.0081457766 0.0012050242 -0.0027202899
0.00023212882 0.0023755727 -0.0017899672
-0.00098826271 -0.0025957038 0.0036318509
0.021449422 -0.0001094222 0.0029855985
0.024775228 -0.00020834796 0.0029725782
0.0043533584 -0.0017130467 -0.0024346032
0.014804531 -7.532342e-05 0.0029900863
-0.0014573355 -0.00052705221 0.0044306288
