# .PCD v0.7 - Point Cloud Data file format
VERSION 0.7
FIELDS x y z
SIZE 4 4 4
TYPE F F F
COUNT 1 1 1
WIDTH 1000
HEIGHT 1
VIEWPOINT 0 0 0 1 0 0 0
POINTS 1000
DATA ascii
0.0024104477 0.0025046184 -0.0050000008
0.0020261868 -0.0028403508 -0.0049939966
-0.0007110702 -0.0027875272 -0.0050000004
-0.0016090432 -0.0027077775 -0.0050000004
0.0021036705 -0.0026934601 -0.0050000004
-7.6395889e-05 -0.0026376534 -0.0050000004
-0.0016035666 -0.0026298733 -0.0050000004
0.0023669412 -0.0025493705 -0.0049999999
-0.0003826264 -0.0023963896 -0.0050000004
-0.0018231962 -0.0023323104 -0.0050000004
-0.00060408178 -0.0022729626 -0.0050000004
0.00022907188 -0.0022792283 -0.0050000004
-0.00083005981 -0.0020445702 -0.0050000004
-0.00065605645 -0.0019605665 -0.0050000004
0.0021227184 -0.0018599411 -0.0050000004
0.0013033919 -0.0017448261 -0.0050000004
-0.0018717212 -0.0017383612 -0.0050000004
-0.00049844256 -0.0015922514 -0.0050000004
-0.0018583417 -0.0015702099 -0.0050000004
-0.0014764409 -0.0014863366 -0.0050000004
-0.0020564515 -0.0014771256 -0.0050000004
0.00061868149 -0.0014364491 -0.0050000004
0.0011000648 -0.0013255716 -0.0050000004
-0.00173826 -0.0012595035 -0.0050000004
0.00066935777 -0.0012568537 -0.0050000004
0.00087160192 -0.0012219154 -0.0050000004
0.002465274 -0.0012217764 -0.0050000004
-0.0020959864 -0.0011370878 -0.0050000004
-0.00064014486 -0.0010790046 -0.0050000004
-0.0014594091 -0.00093635288 -0.0050000004
-0.0015102075 -0.00092445972 -0.0050000004
0.0012537332 -0.00085331558 -0.0050000004
-0.00066993886 -0.00076316466 -0.0050000004
-0.00064256921 -0.00075043371 -0.0050000004
0.00031255622 -0.00069035153 -0.0050000004
0.00068013411 -0.00065218715 -0.0050000004
-0.0014220205 -0.00063022354 -0.0050000004
-0.0023428581 -0.00053906429 -0.0050000004
0.00025476582 -0.00045190574 -0.0050000004
-0.0004484051 -0.00039147164 -0.0050000004
-0.00051807775 -0.0003513601 -0.0050000004
0.0010331942 -0.00034134343 -0.0050000004
0.0022139717 -0.00026299575 -0.0050000004
3.3720018e-05 -9.1214781e-05 -0.0050000004
-0.0007110124 -7.9782607e-05 -0.0050000004
0.00029588552 -6.638265e-05 -0.0050000004
0.0013954249 -4.3625118e-05 -0.0050000004
-0.0021199416 -3.842029e-05 -0.0050000004
0.0021594455 7.8084711e-05 -0.0050000004
-0.0018313867 0.00010735497 -0.0050000004
-0.0020085908 0.00018444577 -0.0050000004
-0.00011904038 0.00019650269 -0.0050000004
0.00013261021 0.00041847042 -0.0050000004
0.0019919928 0.00053427258 -0.0050000004
-0.0013444675 0.00059319561 -0.0050000004
-0.00016115178 0.00073585234 -0.0050000004
0.001570623 0.00087532244 -0.0050000004
-0.0008918778 0.00095122616 -0.0050000004
0.0016183113 0.0010086006 -0.0050000004
-0.0011936431 0.0010523216 -0.0050000004
-0.00071556412 0.0011030096 -0.0049999999
0.0023543988 0.0012460757 -0.0050000004
-0.0002306707 0.001258963 -0.0050000004
0.00072500296 0.0012717458 -0.0050000004
-0.0001263466 0.0013230849 -0.0050000004
0.00045590953 0.0014459068 -0.0050000004
-0.0023584764 0.0014540552 -0.0050000004
0.0010999247 0.0015225093 -0.0050000004
-0.00068443152 0.0016308078 -0.0050000004
-0.0022355097 0.0017888503 -0.0050000004
0.00016567243 0.0020099613 -0.0050000004
0.00034469916 0.0020909025 -0.0050000004
0.0017165955 0.0023061316 -0.0050000004
0.0020789208 0.0023027312 -0.0050000004
-0.001679275 0.0023474682 -0.0050000004
-0.00051814393 0.0023794209 -0.0050000004
0.0020609698 0.0025753607 -0.0050000004
0.00042190481 0.0026696806 -0.0050000004
0.0016904527 0.0026623011 -0.0050000004
-0.00064386247 0.0026730306 -0.0050000004
-0.0016849175 0.0027125333 -0.0050000004
0.00067347725 0.0027569633 -0.0050000004
-0.0024215896 0.0011140018 -0.0049891886
0.0015185552 0.0028949548 -0.0049643265
-0.0020130544 -0.0029066356 -0.0049553863
-0.00059722492 -0.0029013094 -0.0049594627
-0.0022763314 -0.0020255966 -0.0049423622
-0.0024901878 0.0006488029 -0.0049315724
0.00097625476 -0.0029493517 -0.0048916163
-0.0025000002 -0.00078002154 -0.0048972857
-0.0023148432 -0.0019798151 -0.0048897238
0.0025000002 0.0021826762 -0.0048823827
-0.00234721 -0.0018977517 -0.0048635551
0.0025000002 -0.0026867916 -0.004852185
-0.0024884923 0.0012966068 -0.0048492113
-0.0020404297 0.0029759076 -0.0048456187
-0.0025000002 -0.0010211067 -0.0048095668
-0.00090734009 0.0029985968 -0.0048063169
0.0025000002 0.00018442333 -0.0047764448
-0.0025000002 -0.00094212615 -0.0047588483
-0.0023833306 -0.0020862974 -0.0047183181
0.0025000002 0.0019362936 -0.0047131521
-0.0025000002 -0.0011655604 -0.0046961498
0.0013704044 0.0030642767 -0.0046925563
-0.0022809166 0.0026375439 -0.0046803448
0.0019112378 0.0030658522 -0.0046898276
-0.0011436245 -0.0030808647 -0.0046638441
0.00059301464 0.0030877644 -0.0046518752
0.0016997294 0.0030846295 -0.0046573044
-0.002289999 -0.0026830113 -0.0046442272
-0.0010068696 -0.0031057126 -0.0046208096
0.00018203545 -0.0031166398 -0.0046018842
-0.0025000002 -0.00016265998 -0.0045962208
0.00060771761 -0.003124296 -0.004588624
-0.0025000002 0.00062261382 -0.0045838756
-0.0025000002 0.0010181984 -0.0045621968
0.0012875089 0.0031423038 -0.0045574093
0.0025000002 -0.0015049212 -0.0045355954
-0.0025000002 0.0002640727 -0.0045173015
-0.0024314057 0.0023768789 -0.0045085978
0.0025000002 -0.0015696551 -0.0044718003
-0.00021748505 0.0031920953 -0.0044711679
-0.0024346693 -0.0025062398 -0.004448948
-0.0022638652 0.0030103396 -0.004449714
0.00043305923 -0.0032168152 -0.0044283872
0.0025000002 -0.0029358477 -0.0044266232
0.0018303414 0.0032259696 -0.004412496
-0.000136078 -0.0032533046 -0.0043651899
0.0016429848 -0.0032632803 -0.0043478571
0.0025000002 -0.0017076405 -0.0043491381
0.0013880911 0.0032662353 -0.0043427539
-0.002316542 -0.0030537373 -0.0043023722
-0.0025000002 0.0014250615 -0.0043044845
-0.00088129548 -0.0032922586 -0.0042977235
0.0025000002 0.0012193356 -0.0042842524
0.0025000002 0.002548734 -0.0042873356
0.00042527285 0.0033059556 -0.0042739566
0.0013651997 -0.0033144839 -0.0042591654
0.0025000002 -0.0018657449 -0.0042551756
-0.0023397752 -0.0030579823 -0.0042488291
0.0025000002 -0.0032292269 -0.0041633155
0.0025000002 -0.0015266048 -0.0041623744
0.00043195926 0.0033742744 -0.0041556247
-0.0017114573 0.0033785473 -0.0041482453
-0.0025000002 0.00063745567 -0.0041262661
0.0007650631 0.0033915448 -0.0041257115
-0.0014771378 -0.0033977919 -0.0041149468
0.0025000002 0.0018980469 -0.0040812055
0.0025000002 0.0022898691 -0.004074397
-0.0025000002 -0.00076070114 -0.0040537198
-0.00099277648 -0.0034447489 -0.00403362
0.00075602706 -0.0034428346 -0.0040368442
-0.0025000002 -0.0018867359 -0.0040352414
0.0025000002 0.0013808581 -0.0040213913
0.00042149474 -0.0034543364 -0.0040169307
0.0025000002 0.00264057 -0.0039860285
0.0020285069 -0.0034876957 -0.0039591738
0.0025000002 0.0033514125 -0.0039572874
-0.00019722999 0.0034882936 -0.0039581377
-0.0016884522 -0.003513599 -0.0039143767
0.00046842222 0.0035272287 -0.0038907006
-0.0025000002 0.0027611696 -0.0038780782
-0.0025000002 -0.001092392 -0.0038528547
-0.0016396648 -0.0035776405 -0.0038034488
0.0025000002 0.00075451378 -0.0037982385
0.0025000002 0.0029713796 -0.0037921944
0.0025000002 0.0029389323 -0.0036985362
-0.00059143465 0.0036487652 -0.0036801931
-0.00069986278 0.0036519095 -0.003674747
-0.0012848064 -0.003663436 -0.0036548034
0.0025000002 0.0027039123 -0.0036469437
0.0025000002 0.0030078765 -0.003641801
-0.0023968529 0.0036862805 -0.0036152944
-0.0013985805 -0.0036958761 -0.0035986134
0.0025000002 6.842256e-06 -0.0035904176
0.0025000002 0.0030623628 -0.0035791625
0.0025000002 -0.0029913364 -0.0035697222
-0.0003318291 -0.0037295711 -0.0035401841
-0.0025000002 0.002437894 -0.0035461562
0.00016824019 -0.0037383975 -0.0035249048
-0.0025000002 -0.0026886761 -0.0034962187
0.0013774077 -0.0037633439 -0.0034817376
-0.00047509262 0.0037835753 -0.0034466952
0.0025000002 -0.001701692 -0.0034375866
-0.0022217294 0.0038034464 -0.0034123438
0.0025000002 -0.00074922061 -0.0034016541
-0.001878081 0.0038171366 -0.0033886363
0.0011779822 -0.0038252056 -0.0033745896
-0.00098103459 0.0038223451 -0.0033795657
0.0025000002 -0.002692265 -0.0033637672
0.0025000002 -0.0036068331 -0.003353704
0.0025000002 0.00082837621 -0.0033510937
0.0025000002 -0.0030872717 -0.0032902081
0.0024999999 0.0030997326 -0.0032920893
-0.00016143621 0.0038729999 -0.0032918074
0.0018050006 0.0038814165 -0.0032772296
0.0014068565 -0.0038995163 -0.0032458799
0.0025000002 -0.0019133077 -0.0032419711
0.0025000002 -0.0010740829 -0.0032268101
-0.0025000002 3.0595736e-05 -0.0032264912
0.0025000002 0.0010281114 -0.0031842736
-0.0025000002 0.0029369276 -0.0031751711
0.00053835649 -0.0039543165 -0.0031509474
0.0025000002 0.0030463024 -0.0031527316
-0.0025000002 0.0029463398 -0.0031336073
-0.0025000002 0.002914031 -0.003115485
-0.002478472 -0.0039539947 -0.003050915
0.001113598 0.0040112962 -0.0030522712
0.0025000002 -0.00058671454 -0.0030404618
-0.00059321465 -0.0040414268 -0.0030000289
-0.0018075017 0.0040383623 -0.0030054366
-0.0025000002 0.0015095096 -0.0029939828
0.0025000002 -0.0023878354 -0.0029848299
0.0023796731 0.0040476965 -0.0029892246
-0.0025000002 -0.0010673057 -0.0029506623
-0.0025000002 -0.0023281709 -0.0029430639
-0.0024736347 -0.00018185437 -0.002949697
-0.0011115618 0.0040753521 -0.0029413749
-0.0025000002 0.0012660456 -0.0029234253
-0.0025000002 0.0023198891 -0.002927345
0.0024890502 -0.00055432681 -0.0029160907
-0.0025000002 0.0027624192 -0.002898739
-0.0025000002 0.003350982 -0.0028972479
-0.0025000002 -0.0036916914 -0.0028717453
-0.0024579538 -0.00063230941 -0.0028747278
-0.0021411532 -0.0041295313 -0.002847428
-0.0010072165 0.0041304659 -0.0028459143
-0.00079281919 -0.0041420544 -0.002825734
-0.0025000002 -0.0039510573 -0.0028149334
-0.0025000002 -0.0011547864 -0.0028026577
0.00010735042 0.0041529122 -0.0028069855
-0.00026671757 -0.0041569499 -0.0027999489
0.0025000002 0.0011246385 -0.0027769005
-0.001853663 -0.0041753273 -0.0027680858
-0.0025000002 -0.0025095311 -0.0027456519
0.0022628675 -0.00025674666 -0.0027290545
0.00085781352 0.0042014383 -0.0027229362
0.0025000002 -0.0028328637 -0.0026612871
-0.0024473465 0.0012025131 -0.0026648189
0.0023169566 0.0042409888 -0.0026544323
0.00080273295 -0.0042478535 -0.0026425426
-0.0025000002 -0.0022394715 -0.0026333272
-0.0025000002 0.0033147987 -0.0026220186
-0.0017601164 0.0042616329 -0.0026186698
0.0025000002 0.0039527784 -0.0026040825
0.0025000002 -0.0018464328 -0.0025809961
-0.0025000002 0.0029141919 -0.0024972023
0.0025000002 -0.0023881691 -0.0024590029
-0.0021944498 -0.0010561736 -0.002454011
-0.001152781 0.004355798 -0.0024556005
-0.0023605956 -0.0043593883 -0.0024492748
-0.00098849577 0.00011249915 -0.0024436843
0.0025000002 0.0034074956 -0.0024434053
-0.0025000002 0.0037395493 -0.0024471974
0.0017064291 -0.00014974907 -0.0024387785
-0.0016323649 0.00016809003 -0.0024363629
-4.4385495e-05 0.00020134154 -0.0024319836
-0.0014567614 0.00024987853 -0.0024255917
0.0025000002 0.0028844872 -0.0024209875
0.0013423129 -0.00030704238 -0.0024180631
0.0025000002 0.0033954536 -0.0024025673
0.0023370653 0.004383646 -0.0024073434
-0.0013624857 -0.00046241155 -0.0023976013
0.00078686484 -0.00044909617 -0.0023993545
0.0018850638 -0.00058005913 -0.0023821068
-0.00015469629 0.00057436503 -0.002382857
0.00039492079 0.0043971101 -0.0023840221
0.0023814132 -0.0015910844 -0.0023799946
0.0005945132 0.00060566998 -0.0023787343
-0.0021906521 0.0012771036 -0.0023584182
0.0001963653 0.00071935199 -0.002340297
-0.0025000002 0.0019983172 -0.002340253
-0.001175341 -0.00076267804 -0.0023223499
0.0024136156 -0.0017441863 -0.0023027458
0.0020709273 0.001092968 -0.0023061971
0.0025000002 -0.0030400786 -0.0022928198
0.0025000002 -0.0029696743 -0.0022881576
-0.0012592851 -0.00086066633 -0.0022817599
-0.0011777445 -0.00084135716 -0.0022897583
0.00087046582 -0.00088422158 -0.0022720024
-0.00061181851 -0.0044767573 -0.0022460364
-0.0019322538 -0.00094328471 -0.0022475363
0.00095643522 0.00098256813 -0.0022312638
0.0018081606 0.0009850238 -0.0022302466
-0.0011846438 0.0044834423 -0.0022344799
0.0017201729 -0.00099500606 -0.0022261115
-0.00050637306 -0.00098944723 -0.0022284142
-0.0023214004 0.0044861748 -0.0022296747
-0.0025000002 -0.0038876988 -0.0022120199
-0.0011258941 -0.0010204804 -0.0022155591
-0.00085679378 -0.0045073396 -0.0021930549
-0.00087086408 -0.0011227921 -0.0021731781
0.0025000002 0.004196173 -0.0021779954
0.0025000002 -0.0027418379 -0.002154496
-0.0012000417 -0.0011646958 -0.0021558201
0.0024913698 0.0020712917 -0.0021488904
-0.00023113668 -0.0012393106 -0.0021213426
-0.00035516068 -0.0012485009 -0.0021142911
-0.0018502697 -0.0012569384 -0.0021078172
-0.0015362707 0.0045552952 -0.0021099793
0.00045831312 0.0012766183 -0.002092717
-0.0018847671 -0.0045722877 -0.002080529
-0.0022687388 0.0018174454 -0.0020654637
0.0025000002 -0.0028459036 -0.0020298539
-0.0020301535 -0.0014998664 -0.0020109771
-0.00083992607 -0.0046154861 -0.0020057498
-0.0024999999 0.0035820173 -0.0020058698
-0.0014507993 -0.0013996279 -0.001998334
-0.0021857214 0.0017789198 -0.0019912771
-0.0025000002 -0.0035349433 -0.0019888051
-0.001104311 -0.0014406348 -0.0019668702
0.00035009565 0.0046375389 -0.0019676085
0.0023289695 0.0020327889 -0.0019581018
0.0017516903 -0.0014665911 -0.0019469542
-0.00051184249 -0.00147692 -0.0019390292
-0.0025000002 -0.0042389408 -0.0019251686
0.00011367822 -0.0014928475 -0.0019268082
0.0020385578 -0.0016380037 -0.0019154905
0.0025000002 -0.0034686937 -0.0018957971
-0.0020024935 -0.0016088878 -0.0018927567
0.0012320377 -0.0015306018 -0.0018978398
-0.0025000002 0.0039543216 -0.0018939839
-0.00036640366 -0.0015520048 -0.0018814178
-0.0025000002 0.0038849642 -0.001883418
-0.0024325049 -0.0046927053 -0.0018719502
-0.0021011075 -0.0047038021 -0.0018527361
-0.00057897705 0.0015953415 -0.0018481663
-0.0010791157 0.0047077313 -0.0018459546
0.00062779244 0.0016088601 -0.001837794
0.00045098324 0.0047233594 -0.0018189657
0.0018134002 -0.0016639336 -0.0017955368
-7.0616011e-06 -0.0016588351 -0.0017994489
0.0018123487 0.0016711227 -0.0017900206
-0.0025000002 -0.0045296461 -0.0017894345
-0.0025000002 0.0038405561 -0.0017881648
0.0019045357 0.0016904242 -0.0017752111
-0.0024794843 0.0046742097 -0.0017613412
-0.00074922701 -0.0017444156 -0.0017305601
0.0025000002 0.0041989149 -0.0017347843
0.001054661 -0.0047769644 -0.0017260961
-0.0024338486 0.0023468572 -0.0017196446
-0.0025000002 0.0032176657 -0.0017168123
0.0020041938 0.0047965068 -0.0016922476
0.00084200478 0.0017764369 -0.0016888266
-0.0022129351 -0.0048202062 -0.0016511159
-0.002469789 0.0024443858 -0.0016510946
0.0011816255 0.0048248945 -0.0016430783
0.0023640054 0.0023212272 -0.0016392893
-0.0025000002 0.0029448443 -0.0016352187
-0.0016889964 0.0018281246 -0.0016214618
-0.0025000002 -0.0035135334 -0.0016157174
-0.0013328681 0.0018438353 -0.0016009862
-0.0020501132 0.0019587602 -0.0016004132
-0.00010939158 -0.0048500481 -0.0015995109
0.0016962492 -0.0048525808 -0.0015951243
-0.0025000002 -0.0034934757 -0.0015817574
-0.0020545656 0.0019804921 -0.0015793417
0.0010955415 0.0048724529 -0.0015607054
0.00076168461 -0.0018758104 -0.0015593129
0.0018153365 -0.0048801145 -0.0015474351
0.0025000002 0.0045195678 -0.0015292553
-0.0008635018 -0.0019110187 -0.0015134258
0.00081536837 -0.0019111664 -0.0015132335
-0.0018250669 -0.0049032057 -0.0015073763
-0.0025000002 -0.0046261284 -0.0014987219
-0.00034564079 0.0049118083 -0.0014924974
-0.00065184408 -0.0049155434 -0.0014860701
0.00032457084 -0.0049139694 -0.0014887964
-0.0012208669 0.0019360081 -0.0014808573
-0.00025185515 0.0049225464 -0.0014739037
0.00097235397 0.0019493926 -0.001463413
0.0020004164 -0.0049454016 -0.0014343543
-0.0019625407 -0.004952041 -0.0014227884
-0.0017669507 -0.004950115 -0.0014261341
0.0025000002 -0.0042726891 -0.0014138871
-0.0025000002 -0.0042500612 -0.0014176256
-0.00068566465 0.0019886994 -0.0014121844
0.0023826237 0.0025073623 -0.0014149315
-0.00064818619 -0.0020020695 -0.0013947593
-0.00080133416 0.0020089177 -0.0013858342
-8.5067993e-05 0.0020068716 -0.0013885008
-0.0025000002 -0.0042815232 -0.0013600662
-0.0016479165 0.002033866 -0.0013533189
-0.0021448857 -0.0050091208 -0.0013239176
2.2348644e-05 0.0020661403 -0.001311256
-0.0025000002 0.0029624794 -0.0013061225
-0.0013010646 0.0020818359 -0.0012907999
0.0022327411 -0.0024016669 -0.0012817486
0.0018142969 0.0020910793 -0.0012787526
0.0011289652 -0.0021100731 -0.0012539983
-0.0025000002 0.0044269566 -0.0012555659
-0.0021659287 0.0023465089 -0.0012417962
-0.00019900395 0.0050611258 -0.0012338675
-0.0025000002 -0.0041497624 -0.0012159487
-0.0012784244 0.00507358 -0.0012122761
0.0018883391 0.0021375066 -0.0012089065
-0.0024988444 -0.0027238892 -0.0011933404
-0.00039534862 -0.0021420559 -0.001197924
0.0009961446 0.0051142494 -0.0011419252
0.0025000002 -0.0028239749 -0.0010926133
-0.0025000002 0.0035126416 -0.0010973717
-0.00051436323 -0.0051460736 -0.0010867809
-0.0023631873 0.0026259399 -0.0010783153
-0.0012535251 0.0051585459 -0.0010651111
-0.00011192138 -0.0051703337 -0.0010447607
0.0022927176 -0.0051725423 -0.0010409352
0.0025000002 0.0032491942 -0.001045478
-0.0025000002 0.0030617237 -0.0010161006
0.0013295057 0.0051859426 -0.0010177403
0.0025000002 -0.0041706376 -0.00099504762
0.0017306302 -0.0022333274 -0.00097758661
-0.00038593265 0.0022378659 -0.00096662954
0.0006795011 -0.0052272328 -0.00094620936
-0.0025000002 0.0043555298 -0.00093658612
0.0025000002 -0.0033031902 -0.00091268442
0.0020527188 -0.0023636667 -0.0009070533
0.0017625267 -0.0022628203 -0.00090638775
-0.00056308194 -0.0052577322 -0.00089338236
0.0025000002 -0.0048061288 -0.00087487383
-0.0021371415 0.0052680885 -0.00087538926
-0.0011693574 0.00228603 -0.00085035781
0.0025000002 -0.0045081545 -0.00082396949
-0.0025000002 -0.0030765932 -0.00080392737
-0.00050095574 -0.005324468 -0.00077779318
0.0025000002 -0.0043955515 -0.00077699398
0.0025000002 0.004637626 -0.00077207095
-0.00050699007 0.0053286557 -0.0007704912
-0.0013094374 0.0053314259 -0.0007656932
-0.0023161336 0.0052188863 -0.00075665902
-0.0024253365 0.0050320639 -0.00073897227
-0.00090076524 0.0023469615 -0.0007032638
-0.00037718238 0.0053752465 -0.00068979856
0.0025000002 -0.0040290104 -0.00066226727
0.001298454 -0.0023736432 -0.00063885108
0.0025000002 0.0039904518 -0.00062062702
-0.00088794576 -0.0023789559 -0.00060398411
-0.0015727212 0.0054266523 -0.00060076691
-0.0016228402 0.0054272595 -0.00059971533
0.0015592482 0.0023822603 -0.00057889492
0.00036593966 -0.0054454566 -0.00056823419
0.00087777188 -0.0054520573 -0.00055680145
-0.0023119338 -0.0052532181 -0.00055117696
-0.00074345618 0.0023877854 -0.00053694344
0.0025000002 -0.004605961 -0.00051254575
-0.0020844005 -0.002517008 -0.00051173108
0.0020981682 0.0054739206 -0.00051893311
0.0025000002 -0.0035980742 -0.00050682755
0.0009218817 -0.0055032521 -0.00046812886
0.0018940936 -0.0055120764 -0.00045284425
0.0025000002 -0.0047696466 -0.00045229806
-0.00029052224 0.0023982921 -0.00045716416
0.0025000002 -0.0038470665 -0.00044273364
-0.0012167353 0.0024035375 -0.00041733423
0.001268096 0.0024156414 -0.00032542899
0.0023279663 -0.0055973707 -0.00030511073
0.0025000002 0.005153825 -0.00029763713
0.00053703814 -0.0024233114 -0.0002671899
-0.00051297504 0.0056254156 -0.00025652244
0.00091832486 0.0024273607 -0.00023644516
-0.0021783984 0.0055256672 -0.00023841244
-7.1957831e-05 0.0056352634 -0.00023946725
-0.0025000002 -0.0036422119 -0.00021426416
-0.001016799 -0.0024305631 -0.00021212763
0.00076817547 0.0056495662 -0.00021469608
0.0025000002 -0.0055830316 -0.0001979403
-0.0025000002 0.0042511718 -0.0001945957
-0.0025000002 -0.0045967563 -0.00015819431
0.0025000002 -0.0038446076 -0.00015527441
0.0016621592 -0.0056958925 -0.00013446592
0.0024293908 0.0029136075 -0.0001198684
0.0021379502 0.0026252815 -9.6193406e-05
0.0017014424 0.0057247309 -8.4514861e-05
-0.0021203547 0.0056489939 -6.5270986e-05
0.00070332794 0.0024507407 -5.8917492e-05
3.7207843e-05 -0.0057457238 -3.2661865e-05
0.001028479 -0.0024543612 -3.1426e-05
0.0025000002 0.0045729093 -3.2373493e-05
0.0023642296 0.0057498324 -1.2844067e-06
0.0025000002 -0.003622917 4.21021e-05
-0.00056148629 -0.0024531705 4.0468462e-05
0.0017390045 -0.0024520578 4.8917893e-05
-0.0011537679 -0.0057341 6.8287562e-05
0.0017182522 -0.0057344101 6.7751302e-05
0.0022816809 -0.0057348902 6.6920176e-05
-0.0025000002 -0.0038998616 6.12644e-05
0.0025000002 0.0031164896 6.6000182e-05
-0.0025000002 0.0032576809 6.9116359e-05
-0.0025000002 -0.0033330517 7.0639435e-05
-0.0012093245 -0.0057234741 8.6691165e-05
0.00022730793 -0.0024476114 8.2677492e-05
-0.001136508 0.0024477425 8.1683313e-05
-0.0025000002 -0.0046748547 0.00011913586
-0.0025000002 0.0034970543 0.0001249522
0.00085802766 -0.0056887367 0.00014685413
0.00095262023 -0.0056726118 0.00017478106
-0.0025000002 0.0031950669 0.00018808551
-0.0011932852 -0.0024296604 0.00021898093
0.00049348682 -0.0056368546 0.00023671084
0.0012310009 0.0024245628 0.00025768887
-0.0017096652 -0.0056198933 0.0002660866
-0.00027524162 -0.0024229896 0.00026963453
0.0024414798 0.0029063004 0.00026724409
-0.0025000002 0.0033415223 0.00026797893
-0.00079948845 0.0024194424 0.00029656847
0.0025000002 0.0047589303 0.00030521379
0.0025000002 -0.0032390191 0.00032056801
-0.00036249537 -0.0024138384 0.00033911987
-0.0025000002 0.0043741716 0.00033864594
-0.0013194924 0.002412529 0.00034906462
0.0002474678 0.0055726501 0.00034792841
0.002319051 0.0027727415 0.00035171854
-0.0025000002 -0.0031328895 0.00038274494
0.00018150581 0.0024073827 0.00038813823
0.0004504284 0.0024045561 0.00040960094
0.00048732717 0.0024057839 0.00040027953
-0.0025000002 0.0040114424 0.00041983929
0.0022174865 0.0055084196 0.00045917853
-0.0025000002 -0.0046751332 0.0004754572
0.00040159811 -0.0054867775 0.00049663428
0.0025000002 0.003761034 0.00052989181
0.00023379432 0.0054689776 0.00052749465
0.0012382778 -0.0054671895 0.00053056882
0.00010064834 0.0054651331 0.0005341536
-0.0014912753 0.0023859635 0.0005507773
0.00076670141 0.0023857465 0.00055242563
0.00028743758 0.0023834063 0.00057019276
-0.0010654733 -0.0054309848 0.00059326441
0.0025000002 -0.0049193823 0.00059758947
-0.00245712 -0.0028789446 0.00059393165
-0.0013806241 -0.0023796444 0.0005987559
0.00097204302 0.0023651207 0.00065942568
0.0025000004 0.003165141 0.00068030361
0.0025000002 0.0038176586 0.00068665459
-0.0015626062 0.0053757294 0.0006890003
0.0021017131 -0.005363991 0.00070933718
0.0019099431 -0.0053470251 0.00073872198
0.0013435326 -0.0023324762 0.0007382324
-0.0011608588 0.0053464221 0.00073976733
0.0025000002 -0.0037889676 0.00074392854
-0.0022652284 0.0026584128 0.00074611633
0.0025000002 -0.0036697581 0.00075353432
0.0019637241 0.0053239553 0.00077868032
-0.0006599669 -0.0023131364 0.00078491989
-0.0016155444 0.00231129 0.00078937825
0.0025000002 0.0050386088 0.00079053349
0.0020612353 0.0053138379 0.00079620432
-0.0021611687 0.002520845 0.00080860092
-0.0010853695 0.005308798 0.00080493325
-0.0025000002 -0.0034717624 0.00081364549
-0.00098679634 0.0052960231 0.00082705973
0.0025000002 0.0031023675 0.00085524126
0.00019710053 -0.0022729929 0.00088183029
-0.00070700818 0.0052646832 0.00088134303
0.0019072696 -0.0052579315 0.00089303637
-0.00040761806 -0.0052524055 0.00090255745
-0.0001258719 -0.0052534943 0.00090067677
-0.0016578722 0.0022556919 0.00092359661
0.00059425714 -0.0022476588 0.0009429889
-0.00098793337 0.0052271471 0.00094635662
-0.0025000002 0.0047028991 0.00096001948
0.00039880731 -0.0052093784 0.00097709638
0.0025000002 0.0030864025 0.00098776468
-0.00022944929 -0.0052007353 0.0009920561
0.0021027424 -0.0023801394 0.00099689642
0.0020129152 0.0052004703 0.0009925632
-0.00041482225 0.0022206914 0.0010080911
-0.0021252471 0.002402972 0.0010000853
-0.0025000002 -0.0037469657 0.001018598
-0.0013898578 0.0021980407 0.001062771
-0.00016014189 0.0021904337 0.0010811356
-0.00085263699 -0.0051400298 0.0010971898
-0.0015128861 0.0051441765 0.0010900426
0.00032453975 0.0051332689 0.0011089587
0.0011074718 -0.0021736871 0.001121563
0.00083292008 -0.0051161023 0.0011387012
0.0025000002 -0.0046330052 0.001145808
0.0010593715 -0.0021651795 0.0011421018
-0.0025000002 0.0028315031 0.0011474539
-5.7744444e-05 0.0050965887 0.00117249
0.0019209348 0.0050971792 0.0011714675
0.0019666729 -0.0021506792 0.0011982815
0.0018974281 -0.0021412682 0.0011998252
0.0023121543 -0.0025168057 0.0012095501
-0.0014411012 -0.0021387998 0.0012057842
-0.0011478316 -0.0021181253 0.0012435035
-0.0018813871 -0.0020808349 0.0012921041
0.00046660897 0.0020774177 0.0012965578
0.0013667367 0.0050248369 0.0012967684
0.0017079257 0.0020696127 0.00130673
-8.5286803e-05 0.0050160526 0.001311983
0.0025000002 -0.0034250815 0.0013207482
-0.00074339448 -0.0020555302 0.0013250839
-0.00051503343 -0.0020386034 0.0013471446
0.00043333281 0.0049982267 0.0013428583
0.0018647522 -0.0019981305 0.0013998931
-0.0014647066 0.0020028276 0.0013937714
0.0016135507 0.004966829 0.0013972404
0.0025000002 0.0046017678 0.0014025783
-0.0025000002 0.0026887313 0.0014120977
-0.00089131587 -0.0049523329 0.0014222892
0.0011880721 0.0019814554 0.0014216257
0.001645964 0.0049421913 0.0014399141
-0.00065515365 -0.0019602533 0.0014492586
0.00028924883 -0.0049311025 0.0014591281
0.0012135237 -0.004931089 0.0014591438
0.0025000002 0.0045894063 0.0014679414
0.0015509296 -0.0019158433 0.001507138
-0.0013038981 0.0019076503 0.0015178161
0.0010647733 0.0019091622 0.0015158454
-0.0011816847 0.0019008077 0.001526734
-0.00011809892 0.0019012047 0.0015262169
-0.0023778351 -0.0024033184 0.0015548645
-0.00021201647 -0.0018815964 0.0015517718
-0.00089356856 0.0048682583 0.0015679568
0.00051558571 0.0048697256 0.0015654288
-0.0023775192 0.004851758 0.001596463
0.0025000002 0.0026464728 0.0016125529
0.0025000002 0.0029153111 0.0016280627
0.0025000002 -0.0043062479 0.0016366906
0.0014944816 0.0018173798 0.0016354657
-0.0025000002 0.0026534335 0.0016352548
-0.0016170121 -0.0017990752 0.0016593218
0.0023481222 0.0022856703 0.0016597802
0.0025000002 0.004705749 0.0016616366
0.0013765065 -0.0048089083 0.001670768
0.0025000002 -0.0047004232 0.0016763052
-0.0017790011 -0.0047946032 0.0016954702
0.0024536408 0.0023901488 0.0016954766
0.0025000002 0.0045736758 0.0016960114
-0.0024358446 0.0047790059 0.0017042417
0.0011443066 -0.0017589562 0.0017116092
0.00038771308 -0.0047765835 0.0017267866
-0.00090065313 0.0047794045 0.0017218479
-0.00056585291 0.0047749197 0.001729634
0.0025000002 0.0040369313 0.0017366863
-0.00089323591 -0.0017142798 0.0017569071
-0.00059422915 -0.0017175112 0.0017544277
0.0025000002 0.0047095693 0.0017520601
2.5521816e-05 0.0047620595 0.0017519119
0.0019797666 0.0047503081 0.0017722653
-0.0010991589 -0.0016728087 0.0017887274
-0.0014782463 -0.0047333497 0.0018015702
0.0025000002 0.0031950669 0.0018189923
-0.0013480716 0.004723364 0.0018188818
-0.0023383414 0.0021458324 0.0018260687
-0.00042165132 0.0047164434 0.0018309212
-0.00063945749 -0.0047013676 0.0018570161
0.00029664661 -0.0046998407 0.0018597076
0.0025000002 -0.00362525 0.0018711612
-3.1519714e-05 -0.0015615611 0.0018740853
0.0012507681 -0.001560188 0.0018751391
-0.0023080567 0.00207181 0.0018732055
-0.00231905 -0.0020731397 0.0018893757
0.00068421365 0.0015484556 0.001884141
-0.0025000002 0.0042249253 0.0018922316
0.00067632803 0.0015214212 0.0019048841
-0.0019929172 0.0046754004 0.0019019305
-0.001433174 0.0046668379 0.0019167772
-0.0025000002 -0.0037370694 0.0019395333
-0.0024346756 -0.0046513062 0.0019436545
-0.00096797233 0.0046524112 0.0019417909
-0.0001715098 -0.0014476218 0.001961509
0.00078788749 0.0014225929 0.0019807129
-0.0025000002 0.0037398876 0.002034483
0.0025000002 0.0024818166 0.0020455255
-0.0025000002 -0.0031450063 0.0020565826
-0.0025000002 -0.0031226799 0.0020523595
-0.00085972983 -0.0045762202 0.0020737899
0.0019238866 0.0012949057 0.0020786854
0.0025000002 0.0025137668 0.0020712924
-0.00061045925 -0.0012385781 0.0021219044
0.0017058594 -0.0012330973 0.00212611
0.0025000002 0.0024309813 0.0021320994
-0.0025000002 -0.0021406615 0.0021664775
0.0019882969 -0.0045155827 0.0021788212
0.0016878761 -0.0011291904 0.0021705276
0.0014845494 0.0045161336 0.0021778685
0.0012250559 -0.0010939847 0.0021851112
-0.00028264287 -0.0045038862 0.002199125
-0.00030378098 -0.0010454024 0.0022052357
0.00081214303 -0.0010476258 0.0022043148
0.00099241897 -0.0010404226 0.0022072983
0.001435394 -0.0010410446 0.0022070406
0.0024438393 -0.0019138128 0.0022103433
0.0025000002 0.003623771 0.0022132515
-0.00050428096 0.0010051603 0.0022219054
-0.0010303793 0.0009662899 0.0022380068
-0.0011230749 0.00091439288 0.0022595045
0.00075189595 0.0009161146 0.0022587914
-0.0025000002 0.0033417642 0.0022555187
-0.0012188677 -0.0044610705 0.002273232
0.00030994572 0.00086783484 0.0022787903
-0.0015230345 0.0044597187 0.0022755102
0.0013044 -0.00079888984 0.0023073498
-0.0016485449 0.00077291077 0.0023181112
0.00035358663 -0.0044178362 0.0023481238
-0.0025000002 0.0033206255 0.0023421065
-0.00057618908 -0.00067527749 0.0023585542
-0.00081533281 0.0006821017 0.0023557276
0.00058588258 0.0006870529 0.0023536764
0.0021152494 -0.0010705094 0.0023630699
0.00093117368 -0.00066048134 0.0023646832
-0.0001979767 0.00061167736 0.0023779429
0.0020287724 0.00081149756 0.0023775483
-0.00013023389 -0.00053262187 0.0023883544
-0.00076952664 0.00052462483 0.0023894077
0.0025000002 0.0042017619 0.0023819015
0.0025000002 -0.0041721459 0.0023964469
-0.001279732 -0.00046236769 0.0023976066
-6.4226573e-05 -0.00045894377 0.0023980576
0.0006988711 -0.0043858523 0.0024035219
-0.0023564044 -0.0015116432 0.0024096973
0.00096329214 0.00039432195 0.0024065685
-0.0015076149 0.00041223463 0.0024042092
-0.0021542464 0.0010808905 0.0024006239
-0.0025000002 -0.0033505014 0.0024129006
-0.00082493032 0.00025577631 0.0024248147
0.0024735751 -0.0016638618 0.0024393236
-0.00059930881 0.00014273435 0.0024397022
-0.00045228287 0.00019652951 0.0024326174
0.00064383476 0.0001046047 0.0024447236
-0.0025000002 0.0037249257 0.0024479609
-0.0014457263 -0.0043586446 0.0024506438
0.0025000002 0.0024595375 0.0024533749
-0.0025000002 0.0035597568 0.0024586392
-0.002314514 0.0013309546 0.0024690484
0.0020853695 -0.00073343172 0.0024706302
0.0025000002 -0.0025438529 0.0024841249
0.0022492907 -0.0011141704 0.0024888462
-0.0022655237 0.001148467 0.0024920614
-0.0025000002 0.0034274138 0.0024918527
-0.0025000002 0.00359962 0.0024925533
-0.0021411334 0.00079447927 0.0025051914
0.00087996415 -0.0043190452 0.0025192343
-0.0022183009 -0.00097516039 0.0025131686
0.002457459 0.0043091555 0.0025363639
-0.0014797226 0.0043008323 0.0025507102
0.0025000002 -0.0025954442 0.0025633087
-0.0021103041 -0.00036547144 0.002562172
-0.0012742697 -0.0042841854 0.0025796446
-0.0024680672 0.0014816853 0.002571414
-0.0025000002 -0.0039434079 0.0026045849
0.0025000002 -0.0029714052 0.002601702
-0.0021759267 0.00057051453 0.0026008165
-0.0025000002 0.00176735 0.0026106492
-0.0025000002 0.0027698723 0.0026144381
0.0023924543 -0.0042575705 0.0026257124
0.0025000002 -0.0030586736 0.0026280598
-0.00026616635 0.0042570662 0.002626552
0.00021720899 0.0042582876 0.0026244628
0.0025000002 0.0023348557 0.0026354974
-0.0025000002 -0.0031553465 0.0026445496
-0.0015102779 -0.0042343503 0.002665953
0.0022012386 0.00011772441 0.0026857443
0.0019686166 0.004221695 0.0026878498
0.00078468124 -0.0042159031 0.0026978822
-0.0025000002 -0.001863807 0.0026903783
0.0024794419 -0.0011813126 0.0027080476
0.0022661057 -0.00044316705 0.0027077552
-0.00017600668 -0.0042046225 0.0027174314
0.002452739 -0.0010840601 0.0027196738
-0.0024811402 0.0041941288 0.0027304464
-0.0025000002 -0.0012492219 0.002758452
-0.0025000002 0.0016118847 0.0027517024
0.0025000002 -0.00215614 0.0027638681
0.0022902151 -0.00021443749 0.002761974
-0.0024582399 0.00096980593 0.0027729059
-0.001336897 -0.0041633537 0.0027889549
0.00085247605 -0.0041647637 0.0027864578
-0.0024228985 -0.00082168618 0.0027963319
-0.00098594872 -0.0041543073 0.0028046209
0.002430761 0.0041512782 0.0028098153
-0.0024457008 -0.00084600761 0.0028107294
0.0015976414 -0.0041349381 0.0028381175
0.0024887223 -0.00075233547 0.0028897016
-0.00030018939 0.0041075768 0.0028854595
0.0024571575 -0.00038665562 0.0029062636
0.00073116325 0.0040987846 0.0029007366
-0.0024749194 -0.00048366428 0.0029112592
0.0025000002 -0.0022459864 0.0029249319
0.0025000002 0.001557507 0.002923372
0.0025000002 0.0018542979 0.0029314163
0.0024493807 2.7686492e-05 0.0029457367
0.0010386029 0.0040714587 0.0029480669
0.0025000002 0.0034275532 0.0029550551
-0.0015530089 0.0040651616 0.0029589036
-0.0008796847 -0.0040415959 0.002999827
-0.0025000002 -9.1526868e-05 0.0029993379
-0.0025000002 0.0023007868 0.0029963553
0.00057764398 0.004045032 0.0029938342
0.0010091441 0.0040304824 0.0030190398
-0.0025000002 -0.0031068628 0.00302856
-0.0025000002 -0.0021547242 0.0030456281
-0.0025000002 -0.0018175649 0.0030452649
0.00030923428 -0.0039923373 0.0030851089
0.00038034245 -0.003993806 0.0030825655
0.0011152779 -0.0039674058 0.0031282916
-0.0025000002 -0.0026210605 0.0031465534
0.0024458859 0.0039575943 0.0031452859
0.0024999999 0.00034899815 0.0031546948
-0.0025000002 -0.0022603725 0.0031762368
-0.0025000002 -0.00066529948 0.0031836496
0.00070497056 -0.0039281715 0.0031962474
-0.0025000002 -0.0025133663 0.0032200196
0.0025000002 -0.0016701521 0.0032303154
0.0023918601 0.0039069271 0.0032330435
0.0025000002 -0.0024266809 0.0032415853
-0.0025000002 0.0028423578 0.0032426959
0.00054387312 0.0038998609 0.0032452627
0.0025000002 0.0015079877 0.0032524101
-0.0025000002 -0.0020705662 0.0032627955
-0.0025000002 0.0012601659 0.0033047516
-0.0020179544 0.003863801 0.00330775
0.0017806444 -0.0038599027 0.0033144923
-0.0025000002 0.0034937994 0.0033105616
-0.0013106531 0.0038488682 0.0033335777
0.0025000002 -0.0029174271 0.0033459074
0.00017843593 0.003830414 0.0033655276
0.0025000002 0.0033053886 0.00338762
-8.2639221e-05 -0.0038143646 0.0033933669
-0.0009182255 0.0038097065 0.0034013947
0.0025000002 -0.0016941136 0.0034199252
0.0009704227 -0.0037792518 0.0034541839
0.0025000002 -0.0026984273 0.0034896927
0.0025000002 0.0025062892 0.003482898
0.00041266897 0.0037553585 0.0034955316
0.0019719426 -0.0037503731 0.0035042034
0.0025000002 -0.0025955043 0.0035006509
-0.0022609551 -0.0037439307 0.0035154391
0.0025000002 0.0029354459 0.0035122803
0.0025000002 -0.0032072987 0.0035278243
-0.0025000002 -0.0030246149 0.0035275533
0.0025000002 0.00028206542 0.0035220592
0.0012392021 -0.0037272584 0.0035442389
0.0025000002 0.0023338471 0.0035433965
0.0006434216 -0.0037105323 0.0035732093
-0.0025000002 -0.0015868848 0.0035794033
0.0025000002 -0.0034510056 0.0036163549
-0.0025000002 0.000156347 0.0036104738
0.001081725 0.003685412 0.0036167086
0.002369202 -0.0036826984 0.003621419
-0.0025000002 -0.0017390619 0.0036297387
-0.0024239102 0.0036299536 0.0036272544
0.0025000002 0.0020518641 0.0036492068
0.0025000002 0.0023371687 0.0036480795
0.0025000002 -0.00089008163 0.0036766632
-0.00014521337 -0.0036328903 0.0037076888
-0.0018101481 0.0036358871 0.0037025569
-0.0025000002 -0.0031993748 0.0037377945
0.0025000002 -0.0002990237 0.0037316901
-0.0025000002 -0.00017478745 0.0037300412
0.0011352362 -0.0036110939 0.0037454413
-0.0025000002 -0.00058303634 0.003746931
-0.0025000002 0.00048889394 0.0037592568
-0.0025000002 0.0020625654 0.0037542016
-0.0025000002 -0.0016822303 0.0037885716
-0.0012127808 0.0035871069 0.0037870251
0.0025000002 -0.00072687439 0.0037954391
-0.0025000002 -0.00062713755 0.0037942915
0.0024631186 0.0035824019 0.0037951376
-0.0024999999 -0.002355186 0.0038338022
-0.0004333593 0.0035617168 0.0038309642
-0.0025000002 0.0030332068 0.0038502347
-0.0025000002 -0.0025114405 0.0038754002
-0.0024999999 -0.0023514142 0.0038800158
-0.0025000002 0.0019063808 0.0038982972
-0.0025000002 0.0021483696 0.0039099525
-0.0025000002 0.0029845857 0.0039061746
-0.00094876566 0.0035147341 0.0039123828
-0.00088745449 0.0035128361 0.0039156666
0.0017512202 0.0035057685 0.0039278711
-0.00029639507 0.0034646294 0.0039991424
0.0015504619 -0.0034593074 0.0040083439
-0.0025000002 -0.00053217745 0.0040110708
0.0025000002 0.0034141145 0.004019849
0.0025000002 0.0005750166 0.0040611201
0.00010934914 -0.0034232163 0.0040708547
0.0025000002 0.0022583338 0.0040925858
0.00064132269 0.0034080241 0.004097146
0.00070037355 0.0034069577 0.0040989895
-0.0025000002 0.00099428685 0.0041182595
0.0014738967 0.0033685085 0.0041655949
0.0025000002 0.00024298026 0.0041922717
-0.0024121113 0.0029087591 0.004206677
0.0025000002 -0.0015708118 0.0042188689
0.0019582997 -0.0033327048 0.0042276252
0.0012977865 0.003331356 0.0042299405
-0.0011336199 0.0033264288 0.0042385436
-0.0025000002 0.00082921522 0.0042523448
0.0025000002 -0.0023881835 0.0042655584
0.0025000002 -0.00098229479 0.0042786147
-0.0022507363 -0.003264264 0.0042832922
-0.0025000002 -0.0025070899 0.0042837472
0.0025000002 0.0002431922 0.0042975503
-0.0022070666 -0.0032898318 0.0043019257
-0.0025000002 -0.0022886477 0.004325639
0.0022057025 0.0032688447 0.0043382342
-0.0016904901 0.0032717469 0.0043332484
0.0022903339 0.0032584134 0.0043563019
0.0025000002 -0.0029669795 0.0043982482
-0.0025000002 -0.0008302069 0.0044275965
-0.0025000002 -0.0021098754 0.0044328691
-0.0025000002 0.00096051977 0.0044736648
-0.0024937778 0.002172539 0.0044773053
0.0025000002 0.0012578504 0.0044834167
0.0020786612 -0.0031731531 0.0045039766
0.0025000002 0.0018997043 0.0045124777
0.0025000002 -0.0030012135 0.0045255437
0.0025000002 -0.00014445496 0.0045425096
-0.0024999999 -0.0001326389 0.0045600836
0.0025000002 -0.0030691875 0.0045720609
0.00132475 -0.0031071964 0.0046182177
0.0025000002 -0.00059046521 0.0046393694
0.0025000002 0.00063662388 0.0046343976
-0.00029733003 -0.0030936636 0.0046416568
-0.0022336217 0.0028264539 0.0046561882
-0.0019403821 -0.0030774479 0.004669751
0.0011409958 -0.0030559869 0.0047069145
0.0016700666 -0.0030560126 0.0047068703
0.0015858003 0.0030509746 0.0047156122
-0.0022566796 -0.0026468749 0.0047215666
0.0025000002 0.00063994294 0.0047339564
0.00034920301 0.0030272615 0.0047566816
-0.0012120375 -0.003023233 0.0047636465
0.0021091835 0.0030251327 0.0047603496
-0.00036503834 -0.0030080236 0.0047899894
0.0025000002 -5.9162499e-05 0.0047866739
0.0025000002 0.00081093464 0.0047889883
0.0024991254 0.0030120041 0.0047830958
-0.0023391559 -0.0019768043 0.0048458325
0.0025000002 0.0015267283 0.0048423512
0.0010051933 0.0029637807 0.0048666266
0.0025000002 -0.001464938 0.0049013156
0.0025000002 -0.00082403613 0.0049261791
-0.0021623583 0.0025761472 0.0049261441
-0.0024842373 -0.00070656254 0.0049342788
-0.0011664567 -0.0029166914 0.0049476894
0.00049598631 0.0028785437 0.0049768877
0.0014758634 -0.002864368 0.0049840175
-0.0024307887 0.00099181756 0.0049893362
7.0994618e-05 -0.0028408563 0.0049937861
0.0022608151 -0.0028021 0.0049999999
0.0025000002 -0.0027768302 0.0049914722
-0.00013933338 -0.0027938958 0.0050000004
-0.00094452943 -0.0027587044 0.0050000004
0.0021549538 -0.0027103103 0.0050000004
-0.0020868352 -0.002691969 0.0050000004
-0.0016763692 -0.0026842882 0.0050000004
0.00061573682 -0.0021787402 0.0050000004
-0.00083581533 -0.0017637759 0.0050000004
-0.0010366524 -0.0017158684 0.0050000004
-0.00058993185 -0.0017100826 0.0050000004
0.00094226253 -0.0012679151 0.0050000004
0.0002275281 -0.0012229605 0.0050000004
-1.4484525e-05 -0.0010415321 0.0050000004
-0.00055867032 -0.00086801371 0.0050000004
0.0022280165 -0.0008133098 0.0050000004
0.002205319 -0.00079017394 0.0050000004
0.0011110433 -0.00072115602 0.0050000004
0.0012997552 -0.00071993185 0.0050000004
0.00094915624 -0.00070603041 0.0050000004
-0.00032863559 -0.00060802657 0.0050000004
-0.00033113098 -0.00057275209 0.0050000004
0.0011412079 -8.5812571e-05 0.0050000004
-0.00032046784 0.00012114549 0.0050000004
-0.0018129047 0.00028342969 0.0050000004
0.00042104413 0.00051240256 0.0050000004
-0.0007601793 0.00052698737 0.0050000004
0.00071371376 0.00052658131 0.0050000004
-0.0011475149 0.00060325023 0.0050000004
0.0021016472 0.00068685919 0.0050000004
0.00037602658 0.00069151144 0.0050000004
0.0010302851 0.00070213916 0.0050000004
-0.00079479435 0.0008041691 0.0050000004
-0.00096255675 0.00093037897 0.0050000004
0.0014994758 0.00095128134 0.0050000004
-0.0021256132 0.0010043436 0.0050000004
-0.00063805515 0.0011562343 0.0050000004
-0.0012456981 0.001260802 0.0050000004
0.00064177962 0.001420969 0.0050000004
-0.0020299198 0.0014671464 0.0050000004
-0.0020231395 0.0016137486 0.0050000004
-0.0022112469 0.0016364533 0.0050000004
0.0022345984 0.0016343384 0.0050000004
-3.245303e-05 0.0017324467 0.0050000004
0.00056471507 0.0017810561 0.0050000004
-0.00090547372 0.0018231254 0.0050000004
0.0019251899 0.0018271906 0.0050000004
-0.00093972177 0.0018506934 0.0050000004
-0.0014732679 0.00187843 0.0050000004
0.0014521212 0.0018705444 0.0050000004
-9.5859024e-05 0.0019142596 0.0050000004
0.0012975887 0.00206769 0.0050000004
-9.9062599e-05 0.0024207206 0.0050000004
-0.00120839 0.0024308378 0.0050000004
0.00010241324 0.002454537 0.0050000004
0.0011095513 0.0025360624 0.0050000004
0.0016385613 0.0025704519 0.0050000004
0.0018719407 0.0026430723 0.0050000004
0.0020491232 0.0026724483 0.0050000004
