# .PCD v0.7 - Point Cloud Data file format
VERSION 0.7
FIELDS x y z
SIZE 4 4 4
TYPE F F F
COUNT 1 1 1
WIDTH 1000
HEIGHT 1
VIEWPOINT 0 0 0 1 0 0 0
POINTS 1000
DATA ascii
3.7208083e-05 3.2662119e-05 -0.0057457238
-0.0011537677 -6.8287314e-05 -0.0057341
0.0017182522 -6.7751054e-05 -0.0057344101
0.0022816807 -6.6919943e-05 -0.0057348902
-0.0012093241 -8.6690925e-05 -0.0057234741
0.0016621589 0.00013446617 -0.0056958925
0.00085802755 -0.00014685387 -0.0056887367
0.00095262023 -0.00017478083 -0.0056726118
0.00049348682 -0.00023671058 -0.0056368546
-0.0017096652 -0.00026608637 -0.0056198933
0.002327966 0.00030511097 -0.0055973707
0.0024999999 0.00019794052 -0.0055830316
0.0018940934 0.00045284446 -0.0055120764
0.0009218817 0.00046812906 -0.0055032521
0.00040159811 -0.00049663405 -0.0054867775
0.0012382776 -0.00053056859 -0.0054671895
0.00087777176 0.00055680162 -0.0054520573
0.00036593975 0.00056823442 -0.0054454566
-0.0010654734 -0.00059326418 -0.0054309848
0.0021017129 -0.00070933695 -0.005363991
0.0019099429 -0.00073872175 -0.0053470251
-0.00050095579 0.00077779335 -0.0053244676
-0.00040761806 -0.00090255711 -0.0052524055
-0.0001258719 -0.00090067653 -0.0052534943
0.0019072694 -0.00089303619 -0.0052579315
-0.0023119336 0.00055117719 -0.0052532181
-0.00056308188 0.00089338253 -0.0052577322
0.0006795011 0.00094620953 -0.0052272328
-0.00022944929 -0.00099205587 -0.0052007353
0.00039880731 -0.00097709615 -0.0052093784
-0.00011192125 0.0010447609 -0.0051703337
0.0022927176 0.0010409354 -0.0051725418
-0.00085263688 -0.0010971897 -0.0051400298
-0.00051436317 0.001086781 -0.0051460732
0.00083292002 -0.001138701 -0.0051161023
-0.0021448855 0.0013239178 -0.0050091208
-0.00089131581 -0.0014222888 -0.0049523329
-0.0019625407 0.0014227886 -0.004952041
-0.0017669505 0.0014261344 -0.004950115
0.0020004159 0.0014343545 -0.0049454016
0.00028924871 -0.0014591279 -0.0049311025
0.0012135234 -0.0014591436 -0.004931089
0.0024999999 -0.0005975893 -0.0049193823
-0.00065184402 0.0014860702 -0.0049155434
0.00032457089 0.0014887966 -0.0049139694
-0.0018250666 0.0015073767 -0.0049032057
0.0018153365 0.0015474354 -0.0048801145
-0.00010939151 0.001599511 -0.0048500481
0.0016962491 0.0015951245 -0.0048525808
-0.0022129349 0.0016511159 -0.0048202062
0.0013765063 -0.0016707679 -0.0048089083
0.0024999999 0.00087487407 -0.0048061288
-0.0017790009 -0.0016954701 -0.0047946032
0.00038771308 -0.0017267865 -0.0047765835
0.0010546609 0.0017260963 -0.0047769644
0.0024999997 0.00045229823 -0.0047696466
-0.0014782463 -0.0018015698 -0.0047333497
-0.00063945749 -0.0018570159 -0.0047013676
0.0024999999 -0.0016763051 -0.0047004232
-0.0021011073 0.0018527363 -0.0047038021
0.00029664673 -0.0018597075 -0.0046998407
-0.0024325044 0.0018719505 -0.0046927053
-0.0024999999 -0.00047545697 -0.0046751332
-0.0024999999 -0.00011913562 -0.0046748547
-0.0024346753 -0.0019436543 -0.0046513062
0.0025000002 -0.0011458079 -0.0046330052
-0.0024999999 0.0014987221 -0.0046261284
-0.00083992601 0.0020057501 -0.0046154861
0.0024999999 0.00051254587 -0.004605961
-0.0024999999 0.00015819455 -0.0045967563
-0.00085972977 -0.0020737895 -0.0045762202
-0.0018847667 0.0020805292 -0.0045722877
-0.0024999999 0.0017894348 -0.0045296461
0.0019882969 -0.0021788212 -0.0045155827
-0.00028264272 -0.0021991245 -0.0045038862
0.0024999999 0.00082396966 -0.0045081545
-0.00085679366 0.0021930551 -0.0045073396
-0.00061181834 0.0022460367 -0.0044767568
-0.0012188678 -0.0022732315 -0.0044610705
0.00035358645 -0.0023481238 -0.0044178362
0.0024999999 0.00077699416 -0.0043955515
0.0006988711 -0.0024035217 -0.0043858523
-0.0014457261 -0.0024506436 -0.0043586446
-0.0023605954 0.002449275 -0.0043593883
0.00087996403 -0.0025192343 -0.0043190457
0.0024999999 -0.0016366905 -0.0043062479
-0.0012742694 -0.0025796441 -0.0042841858
-0.0024999999 0.0013600665 -0.0042815232
0.0024999999 0.0014138873 -0.0042726891
0.0023924538 -0.0026257122 -0.0042575705
-0.0024999999 0.0014176259 -0.0042500612
0.00080273289 0.0026425426 -0.0042478535
-0.0015102776 -0.0026659528 -0.0042343503
-0.0024999999 0.0019251687 -0.0042389408
0.00078468118 -0.002697882 -0.0042159036
-0.00017600668 -0.0027174312 -0.0042046225
0.0024999999 -0.0023964469 -0.0041721463
0.0024999999 0.00099504774 -0.0041706376
-0.0018536628 0.002768086 -0.0041753273
-0.0013368971 -0.0027889544 -0.0041633542
0.00085247593 -0.0027864578 -0.0041647637
-0.00098594849 -0.0028046209 -0.0041543073
-0.00026671746 0.0027999491 -0.0041569499
-0.0024999999 0.0012159491 -0.0041497624
-0.00079281902 0.0028257342 -0.0041420544
0.0015976413 -0.0028381173 -0.0041349386
-0.0021411527 0.002847428 -0.0041295313
-0.00087968446 -0.002999827 -0.0040415959
-0.00059321465 0.0030000291 -0.0040414268
0.0024999999 0.00066226738 -0.0040290104
0.00030923422 -0.0030851089 -0.0039923377
0.00038034245 -0.0030825655 -0.003993806
0.0011152778 -0.0031282916 -0.0039674058
-0.0024999999 0.0028149339 -0.0039510569
-0.002478472 0.0030509154 -0.0039539947
0.00053835649 0.0031509474 -0.0039543165
-0.0024999999 -0.0026045844 -0.0039434079
0.0007049705 -0.0031962474 -0.0039281715
-0.0024999997 -6.1264043e-05 -0.0038998616
0.0014068562 0.0032458799 -0.0038995163
-0.0024999999 0.0022120201 -0.0038876988
0.0017806443 -0.0033144921 -0.0038599027
0.0024999999 0.00015527457 -0.0038446076
0.0024999999 0.00044273378 -0.0038470665
0.001177982 0.0033745898 -0.0038252054
-8.2639104e-05 -0.0033933667 -0.0038143646
0.0024999999 -0.00074392842 -0.0037889676
0.00097042258 -0.0034541839 -0.0037792518
0.0013774077 0.0034817376 -0.0037633437
0.0019719426 -0.0035042034 -0.0037503731
-0.0022609551 -0.0035154391 -0.003743931
-0.0024999999 -0.0010185975 -0.0037469659
-0.0024999999 -0.0019395333 -0.0037370699
0.00016824008 0.0035249048 -0.0037383973
0.001239202 -0.0035442389 -0.0037272589
-0.0003318291 0.0035401843 -0.0037295711
0.00064342155 -0.0035732093 -0.0037105323
-0.0024999999 0.0028717457 -0.0036916912
-0.0013985801 0.0035986137 -0.0036958759
0.0023692017 -0.0036214187 -0.0036826988
0.0024999999 -0.00075353414 -0.0036697581
-0.0012848063 0.0036548034 -0.003663436
-0.0025000002 0.00021426441 -0.0036422119
-0.00014521343 -0.0037076888 -0.0036328908
0.0024999999 -0.001871161 -0.0036252502
0.0024999999 -4.2101943e-05 -0.003622917
0.0011352361 -0.0037454413 -0.0036110939
0.0024999999 0.003353704 -0.0036068326
0.0024999999 0.00050682772 -0.0035980742
-0.0016396645 0.0038034488 -0.0035776405
-0.0024999999 0.0019888054 -0.0035349433
-0.0024999999 0.0016157177 -0.0035135332
-0.001688452 0.0039143772 -0.0035135988
-0.0024999999 0.0015817578 -0.0034934755
0.0020285067 0.0039591738 -0.0034876955
-0.0024999999 -0.00081364549 -0.0034717624
0.0024999999 0.0018957971 -0.0034686937
0.0015504616 -0.0040083439 -0.0034593074
0.0024999999 -0.0036163549 -0.0034510058
0.00042149462 0.0040169312 -0.0034543362
-0.00099277636 0.00403362 -0.0034447489
0.00075602683 0.0040368442 -0.0034428346
0.00010934925 -0.0040708547 -0.0034232165
0.0025000002 -0.0013207481 -0.0034250815
-0.0014771377 0.0041149468 -0.0033977919
-0.0024999999 -0.0024129006 -0.0033505014
0.0019582994 -0.0042276252 -0.003332705
-0.0024999999 -7.0639435e-05 -0.0033330517
0.0013651997 0.0042591654 -0.0033144839
0.0024999999 0.00091268448 -0.0033031902
-0.00088129536 0.0042977235 -0.0032922586
-0.0022070662 -0.0043019252 -0.0032898318
-0.0022507363 -0.0042832922 -0.0032642642
0.0016429847 0.0043478571 -0.00326328
-0.000136078 0.0043651899 -0.0032533044
0.0024999999 -0.00032056787 -0.0032390191
0.0024999997 0.0041633155 -0.0032292265
0.00043305912 0.0044283872 -0.0032168147
0.0024999999 -0.0035278243 -0.0032072989
-0.0024999999 -0.0037377945 -0.003199375
0.002078661 -0.0045039766 -0.0031731534
-0.0024999999 -0.0026445496 -0.0031553465
-0.0024999999 -0.0020565824 -0.0031450063
-0.0024999999 -0.00038274479 -0.0031328897
-0.0024999999 -0.0020523595 -0.0031226801
0.00060771761 0.004588624 -0.003124296
0.00018203534 0.0046018842 -0.0031166396
0.00132475 -0.0046182177 -0.0031071967
-0.0024999999 -0.0030285597 -0.0031068632
-0.0010068696 0.0046208096 -0.0031057124
-0.00029732997 -0.0046416568 -0.0030936638
0.0025000002 0.0032902081 -0.0030872717
-0.0011436248 0.0046638441 -0.0030808644
-0.0019403818 -0.004669751 -0.0030774481
-0.0024999999 0.00080392748 -0.0030765932
0.0024999999 -0.0045720609 -0.003069188
0.0011409955 -0.0047069145 -0.0030559874
0.0016700668 -0.0047068703 -0.0030560126
0.0024999999 -0.0026280596 -0.0030586738
-0.0023397747 0.0042488291 -0.0030579823
-0.0023165417 0.0043023722 -0.0030537369
0.0024999999 0.0022928198 -0.0030400783
-0.0012120374 -0.0047636465 -0.0030232333
-0.0024999999 -0.0035275533 -0.0030246149
-0.00036503829 -0.0047899894 -0.0030080238
0.0024999999 -0.0045255437 -0.003001214
0.0024999999 0.0035697222 -0.0029913362
0.0024999999 -0.002601702 -0.0029714054
0.0024999999 -0.0043982482 -0.0029669798
0.0024999999 0.0022881576 -0.0029696743
0.0009762547 0.0048916163 -0.0029493514
0.0024999999 0.0044266232 -0.0029358475
-0.0011664565 -0.0049476894 -0.0029166914
0.0024999999 -0.0033459072 -0.0029174273
-0.0020130542 0.0049553863 -0.0029066354
-0.00059722469 0.0049594627 -0.0029013092
-0.0024571195 -0.00059393153 -0.0028789446
0.0014758632 -0.0049840175 -0.0028643683
7.0994502e-05 -0.0049937861 -0.0028408568
0.0024999999 0.0020298541 -0.0028459036
0.0020261866 0.0049939966 -0.0028403508
0.0024999999 0.0026612871 -0.0028328635
0.0024999999 0.0010926134 -0.0028239749
0.0022608151 -0.0049999999 -0.0028021003
-0.00013933325 -0.0050000004 -0.002793896
-0.00071107014 0.0050000004 -0.0027875269
0.0024999999 -0.0049914722 -0.0027768305
-0.00094452919 -0.0050000004 -0.0027587048
0.0024999999 0.002154496 -0.0027418376
-0.0024988439 0.0011933405 -0.0027238892
0.0021549535 -0.0050000004 -0.0027103105
-0.001609043 0.0050000004 -0.0027077775
-0.002086835 -0.0050000004 -0.0026919693
0.0024999999 -0.0034896927 -0.0026984275
0.0024999999 0.0033637672 -0.0026922647
0.0021036703 0.0050000004 -0.0026934596
-0.001676369 -0.0050000004 -0.0026842884
-0.0024999999 0.0034962189 -0.0026886761
-0.0022899988 0.0046442272 -0.0026830113
0.0024999999 0.004852185 -0.0026867914
-0.0022566793 -0.0047215666 -0.0026468751
-7.639578e-05 0.0050000004 -0.0026376531
-0.0024999999 -0.0031465532 -0.0026210605
-0.0016035663 0.0050000004 -0.0026298731
0.0024999999 -0.0035006506 -0.0025955045
0.0025000002 -0.0025633085 -0.0025954447
0.0024999999 -0.0024841249 -0.0025438529
0.0023669412 0.0049999999 -0.0025493703
-0.0024999999 -0.0038754002 -0.0025114408
-0.0024999999 -0.0032200194 -0.0025133663
0.0023121538 -0.0012095498 -0.0025168057
-0.0020844003 0.0005117312 -0.002517008
-0.0024999999 -0.0042837472 -0.0025070901
-0.0024999999 0.0027456519 -0.0025095311
-0.0024346691 0.004448948 -0.0025062396
-0.00056148629 -4.0468356e-05 -0.0024531705
0.0017390044 -4.891778e-05 -0.0024520578
0.0010284787 3.1426109e-05 -0.0024543612
0.00022730799 -8.2677383e-05 -0.0024476114
-0.001016799 0.00021212774 -0.0024305631
0.0024999999 -0.0032415853 -0.0024266809
-0.00027524156 -0.00026963439 -0.0024229896
-0.001193285 -0.00021898083 -0.0024296604
0.00053703808 0.00026719001 -0.0024233114
-0.00036249543 -0.00033911975 -0.0024138384
-0.0023778349 -0.0015548645 -0.0024033184
0.0022327411 0.0012817489 -0.0024016669
-0.00038262631 0.0050000004 -0.0023963894
0.0024999999 -0.0042655584 -0.0023881837
0.0021027422 -0.0009968963 -0.0023801394
0.0024999999 0.0024590029 -0.0023881688
0.0024999999 0.0029848299 -0.0023878354
-0.001380624 -0.00059875572 -0.0023796444
-0.0008879457 0.00060398423 -0.0023789559
0.0012984539 0.0006388512 -0.0023736432
0.0020527188 0.00090705341 -0.0023636667
-0.0024999997 -0.0038800158 -0.0023514144
-0.0024999999 -0.0038338022 -0.002355186
0.0013435326 -0.00073823228 -0.0023324762
-0.001823196 0.0050000004 -0.00233231
-0.0024999999 0.0029430639 -0.0023281707
-0.0006599669 -0.00078491977 -0.0023131364
-0.0024999999 -0.004325639 -0.0022886479
0.00019710047 -0.00088183011 -0.0022729929
-0.00060408178 0.0050000004 -0.0022729624
0.00022907185 0.0050000004 -0.0022792283
-0.0024999999 -0.0031762368 -0.0022603727
0.0017625266 0.00090638787 -0.0022628203
0.0024999999 -0.0029249319 -0.0022459866
0.00059425714 -0.00094298879 -0.0022476588
0.0017306302 0.00097758672 -0.0022333274
-0.0024999999 0.0026333272 -0.0022394715
0.00061573664 -0.0050000004 -0.0021787405
0.0011074716 -0.001121563 -0.0021736871
0.0010593715 -0.0011421017 -0.0021651795
-0.0024999999 -0.0030456281 -0.0021547242
0.0024999999 -0.0027638681 -0.00215614
0.0019666727 -0.0011982814 -0.0021506792
-0.0024999999 -0.0021664775 -0.0021406615
0.001897428 -0.0011998252 -0.0021412682
-0.00039534856 0.0011979241 -0.0021420559
-0.0014411011 -0.001205784 -0.0021387998
-0.0011478314 -0.0012435034 -0.0021181253
0.0011289651 0.0012539984 -0.0021100731
-0.0024999999 -0.0044328691 -0.0021098757
-0.0018813871 -0.0012921041 -0.0020808349
-0.0023833304 0.0047183181 -0.0020862971
-0.0025000002 -0.0032627955 -0.0020705664
-0.00231905 -0.0018893757 -0.0020731397
-0.00074339443 -0.0013250838 -0.0020555302
-0.00083005981 0.0050000004 -0.0020445699
-0.00051503349 -0.0013471444 -0.0020386034
-0.0022763314 0.0049423622 -0.0020255963
-0.00064818613 0.0013947594 -0.0020020695
0.001864752 -0.001399893 -0.0019981305
-0.0023391559 -0.0048458325 -0.0019768043
-0.002314843 0.0048897238 -0.0019798148
-0.00065515359 -0.0014492584 -0.0019602533
-0.00065605651 0.0050000004 -0.0019605663
0.0024438391 -0.0022103433 -0.0019138128
0.0015509295 -0.0015071379 -0.0019158433
-0.00086350163 0.0015134262 -0.0019110187
0.00081536826 0.0015132336 -0.0019111662
0.0024999999 0.0032419711 -0.0019133075
-0.0023472097 0.0048635551 -0.0018977516
-0.00021201641 -0.0015517718 -0.0018815965
-0.0024999999 0.0040352414 -0.0018867356
0.00076168461 0.0015593132 -0.0018758102
-0.0024999999 -0.0026903783 -0.0018638071
0.0024999997 0.0042551756 -0.0018657447
0.0021227181 0.0050000004 -0.0018599408
0.0024999997 0.0025809961 -0.0018464328
-0.0024999997 -0.0030452649 -0.0018175649
-0.0016170121 -0.0016593217 -0.0017990753
-0.00083581527 -0.0050000004 -0.0017637762
0.0011443065 -0.0017116091 -0.0017589564
-0.00074922701 0.0017305601 -0.0017444154
0.0024136154 0.0023027458 -0.0017441862
0.0013033916 0.0050000004 -0.001744826
-0.0024999999 -0.0036297387 -0.001739062
-0.001871721 0.0050000004 -0.001738361
-0.0010366522 -0.0050000004 -0.0017158686
-0.00058993173 -0.0050000004 -0.0017100828
-0.00089323579 -0.001756907 -0.00171428
-0.00059422903 -0.0017544276 -0.0017175112
0.0024999999 0.0034375866 -0.0017016917
0.0024999999 0.0043491381 -0.0017076402
0.0024999999 -0.0034199252 -0.0016941136
-0.0024999997 -0.0037885716 -0.0016822305
0.0024999999 -0.0032303154 -0.0016701522
-0.0010991588 -0.0017887271 -0.0016728087
0.0024735748 -0.0024393236 -0.0016638619
0.0018134001 0.001795537 -0.0016639335
-7.0615711e-06 0.0017994491 -0.0016588349
0.0020385578 0.0019154906 -0.0016380036
-0.0020024935 0.0018927567 -0.0016088877
0.002381413 0.0023799946 -0.0015910843
-0.00049844233 0.0050000004 -0.0015922509
-0.0024999999 -0.0035794033 -0.0015868851
0.0024999999 -0.0042188689 -0.001570812
-0.0018583415 0.0050000004 -0.0015702096
-3.1519772e-05 -0.0018740853 -0.0015615613
0.0012507681 -0.0018751388 -0.0015601881
0.0024999999 0.0044718003 -0.0015696551
-0.0003664036 0.0018814181 -0.0015520046
0.0012320377 0.0018978401 -0.0015306018
0.0024999999 0.0041623744 -0.0015266045
-0.0023564044 -0.0024096973 -0.0015116433
0.0024999999 0.0045355954 -0.0015049209
0.00011367822 0.0019268082 -0.0014928472
-0.0020301535 0.0020109774 -0.0014998663
-0.0014764407 0.0050000004 -0.0014863366
-0.00051184231 0.0019390293 -0.0014769197
-0.0020564513 0.0050000004 -0.0014771255
0.0025000002 -0.0049013156 -0.001464938
0.0017516903 0.0019469542 -0.0014665909
-0.00017150988 -0.0019615088 -0.0014476221
-0.0011043109 0.0019668702 -0.0014406348
0.00061868149 0.0050000004 -0.0014364489
-0.0014507993 0.001998334 -0.0013996277
0.0011000647 0.0050000004 -0.0013255714
0.00094226236 -0.0050000004 -0.0012679155
-0.0018502696 0.0021078172 -0.0012569383
-0.0017382602 0.0050000004 -0.0012595033
0.00066935783 0.0050000004 -0.0012568535
-0.0024999999 -0.002758452 -0.001249222
-0.00035516068 0.0021142911 -0.0012485008
-0.0006104593 -0.0021219044 -0.0012385782
0.0017058593 -0.00212611 -0.0012330974
-0.00023113663 0.0021213426 -0.0012393104
0.0002275281 -0.0050000004 -0.0012229608
0.00087160186 0.0050000004 -0.0012219149
0.0024652737 0.0050000004 -0.0012217759
0.0024794417 -0.0027080476 -0.0011813127
-0.0012000416 0.0021558201 -0.0011646957
-0.0024999999 0.0046961498 -0.0011655601
-0.0024999999 0.0028026577 -0.0011547862
-0.0020959862 0.0050000004 -0.0011370876
0.0016878759 -0.0021705276 -0.0011291906
-0.00087086402 0.0021731781 -0.0011227921
0.0022492907 -0.0024888462 -0.0011141706
0.0012250558 -0.0021851112 -0.0010939847
-0.0024999999 0.0038528547 -0.0010923918
0.0024527386 -0.0027196738 -0.0010840602
0.0021152492 -0.0023630699 -0.0010705095
0.0024999999 0.0032268101 -0.0010740827
-0.00064014469 0.0050000004 -0.0010790044
-0.0024999999 0.0029506623 -0.0010673056
-0.0021944495 0.002454011 -0.0010561735
-1.4484644e-05 -0.0050000004 -0.0010415324
-0.00030378104 -0.0022052357 -0.0010454024
0.00081214291 -0.0022043148 -0.0010476258
0.00099241885 -0.0022072983 -0.0010404227
0.001435394 -0.0022070406 -0.0010410447
-0.0011258941 0.0022155591 -0.0010204803
-0.0024999999 0.0048095668 -0.0010211065
0.0017201728 0.0022261115 -0.00099500595
0.0024999999 -0.0042786147 -0.00098229514
-0.00050637301 0.0022284142 -0.00098944711
-0.0022183009 -0.0025131686 -0.00097516051
-0.0019322537 0.0022475363 -0.0009432846
-0.0024999999 0.0047588483 -0.00094212592
-0.001459409 0.0050000004 -0.00093635259
-0.001510207 0.0050000004 -0.00092445948
0.0024999999 -0.0036766632 -0.00089008181
0.00087046565 0.0022720024 -0.00088422146
-0.0005586702 -0.0050000004 -0.00086801394
-0.0012592853 0.0022817599 -0.00086066622
0.0012537332 0.0050000004 -0.00085331529
-0.0024457006 -0.0028107294 -0.00084600772
-0.0011777445 0.0022897583 -0.00084135699
-0.0024999999 -0.0044275965 -0.00083020714
0.0024999997 -0.0049261791 -0.00082403648
-0.0024228983 -0.0027963319 -0.00082168635
0.0022280165 -0.0050000004 -0.00081331021
0.002205319 -0.0050000004 -0.00079017418
0.0013043998 -0.0023073498 -0.00079888996
-0.0024999999 0.0048972857 -0.00078002131
-0.0011753408 0.0023223499 -0.00076267793
-0.0024999999 0.0040537198 -0.00076070096
-0.0006699388 0.0050000004 -0.00076316448
0.0024887221 -0.0028897016 -0.00075233559
-0.00064256921 0.0050000004 -0.00075043365
0.0024999999 0.0034016541 -0.00074922043
0.0020853695 -0.0024706302 -0.00073343178
0.0011110432 -0.0050000004 -0.00072115636
0.0024999999 -0.0037954391 -0.00072687445
0.0012997549 -0.0050000004 -0.00071993197
0.00094915624 -0.0050000004 -0.00070603064
-0.0024842368 -0.0049342788 -0.00070656277
0.00031255628 0.0050000004 -0.00069035141
-0.00057618902 -0.0023585542 -0.00067527755
-0.0024999999 -0.0031836496 -0.00066529971
0.00093117356 -0.0023646832 -0.00066048157
0.00068013399 0.0050000004 -0.00065218704
-0.0024579538 0.0028747278 -0.00063230935
-0.0014220204 0.0050000004 -0.00063022331
-0.0025000002 -0.0037942915 -0.00062713778
-0.00032863559 -0.0050000004 -0.00060802675
0.0024999999 -0.0046393694 -0.00059046556
-0.0024999999 -0.003746931 -0.00058303651
0.0018850637 0.0023821068 -0.00058005902
0.0024999999 0.0030404618 -0.00058671442
-0.00033113098 -0.0050000004 -0.00057275215
0.0024890499 0.0029160907 -0.00055432663
-0.0024999999 -0.0040110708 -0.00053217763
-0.00013023384 -0.0023883544 -0.00053262198
-0.0023428579 0.0050000004 -0.00053906406
-0.0024749192 -0.0029112592 -0.00048366436
-0.0012797319 -0.0023976066 -0.00046236778
-0.0013624857 0.0023976013 -0.00046241147
-6.4226631e-05 -0.0023980576 -0.00045894389
0.00025476588 0.0050000004 -0.00045190551
0.0022661057 -0.0027077552 -0.00044316717
0.0007868649 0.0023993545 -0.00044909609
-0.00044840493 0.0050000004 -0.00039147164
0.0024571575 -0.0029062636 -0.00038665571
-0.0021103041 -0.002562172 -0.00036547158
-0.00051807781 0.0050000004 -0.00035135986
0.0010331941 0.0050000004 -0.00034134329
0.0013423128 0.0024180631 -0.00030704227
0.0024999999 -0.0037316901 -0.00029902381
0.0022139717 0.0050000004 -0.00026299575
0.0022628675 0.0027290545 -0.0002567466
0.0022902151 -0.002761974 -0.00021443762
-0.0024736344 0.002949697 -0.00018185424
-0.0024999999 -0.0037300412 -0.00017478762
-0.0024999999 0.0045962208 -0.00016265977
0.0024999999 -0.0045425096 -0.0001444552
0.0017064291 0.0024387785 -0.00014974896
-0.0024999997 -0.0045600836 -0.00013263911
-0.0024999999 -0.0029993379 -9.1527007e-05
3.3720018e-05 0.0050000004 -9.1214424e-05
0.0011412078 -0.0050000004 -8.5812811e-05
-0.00071101222 0.0050000004 -7.9782549e-05
0.00029588552 0.0050000004 -6.638241e-05
0.0025000002 -0.0047866739 -5.9162619e-05
0.0013954248 0.0050000004 -4.3624997e-05
-0.0021199416 0.0050000004 -3.8420083e-05
0.0024999999 0.0035904176 6.8426134e-06
0.0024493805 -0.0029457367 2.7686365e-05
-0.0024999999 0.0032264912 3.0595878e-05
0.0021594453 0.0050000004 7.8084828e-05
0.0006438347 -0.0024447236 0.00010460459
-0.0018313865 0.0050000004 0.00010735521
0.0022012386 -0.0026857443 0.0001177243
-0.00098849589 0.0024436843 0.00011249926
-0.00032046784 -0.0050000004 0.00012114537
-0.0005993087 -0.0024397022 0.00014273424
-0.0024999999 -0.0036104738 0.00015634684
-0.0016323648 0.0024363629 0.00016809016
0.0024999999 0.0047764448 0.00018442345
-0.0020085908 0.0050000004 0.00018444599
-0.00045228293 -0.0024326174 0.00019652938
-0.00011904038 0.0050000004 0.00019650294
-4.4385495e-05 0.0024319836 0.00020134164
0.0024999999 -0.0042975503 0.0002431922
0.0024999999 -0.0041922717 0.00024298001
-0.0014567614 0.0024255917 0.00024987865
-0.00082493026 -0.0024248147 0.00025577616
-0.0024999999 0.0045173015 0.00026407291
-0.0018129045 -0.0050000004 0.00028342943
0.0024999999 -0.0035220592 0.00028206527
0.0024999999 -0.0031546948 0.00034899803
0.00096329203 -0.0024065685 0.00039432186
-0.0015076147 -0.0024042092 0.00041223454
0.00013261021 0.0050000004 0.00041847053
-0.0025000002 -0.0037592568 0.00048889377
0.00042104407 -0.0050000004 0.00051240233
-0.00076017925 -0.0050000004 0.00052698731
0.00071371376 -0.0050000004 0.00052658096
-0.00076952664 -0.0023894077 0.00052462472
0.0019919926 0.0050000004 0.00053427281
0.0024999997 -0.0040611201 0.00057501637
-0.0021759267 -0.0026008165 0.00057051441
-0.00015469623 0.002382857 0.00057436514
-0.0013444673 0.0050000004 0.00059319584
-0.0011475147 -0.0050000004 0.00060325
0.00059451314 0.0023787343 0.00060567009
-0.00019797664 -0.0023779429 0.00061167718
-0.0024999999 0.0045838756 0.00062261405
0.0024999997 -0.0047339564 0.00063994265
0.0024999997 -0.0046343976 0.00063662365
-0.0024999999 0.0041262661 0.00063745584
-0.0024901878 0.0049315724 0.00064880314
0.0021016472 -0.0050000004 0.00068685907
-0.00081533275 -0.0023557276 0.00068210158
0.00058588252 -0.0023536764 0.00068705279
0.00037602658 -0.0050000004 0.0006915112
0.001030285 -0.0050000004 0.00070213893
0.00019636522 0.002340297 0.00071935216
-0.00016115165 0.0050000004 0.00073585263
0.0025000002 0.0037982385 0.00075451395
-0.0016485449 -0.0023181112 0.00077291066
-0.0021411332 -0.0025051914 0.00079447916
-0.00079479435 -0.0050000004 0.00080416881
0.0024999999 -0.0047889883 0.00081093446
0.0020287724 -0.0023775483 0.00081149739
-0.0024999999 -0.0042523448 0.00082921499
0.0024999999 0.0033510937 0.00082837633
0.00030994561 -0.0022787903 0.00086783478
0.0015706229 0.0050000004 0.00087532273
-0.0011230748 -0.0022595045 0.00091439282
0.00075189589 -0.0022587914 0.00091611437
-0.00096255669 -0.0050000004 0.00093037856
0.0014994756 -0.0050000004 0.00095128117
-0.00089187763 0.0050000004 0.00095122639
-0.0024999999 -0.0044736648 0.0009605196
-0.0024582397 -0.0027729059 0.00096980575
-0.0010303793 -0.0022380068 0.00096628984
0.00095643516 0.0022312638 0.00098256837
0.0018081603 0.0022302466 0.00098502391
-0.0024307885 -0.0049893362 0.00099181733
-0.0024999999 -0.0041182595 0.00099428662
-0.0021256129 -0.0050000004 0.0010043434
-0.00050428091 -0.0022219054 0.0010051602
0.001618311 0.0050000004 0.0010086008
-0.0024999999 0.0045621968 0.0010181987
0.0024999999 0.0031842736 0.0010281116
-0.001193643 0.0050000004 0.0010523219
-0.0021542462 -0.0024006239 0.0010808904
0.0020709273 0.0023061971 0.0010929682
-0.00071556418 0.0049999999 0.0011030098
-0.0024215891 0.0049891886 0.0011140021
0.0024999999 0.0027769005 0.0011246386
-0.002265523 -0.0024920614 0.0011484668
-0.00063805497 -0.0050000004 0.0011562339
-0.0024473465 0.0026648189 0.0012025132
0.0024999999 0.0042842524 0.0012193356
0.0023543986 0.0050000004 0.001246076
0.0024999999 -0.0044834167 0.0012578502
-0.0002306707 0.0050000004 0.0012589633
-0.001245698 -0.0050000004 0.0012608018
-0.0024999999 -0.0033047516 0.0012601658
-0.0024999999 0.0029234253 0.0012660457
0.00045831304 0.002092717 0.0012766185
-0.0021906518 0.0023584182 0.0012771037
0.0007250029 0.0050000004 0.001271746
0.0019238865 -0.0020786854 0.0012949056
-0.0024884923 0.0048492113 0.0012966071
-0.0001263466 0.0050000004 0.0013230852
-0.0023145138 -0.0024690484 0.0013309545
0.0024999999 0.0040213913 0.0013808584
0.00064177957 -0.0050000004 0.0014209688
0.00078788737 -0.0019807131 0.0014225929
-0.0025000002 0.0043044845 0.0014250617
0.00045590953 0.0050000004 0.0014459071
-0.0023584762 0.0050000004 0.0014540554
-0.0020299198 -0.0050000004 0.0014671462
-0.002468067 -0.002571414 0.0014816852
0.0024999999 -0.0032524101 0.0015079876
-0.0024999999 0.0029939828 0.0015095099
0.0024999999 -0.0048423512 0.001526728
0.00067632803 -0.0019048842 0.0015214211
0.0010999247 0.0050000004 0.0015225094
0.00068421353 -0.001884141 0.0015484554
0.0024999999 -0.002923372 0.0015575069
-0.00057897705 0.0018481663 0.0015953416
0.00062779232 0.0018377937 0.0016088601
-0.0020231393 -0.0050000004 0.0016137484
-0.0024999999 -0.0027517024 0.0016118845
-0.0022112466 -0.0050000004 0.0016364531
0.0022345982 -0.0050000004 0.0016343381
-0.00068443146 0.0050000004 0.001630808
0.0018123485 0.0017900205 0.0016711229
0.0019045356 0.001775211 0.0016904243
-3.245303e-05 -0.0050000004 0.0017324465
-0.0024999999 -0.0026106492 0.00176735
0.00084200472 0.0016888264 0.0017764369
-0.002185721 0.0019912769 0.0017789198
0.00056471507 -0.0050000004 0.0017810557
-0.0022355095 0.0050000004 0.0017888504
0.0014944815 -0.0016354658 0.0018173798
-0.0022687386 0.0020654637 0.0018174455
-0.00090547354 -0.0050000004 0.0018231251
0.0019251896 -0.0050000004 0.0018271905
-0.0016889962 0.0016214617 0.0018281249
-0.0013328681 0.0016009861 0.0018438353
-0.00093972159 -0.0050000004 0.0018506928
0.0024999999 -0.0029314163 0.0018542977
-0.0014732678 -0.0050000004 0.0018784298
0.0014521211 -0.0050000004 0.0018705439
0.0024999999 -0.0045124777 0.0018997041
0.0024999999 0.0040812055 0.001898047
-0.0024999999 -0.0038982972 0.0019063804
-0.0011816846 -0.0015267342 0.0019008077
-0.00011809898 -0.001526217 0.0019012047
-0.0013038982 -0.0015178162 0.0019076503
0.0010647732 -0.0015158457 0.0019091622
-9.5859024e-05 -0.0050000004 0.0019142595
-0.0012208669 0.0014808569 0.0019360082
0.0024999999 0.0047131521 0.0019362938
0.00097235397 0.0014634129 0.0019493926
-0.0020501129 0.0016004132 0.0019587602
0.001188072 -0.001421626 0.0019814554
-0.00068566465 0.0014121843 0.0019886994
-0.0020545656 0.0015793416 0.0019804921
-0.0024999999 0.002340253 0.0019983172
-0.0014647065 -0.0013937714 0.0020028276
-0.00080133422 0.0013858342 0.0020089177
-8.5067812e-05 0.0013885008 0.0020068716
0.00016567243 0.0050000004 0.0020099615
-0.0016479164 0.0013533188 0.002033866
0.0023289695 0.0019581018 0.0020327889
0.0024999999 -0.0036492068 0.0020518638
0.0012975887 -0.0050000004 0.0020676896
-0.0024999999 -0.0037542016 0.0020625654
0.0017079256 -0.00130673 0.0020696127
2.2348702e-05 0.0013112559 0.0020661403
-0.0023080565 -0.0018732055 0.00207181
0.00046660891 -0.001296558 0.0020774177
0.0024913696 0.0021488904 0.0020712917
-0.0013010645 0.0012907997 0.0020818359
0.0018142968 0.0012787525 0.0020910793
0.00034469928 0.0050000004 0.0020909028
0.0018883389 0.0012089063 0.0021375066
-0.0024999999 -0.0039099525 0.0021483693
-0.0023383412 -0.0018260689 0.0021458324
-0.0024937775 -0.0044773053 0.0021725388
0.0024999999 0.0048823827 0.0021826765
-0.00016014195 -0.0010811358 0.0021904337
-0.0013898578 -0.0010627712 0.0021980407
-0.00041482213 -0.0010080913 0.0022206914
-0.00038593271 0.00096662942 0.0022378659
0.0024999997 -0.0040925858 0.0022583338
-0.0016578722 -0.00092359667 0.0022556919
0.0023481222 -0.0016597802 0.0022856703
-0.0011693573 0.00085035764 0.00228603
0.0024999999 0.004074397 0.0022898694
-0.0024999999 -0.0029963553 0.0023007868
0.0017165954 0.0050000004 0.0023061319
0.0020789206 0.0050000004 0.0023027314
-0.0016155444 -0.00078937842 0.00231129
-0.0025000002 0.002927345 0.0023198891
0.0023640052 0.0016392892 0.0023212272
0.0024999999 -0.0036480795 0.0023371684
0.0024999999 -0.0035433965 0.0023338471
0.0025000002 -0.0026354974 0.0023348555
-0.00090076507 0.00070326362 0.0023469615
-0.0021659285 0.0012417961 0.0023465089
-0.0024338481 0.0017196444 0.0023468572
-0.0016792747 0.0050000004 0.0023474684
0.00097204297 -0.0006594258 0.0023651207
-0.0024314055 0.0045085978 0.0023768793
-0.00051814399 0.0050000004 0.0023794214
0.00028743758 -0.00057019287 0.0023834063
-0.0014912752 -0.00055077736 0.0023859635
0.00076670147 -0.00055242574 0.0023857465
-0.00074345618 0.00053694338 0.0023877854
0.0015592481 0.00057889486 0.0023822603
0.0024536406 -0.0016954767 0.0023901488
-0.00029052218 0.00045716405 0.0023982921
-0.0021252471 -0.0010000854 0.002402972
0.0004504284 -0.00040960105 0.0024045561
0.00048732705 -0.00040027965 0.0024057839
0.00018150581 -0.00038813835 0.0024073827
-0.0012167352 0.00041733406 0.0024035375
-0.0013194924 -0.00034906474 0.002412529
-0.00079948851 -0.00029656859 0.0024194424
0.001268096 0.00032542885 0.0024156414
-9.9062614e-05 -0.0050000004 0.0024207202
0.0012310008 -0.00025768898 0.0024245628
0.00091832475 0.00023644506 0.0024273607
-0.0012083898 -0.0050000004 0.0024308374
0.0024999999 -0.0021320994 0.0024309813
-0.0024999997 0.0035461562 0.0024378942
-0.0011365078 -8.1683422e-05 0.0024477425
-0.002469789 0.0016510945 0.0024443858
0.00010241323 -0.0050000004 0.0024545367
0.0024999999 -0.0024533749 0.0024595375
0.00070332788 5.8917383e-05 0.0024507407
0.0024999999 -0.0020455257 0.0024818166
0.0024999999 -0.003482898 0.0025062889
0.0023826235 0.0014149314 0.0025073623
0.0024104475 0.0050000008 0.0025046186
0.0024999999 -0.0020712924 0.0025137668
-0.0021611687 -0.00080860103 0.002520845
0.0011095511 -0.0050000004 0.0025360622
0.0024999999 0.0042873356 0.0025487344
0.0016385611 -0.0050000004 0.0025704517
-0.002162358 -0.0049261441 0.002576147
0.0020609696 0.0050000004 0.0025753607
0.0021379502 9.6193282e-05 0.0026252815
-0.002363187 0.0010783153 0.0026259399
-0.0022809163 0.0046803448 0.0026375442
0.0018719404 -0.0050000004 0.002643072
0.0024999999 -0.0016125529 0.0026464728
0.0024999999 0.0039860285 0.0026405703
-0.0024999999 -0.0016352549 0.0026534335
-0.0022652284 -0.00074611645 0.0026584128
0.0004219047 0.0050000004 0.0026696811
0.0016904528 0.0050000004 0.0026623013
0.0020491229 -0.0050000004 0.0026724481
-0.00064386229 0.0050000004 0.0026730311
-0.0024999999 -0.0014120978 0.0026887313
0.0025000002 0.0036469437 0.0027039123
-0.0016849174 0.0050000004 0.0027125336
0.00067347725 0.0050000004 0.0027569635
-0.0024999999 -0.0026144385 0.0027698723
-0.0024999999 0.002898739 0.0027624194
-0.0024999997 0.0038780782 0.0027611698
0.0023190507 -0.00035171866 0.0027727415
-0.0022336214 -0.0046561882 0.0028264537
-0.0024999999 -0.001147454 0.0028315031
-0.0024999999 -0.0032426959 0.0028423574
0.00049598637 -0.0049768877 0.0028785435
0.0024999999 0.0024209872 0.0028844874
0.0015185551 0.0049643265 0.0028949552
-0.002412111 -0.004206677 0.0029087588
0.0024414798 -0.00026724421 0.0029063004
0.0024999999 -0.0016280628 0.0029153111
0.0024293906 0.00011986827 0.0029136075
-0.0024999999 0.0024972023 0.0029141919
-0.0024999999 0.003115485 0.0029140313
0.0024999999 -0.0035122805 0.0029354454
-0.0024999999 0.0031751711 0.0029369276
0.0024999999 0.0036985362 0.0029389325
-0.0024999999 0.0016352185 0.0029448443
-0.0024999999 0.0031336071 0.0029463398
0.0010051932 -0.0048666266 0.00296378
-0.0025000002 0.0013061224 0.0029624794
0.0024999999 0.0037921944 0.0029713796
-0.00204043 0.0048456187 0.0029759079
-0.0024999999 -0.0039061748 0.0029845857
-0.00090734003 0.0048063169 0.002998597
0.0024999999 0.003641801 0.0030078767
0.0024991252 -0.0047830958 0.0030120038
-0.0022638652 0.004449714 0.0030103398
0.0021091832 -0.0047603496 0.0030251322
0.00034920301 -0.0047566816 0.0030272615
-0.0024999999 -0.0038502347 0.0030332068
0.0024999999 0.0031527316 0.0030463031
0.0015858001 -0.0047156122 0.0030509743
-0.0024999999 0.0010161005 0.0030617237
0.0024999999 0.0035791625 0.003062363
0.0019112378 0.0046898276 0.0030658522
0.0013704043 0.0046925563 0.0030642771
0.0024999997 -0.0009877648 0.0030864025
0.00059301464 0.0046518752 0.0030877644
0.0016997294 0.0046573044 0.0030846295
0.0024999997 0.0032920893 0.003099733
0.0024999999 -0.00085524138 0.0031023675
0.0024999999 -6.6000313e-05 0.0031164896
0.0012875089 0.0045574093 0.0031423043
0.0025000002 -0.00068030372 0.0031651407
0.0024999999 -0.0018189923 0.0031950667
-0.0024999999 -0.00018808563 0.0031950669
-0.00021748502 0.0044711679 0.003192096
-0.0024999999 0.001716812 0.0032176662
0.0018303412 0.004412496 0.0032259698
0.0024999999 0.0010454778 0.0032491942
0.0022903336 -0.0043563019 0.0032584129
-0.0024999999 -6.9116599e-05 0.0032576809
0.0022057022 -0.0043382342 0.0032688444
0.0013880911 0.0043427539 0.0032662356
-0.0016904899 -0.0043332484 0.0032717469
0.0024999999 -0.00338762 0.0033053886
0.00042527282 0.0042739566 0.003305956
-0.0024999999 0.0026220186 0.0033147989
-0.0011336197 -0.0042385436 0.0033264286
-0.0024999999 -0.0023421068 0.0033206255
0.0012977864 -0.0042299405 0.0033313558
-0.0024999999 -0.0022555189 0.0033417642
-0.0024999999 -0.00026797917 0.0033415223
-0.0024999999 0.0028972474 0.003350982
0.0024999999 0.0039572874 0.0033514127
0.0014738966 -0.0041655949 0.0033685083
-0.0017114569 0.0041482453 0.0033785475
0.00043195923 0.0041556247 0.0033742748
0.0024999999 0.0024025673 0.0033954538
0.00076506304 0.0041257115 0.003391545
0.00064132246 -0.004097146 0.0034080239
0.00070037349 -0.0040989895 0.0034069577
0.0024999997 0.0024434053 0.0034074956
0.0024999999 -0.004019849 0.0034141142
0.0024999999 -0.0029550553 0.003427553
-0.0024999999 -0.0024918527 0.0034274135
-0.00029639507 -0.0039991424 0.0034646289
-0.00019723005 0.0039581377 0.0034882938
-0.0024999999 -0.0033105619 0.0034937991
-0.0024999999 -0.00012495244 0.0034970543
0.0017512201 -0.0039278711 0.003505768
-0.00094876543 -0.0039123828 0.0035147334
-0.00088745443 -0.0039156666 0.0035128358
-0.0025000002 0.0010973712 0.0035126416
0.00046842216 0.0038907006 0.003527229
-0.0024999999 -0.0024586397 0.0035597568
-0.00043335941 -0.0038309644 0.0035617165
0.0024631184 -0.0037951376 0.0035824019
-0.0012127808 -0.0037870251 0.0035871069
-0.0024999999 0.0020058695 0.0035820173
-0.0024999999 -0.0024925533 0.00359962
-0.00242391 -0.0036272546 0.0036299536
0.0024999999 -0.0022132518 0.0036237708
-0.0018101479 -0.0037025572 0.0036358868
-0.00059143454 0.0036801931 0.0036487652
-0.00069986255 0.003674747 0.0036519098
0.0010817249 -0.0036167088 0.003685412
-0.0023968527 0.0036152941 0.0036862807
-0.0024999999 -0.0024479611 0.0037249255
-0.0024999999 -0.002034483 0.0037398874
-0.0024999999 0.002447197 0.0037395493
0.00041266886 -0.0034955319 0.0037553585
0.0024999999 -0.00052989199 0.003761034
-0.00047509244 0.0034466952 0.0037835755
-0.00091822533 -0.0034013949 0.0038097065
-0.0022217291 0.0034123436 0.0038034467
0.0024999999 -0.0006866547 0.0038176586
-0.0018780808 0.003388636 0.0038171369
-0.00098103448 0.0033795654 0.0038223451
0.00017843593 -0.0033655278 0.003830414
-0.0013106531 -0.0033335777 0.0038488682
-0.0024999999 0.0017881645 0.0038405564
-0.0020179544 -0.0033077504 0.003863801
-0.0001614361 0.0032918074 0.0038730002
-0.0024999999 0.001883418 0.0038849642
0.0018050004 0.0032772296 0.0038814165
0.00054387306 -0.0032452627 0.0038998607
0.0023918599 -0.0032330435 0.0039069271
0.0024458857 -0.0031452859 0.0039575943
-0.0024999999 0.0018939838 0.0039543221
0.0024999999 0.0026040822 0.0039527784
0.0024999997 0.00062062684 0.0039904518
-0.0024999997 -0.00041983952 0.0040114424
0.0011135979 0.0030522712 0.0040112967
0.0010091441 -0.00301904 0.0040304824
0.0024999999 -0.0017366864 0.0040369313
-0.0018075017 0.0030054366 0.0040383623
0.00057764392 -0.0029938344 0.004045032
0.0023796726 0.0029892244 0.0040476965
-0.0015530087 -0.0029589038 0.0040651616
0.0010386027 -0.0029480672 0.0040714587
-0.0011115618 0.0029413749 0.0040753526
0.00073116319 -0.0029007366 0.0040987846
-0.00030018939 -0.0028854595 0.0041075768
-0.0010072163 0.0028459141 0.0041304659
0.002430761 -0.0028098153 0.0041512782
0.00010735053 0.0028069855 0.0041529122
-0.0024811397 -0.0027304466 0.0041941283
0.0024999999 0.0017347841 0.0041989149
0.0024999999 0.0021779954 0.004196173
0.0024999999 -0.0023819017 0.0042017619
0.00085781352 0.0027229362 0.0042014383
0.0019686166 -0.0026878498 0.004221695
-0.0024999999 -0.0018922318 0.0042249253
0.0023169566 0.0026544321 0.0042409888
-0.00026616635 -0.0026265522 0.0042570662
0.00021720899 -0.0026244631 0.0042582876
-0.0024999999 0.00019459534 0.0042511718
-0.0017601163 0.0026186695 0.0042616329
-0.0014797226 -0.0025507105 0.0043008323
0.0024574585 -0.0025363639 0.0043091555
-0.0024999999 0.00093658589 0.0043555298
-0.0011527811 0.0024556001 0.004355798
-0.0024999999 -0.00033864618 0.0043741716
0.0023370648 0.0024073434 0.0043836464
0.00039492079 0.0023840221 0.0043971105
-0.0024999999 0.0012555657 0.0044269566
-0.0015230344 -0.0022755105 0.0044597187
-0.0023214002 0.0022296747 0.0044861748
-0.0011846436 0.0022344796 0.0044834423
0.0014845493 -0.0021778687 0.0045161331
0.0024999999 0.0015292551 0.0045195678
-0.0015362705 0.002109979 0.0045552952
0.0024999999 -0.0016960115 0.0045736753
0.0024999999 3.2373297e-05 0.0045729093
0.0024999999 -0.0014679417 0.0045894058
0.0025000002 -0.0014025784 0.0046017678
0.0024999999 0.00077207072 0.004637626
0.00035009577 0.0019676082 0.0046375389
-0.00096797233 -0.001941791 0.0046524112
-0.0014331738 -0.0019167775 0.0046668379
-0.0019929169 -0.0019019308 0.0046754004
-0.0024794841 0.0017613408 0.0046742097
0.0024999999 -0.0017520603 0.0047095693
0.0024999999 -0.0016616369 0.004705749
-0.0025000002 -0.00096001971 0.0047028991
-0.0010791157 0.0018459545 0.0047077313
-0.00042165126 -0.0018309213 0.0047164434
-0.0013480716 -0.0018188822 0.004723364
0.00045098312 0.0018189655 0.0047233594
0.0019797666 -0.0017722654 0.0047503081
0.0024999999 -0.00030521399 0.0047589303
2.5521877e-05 -0.0017519121 0.0047620595
-0.00090065307 -0.001721848 0.0047794045
-0.0005658528 -0.0017296342 0.0047749192
-0.0024358444 -0.0017042418 0.0047790059
0.0020041936 0.0016922475 0.0047965068
0.0011816254 0.0016430781 0.0048248945
-0.0023775189 -0.0015964633 0.004851758
-0.0008935685 -0.001567957 0.0048682583
0.00051558559 -0.001565429 0.0048697256
0.0010955415 0.0015607051 0.0048724529
-0.00034564079 0.0014924972 0.0049118083
-0.00025185515 0.0014739034 0.0049225464
0.001645964 -0.0014399142 0.0049421913
0.0016135505 -0.0013972406 0.004966829
0.00043333287 -0.0013428584 0.0049982267
-8.5286803e-05 -0.0013119832 0.0050160526
0.0013667367 -0.0012967687 0.0050248369
0.0024999997 -0.00079053373 0.0050386088
-0.0024253363 0.00073897204 0.0050320639
-0.00019900395 0.0012338673 0.0050611258
-0.0012784243 0.0012122757 0.00507358
-5.7744444e-05 -0.0011724902 0.0050965887
0.0019209345 -0.0011714676 0.0050971792
0.00099614449 0.001141925 0.0051142494
0.00032453987 -0.0011089589 0.0051332689
-0.0015128858 -0.0010900429 0.0051441765
0.0024999999 0.0002976369 0.005153825
-0.0012535249 0.001065111 0.0051585459
0.0013295056 0.0010177401 0.0051859426
0.0020129152 -0.00099256332 0.0052004703
-0.0023161334 0.00075665879 0.0052188863
-0.00098793325 -0.00094635686 0.0052271471
-0.00070700812 -0.00088134327 0.0052646832
-0.0021371415 0.00087538897 0.0052680885
-0.00098679611 -0.00082705996 0.0052960231
-0.0010853693 -0.00080493349 0.005308798
0.002061235 -0.00079620449 0.0053138379
0.0019637241 -0.00077868055 0.0053239553
-0.00050699007 0.00077049091 0.0053286557
-0.0013094373 0.00076569297 0.0053314259
-0.0011608587 -0.00073976751 0.0053464221
-0.001562606 -0.00068900053 0.0053757294
-0.0003771825 0.00068979833 0.0053752465
-0.0016228398 0.0005997151 0.0054272595
-0.0015727211 0.00060076668 0.0054266523
0.00010064831 -0.00053415383 0.0054651331
0.00023379429 -0.00052749482 0.0054689776
0.002098168 0.00051893288 0.0054739206
0.0022174865 -0.00045917876 0.0055084196
-0.0021783982 0.00023841218 0.0055256672
0.00024746804 -0.00034792861 0.0055726501
-0.00051297486 0.00025652218 0.0056254156
-7.1957831e-05 0.000239467 0.0056352634
-0.0021203544 6.5270739e-05 0.0056489939
0.00076817523 0.00021469583 0.0056495662
0.0017014425 8.4514613e-05 0.0057247309
0.0023642294 1.2841555e-06 0.0057498324
