# .PCD v0.7 - Point Cloud Data file format
VERSION 0.7
FIELDS x y z
SIZE 4 4 4
TYPE F F F
COUNT 1 1 1
WIDTH 1000
HEIGHT 1
VIEWPOINT 0 0 0 1 0 0 0
POINTS 1000
DATA ascii
-0.00050647138 -2.7022277e-05 -0.006246442
-0.00058772706 -0.00013224206 -0.0062325872
-0.00016220751 -0.00029529267 -0.0062111169
-0.00027311832 0.00027783457 -0.0062134159
0.00025605017 -0.00034174969 -0.0062049995
-0.0007273808 -0.0003265983 -0.0062069953
0.00030421512 -0.00047370943 -0.0061876238
-0.00062497612 -0.00045661803 -0.0061898748
3.7861482e-05 0.00047461092 -0.0061875051
0.00031138482 -0.00073649286 -0.0061530215
-0.00066420011 0.00069625262 -0.0061583202
-0.00029579562 0.00079443387 -0.0061453921
0.00020538045 0.00085590861 -0.006137297
0.00063147658 -0.0009262464 -0.0061280355
-0.00079999998 -0.00076143607 -0.0061273845
-0.00024382124 -0.0014424871 -0.0060600587
-0.0002943617 0.0014354292 -0.0060609877
0.00079999998 -0.0010015303 -0.0060325693
5.4073633e-05 -0.0016971875 -0.0060040387
-0.00042598625 0.0017358417 -0.0059880298
-0.00079999998 -0.00013868744 -0.005976826
-0.00079999998 -0.0017813796 -0.0059664287
-0.00056344882 -0.0018104657 -0.0059571234
1.3856114e-05 -0.0018580726 -0.0059374068
0.00079999998 -0.0011819274 -0.0059107984
0.00034949114 -0.0019477154 -0.0059002806
0.00079999998 0.001136194 -0.0059090299
0.0001783466 0.002065086 -0.0058516711
0.00079999998 0.00034169198 -0.0058421618
0.00018242333 0.0021400976 -0.0058206045
0.00079999998 0.0018507068 -0.0057836347
0.00079999998 0.0016026002 -0.0057774889
0.00079999998 -0.00085039635 -0.0057641394
-0.00079999998 0.0013776569 -0.0057653035
3.0700567e-06 0.0022662564 -0.0057683545
-0.00079999998 -0.00024180849 -0.0057570613
-0.00058828143 -0.0023127825 -0.0057490859
-0.00079999998 0.0020917933 -0.0057285759
0.00072513643 -0.0023980832 -0.0057137576
0.00079999998 -0.0017076794 -0.0057060272
-0.00079999998 -0.0011071842 -0.0057093003
-0.00079999998 0.00046072248 -0.0057079094
-0.00063521386 -0.0024343124 -0.0056987535
0.00076823105 -0.0024602492 -0.0056880116
0.00050181604 0.0024979063 -0.0056724162
0.00014968259 -0.0025098484 -0.0056674699
0.00073935336 -0.0025079781 -0.0056682443
0.00073535525 -0.0025732084 -0.005641229
0.00079999998 -0.0013260547 -0.0056486218
-0.00079999998 -0.0023910045 -0.0056290152
0.00079999998 0.0022299723 -0.0056144716
-0.00067000993 -0.0026764711 -0.0055984617
0.00079999998 -0.00082018139 -0.0055944952
-0.00079999998 0.0010825483 -0.005569397
-0.00062054873 0.0027523276 -0.0055670454
-0.00079999998 -0.0022406178 -0.0055561382
0.00013563325 -0.0027962776 -0.0055488432
-0.00079999998 0.00044720055 -0.0055385162
0.00079999998 -0.00063695328 -0.0055256123
-0.00079999998 0.0020995536 -0.0055238008
0.00025289221 -0.0028894613 -0.0055102506
0.00079999998 -0.00037505617 -0.0055170325
-0.00079999998 0.0019401909 -0.0055116001
-0.00063076656 0.0028744666 -0.0055164606
-0.00050674297 -0.0029045548 -0.0055039991
0.00079999998 -0.002495667 -0.0055077556
0.00079999998 -0.00054512382 -0.0054952838
-0.00071748928 -0.0029904824 -0.0054684118
-0.00079999998 0.0025143414 -0.0054431166
0.00071284117 -0.0030833492 -0.0054299505
0.00052091043 0.0031582825 -0.0053871605
-0.00020684116 -0.003168555 -0.0053792768
-0.00079999998 0.0019515335 -0.0053655012
-0.00016800393 -0.0032037569 -0.0053522638
-0.00079999998 0.001002383 -0.0053207269
-0.00079999998 0.00066528097 -0.0053073708
0.0004332918 0.0032797309 -0.0052939625
0.00079999998 -0.001052733 -0.0052817678
-0.00073477306 0.0033083395 -0.0052720089
-0.00079999998 -0.0015522399 -0.005269364
-0.00079999998 -0.0012494677 -0.0052625374
0.00079999998 0.0015656007 -0.0052641537
-0.00079999998 -0.0023484812 -0.0052596829
0.00079999998 -0.00051571993 -0.0052054483
0.00072209624 -0.0034395244 -0.00517134
-0.00069503416 0.0034333053 -0.0051761125
0.00079999998 0.00057877379 -0.0051646447
-0.00026742733 0.0034431792 -0.0051685353
0.00013095888 -0.0034845485 -0.0051367893
0.00079999998 0.0025810122 -0.005133878
0.00079999998 0.0029546486 -0.0051328144
-0.00062252372 0.0035050365 -0.0051210672
0.00079999998 0.00022936238 -0.0051068282
-0.00079999998 0.0035187399 -0.0051066689
-0.00079999998 0.0032251684 -0.0050899521
-0.00079999998 -0.00050535524 -0.0050797649
0.00079999998 -0.00029745605 -0.0050442591
0.00079999998 0.001144612 -0.0050422708
0.00079999998 -0.0033694168 -0.0050302735
0.00079999998 0.00021521354 -0.0050253058
0.00025764448 0.003665148 -0.0049982006
0.00079999998 -0.00082471548 -0.0049889404
-0.00051438762 -0.0036985104 -0.004972599
0.00015440099 -0.0036918409 -0.0049777166
-0.00048108018 -0.00371372 -0.0049609267
-0.00079999998 0.0036056568 -0.0049395869
0.00079999998 -0.0021386037 -0.0049179965
0.00079999998 0.0033124997 -0.0049007158
0.00079999998 0.0010940761 -0.0048917914
-0.00079999998 0.0021873985 -0.0048708078
-0.00010675193 0.0038360483 -0.004867055
-0.00079999998 0.0035102654 -0.0048537515
0.00079999998 0.0010245621 -0.004832251
-0.00048009839 -0.0038846952 -0.0048297234
0.00079999998 -0.002253575 -0.004821667
0.00079999998 -0.0025515482 -0.004802506
-0.00079999998 -0.0027904001 -0.0047612181
-0.00079999998 -0.00050012401 -0.0047583212
0.00079999998 0.00031509044 -0.0047513247
-0.00079999998 0.0036514732 -0.0047239303
0.00079999998 -0.0025321206 -0.0047133104
0.00079999998 0.0037991547 -0.0047082962
-0.00051284797 -0.0040599834 -0.0046952106
-0.00031569335 -0.0040537706 -0.004699978
0.00079999998 0.0035379818 -0.0046758559
-0.00079999998 0.0037349721 -0.0046776496
0.00037931802 0.0041181012 -0.0046506119
0.00079999998 -0.001920566 -0.0046479939
-0.00023674917 -0.0041442602 -0.0046305382
0.00079999998 -0.004071 -0.0046344912
-0.00079999998 0.0011410528 -0.0046338243
-0.00079999998 0.0023253846 -0.004620139
-0.00062592863 -0.0041687624 -0.0046117362
-0.00079999998 -0.0036068314 -0.0046102577
0.00067576399 -0.0041971863 -0.0045899237
0.00079999998 -0.00080133876 -0.0045814444
-0.00079999998 0.0006338227 -0.0045560477
0.00079999998 0.0027307216 -0.0045469124
0.00073617796 0.0042531276 -0.0045469948
0.00079999998 0.0023315032 -0.0045378827
-0.00079999998 -0.0022990354 -0.0045279325
0.00079999998 0.0013448141 -0.0045267474
-0.00079999998 -0.0014718233 -0.0044985241
-0.00079999998 -0.0024235959 -0.0044782516
-0.00079999998 -0.00027333165 -0.0044793533
-0.00079999998 -0.0042285942 -0.0044489293
-0.00079999998 0.0023923453 -0.0044480111
0.0006427163 0.0043859021 -0.0044451063
-2.8428822e-05 -0.0044107269 -0.0044260561
-0.00080000004 -0.002882567 -0.0044014095
-0.00079999998 0.0011630782 -0.0043949434
-0.00079999998 0.0011258322 -0.0043687955
-0.00027119232 0.0044623772 -0.0043633962
0.00079999998 0.0013702089 -0.0043593599
0.00019750626 -0.0044737677 -0.0043485533
-0.00079999998 -0.0024019857 -0.004335653
0.00079999998 0.0011503391 -0.0043392512
0.00079999998 -0.0028810485 -0.0043206643
-0.00079999998 -0.00049032597 -0.00432766
-0.00079999998 0.00066206552 -0.0043164198
0.00079999998 0.0010310074 -0.0043129232
0.00079999998 -0.00058785704 -0.0042862589
0.00079999998 0.0014983941 -0.004283342
-0.00079999998 0.0020901575 -0.0042894231
0.00079999998 0.0040054987 -0.0042769145
-0.00055654254 -0.0045397081 -0.0042626229
-0.00079999998 0.00065891305 -0.0042623072
-0.00079999998 0.00068612339 -0.0042504654
0.00079999998 0.00042461802 -0.0041930405
-0.00079999998 -0.0034365384 -0.0041803136
0.00079999998 -0.0019047786 -0.0041852351
0.00032909954 -0.0046086893 -0.0041727326
0.00079999998 -0.0034536251 -0.0041741333
-0.00079999998 0.0034386117 -0.0041608666
0.00079999998 -0.0032248348 -0.0041477904
-0.00079999998 -0.0031120372 -0.0041207741
0.00039944376 -0.0046563381 -0.0041106404
-0.00079999998 0.0018628803 -0.0041196551
-0.00079999992 0.0023631784 -0.0041068499
-0.00079999998 -0.0012484974 -0.0040768818
0.00079999998 -0.00068551465 -0.0040768855
-0.00079999998 -0.0033430511 -0.0040688063
-7.1714108e-05 -0.0047012591 -0.0040521021
0.00079999998 0.0017244891 -0.0040305406
0.00079999998 0.004291995 -0.0040309709
-0.00079999998 0.0009625915 -0.0040281299
-0.00079999998 -0.0026030885 -0.0040124706
-0.00079999998 0.0023595979 -0.0040110997
0.00079999998 -0.0043986468 -0.0040097274
0.00079999998 -0.00029755288 -0.0040027117
0.00079999998 -0.0038259365 -0.0039978027
-0.00079999998 0.0032282406 -0.0039529423
0.00079999998 -0.0022182483 -0.0039432305
-6.2813109e-05 -0.0047970833 -0.0039272299
-0.00079999998 0.0043980987 -0.0039239018
-0.000615303 0.0048108874 -0.0039092419
-0.00079999998 0.00096066506 -0.0038934352
-0.00076776627 0.004839906 -0.0038714265
0.00079999998 -0.0040440536 -0.0038505292
0.00079999998 0.0039982609 -0.0038470717
7.1040457e-05 0.0048686708 -0.0038339426
-0.00079999998 0.0017178211 -0.0038145105
-0.00079999998 -0.0035785793 -0.0037857229
-0.00044848927 0.0049042134 -0.0037876256
0.00079999998 0.002750308 -0.0037737272
0.00046163943 -0.0049225469 -0.0037637341
0.00032603694 0.0049207401 -0.0037660883
0.00079999998 0.0034048841 -0.0037575327
-0.00079999998 0.0036796266 -0.0037565734
-0.00079999998 0.003871263 -0.0037407016
-0.00079999998 -0.00032370019 -0.0037383421
-0.00080000004 -0.0042403233 -0.0037061626
-0.00079999998 -0.0023070627 -0.0036916181
-0.00079999998 -0.00015632821 -0.0036955629
0.00079999998 0.0043351729 -0.0036803966
-0.00079999998 0.0048092348 -0.0036886877
-0.00010294736 -0.0049879514 -0.0036785037
0.00079999998 -0.0033711893 -0.0036457356
0.00035503085 -0.0050243065 -0.003631128
0.00079999998 -0.0036597324 -0.0036363024
-0.00079999998 -0.0025506041 -0.0036229522
0.00026063132 -0.0050468817 -0.0036017101
0.00079999998 -0.0027476961 -0.0036063057
-0.00017463787 -0.0050622006 -0.0035817474
-0.00079999998 -0.0039271307 -0.0035859004
-0.00079999998 0.00062332116 -0.0035829723
0.00051830534 0.0050618066 -0.003582261
-0.00079999998 -0.0018347122 -0.0035764482
0.00079999998 0.0020133744 -0.0035384081
0.00079999998 -0.0034547297 -0.0035227435
-0.00079999998 0.0048217745 -0.0035232077
0.00079999998 0.0025624512 -0.0035161856
0.00034128226 0.0051245741 -0.0035004665
-0.00079999998 0.0027558608 -0.0034893225
0.00011703195 -0.0051450613 -0.0034737694
-0.00079999998 0.0012439884 -0.003478799
-0.00079999998 0.0038358618 -0.0034717966
0.0002547864 -0.0051532229 -0.0034631335
-0.00079999998 0.0030407144 -0.0034432383
-6.734595e-06 0.0051638535 -0.00344928
-0.00079999998 -0.0048459503 -0.003431476
0.00079999998 0.0008417326 -0.003423417
-0.00079999998 0.0039246357 -0.0034187289
-0.00079999998 -0.0048233531 -0.0034032185
0.00079999998 -0.0030487839 -0.0034034564
0.00079999998 -0.0014686496 -0.003404411
9.8557197e-05 0.0051960056 -0.0034073817
-0.00079999998 -0.004644271 -0.003385378
0.0005742542 0.0052166055 -0.0033805375
-0.00055859296 -0.0052213669 -0.0033743335
-0.00079999998 0.0024045205 -0.0033533666
0.00079999998 0.0032909426 -0.0033591653
0.00079999998 -0.0040153991 -0.0032917757
-0.00079999998 0.0011403826 -0.0032925203
-0.00079999998 0.0045520458 -0.0032884134
0.00079999998 -0.0034086846 -0.0032603028
0.00079999998 -0.0051268544 -0.003248675
0.00079999998 0.0046837307 -0.0032245971
0.00079999998 -0.0023943391 -0.00321638
-0.00079999998 5.3906682e-05 -0.003209305
-0.00079999998 0.0037636666 -0.0032066612
-0.00079999998 -0.0049785459 -0.0031971494
0.00047699039 -8.5502557e-05 -0.003188747
0.00079999998 0.0013524946 -0.0031829681
0.00079999992 0.003777408 -0.0031643023
-0.00079999998 -0.0037014589 -0.0031553286
0.00079999998 0.0017841859 -0.0031593295
2.441504e-05 -0.0054116445 -0.0031263765
-0.00079999998 -0.0050329473 -0.0031292699
-0.00056297367 -0.00054420647 -0.0031283768
0.00025298216 0.0005452545 -0.0031282387
0.00047570447 0.00064152101 -0.0031155692
0.00079999998 0.00072017417 -0.0031129033
-0.0002858954 0.00080182729 -0.0030944711
-0.00038323447 0.0054431041 -0.003051589
-0.00079999998 -0.0024869407 -0.0030183664
0.00079999998 -0.0044571729 -0.0030013071
0.00079999998 -0.0011502312 -0.0030042215
0.00079999998 -0.0040931352 -0.0029928251
-0.00079999998 -0.0017194547 -0.0029978256
0.00040671171 0.001059296 -0.0029952743
0.00079999998 -0.0042520519 -0.0029869613
0.00079999998 -0.0025685565 -0.0029871026
-0.00079999998 -0.0014502738 -0.0029802036
-0.00079999998 0.0011256053 -0.0029805526
-0.00079999998 0.0035063832 -0.0029865098
0.00079999998 0.0036364309 -0.0029819054
0.00079999998 -0.0054472294 -0.0029435097
-0.00059261644 -0.0011865558 -0.0029425595
0.00068252819 -0.0012070356 -0.0029340764
0.00079999998 0.0050349403 -0.0029375602
-0.00079999998 0.0017043327 -0.0029185284
-0.00079999998 0.0025114638 -0.0028926246
-0.00079999998 -0.0028691641 -0.0028755928
0.00079999998 -0.0041028 -0.0028674654
-0.00079999998 -0.0037015616 -0.0028326155
-0.00020907525 -0.0014887189 -0.0028173958
-0.00079999998 0.0026425112 -0.0028133329
0.00080000004 -0.0023911397 -0.0027542033
0.00079999998 0.0030812502 -0.002755014
0.00079999998 0.0048187319 -0.0027495453
-0.00079999998 -0.0022505135 -0.0027329139
0.00079999992 -0.0028024672 -0.0027052481
-0.00079999998 0.0017387891 -0.0027022245
-0.00079999998 0.0025375965 -0.0026765442
-0.00079999998 0.0046140379 -0.0026787908
0.00079999998 0.005078176 -0.0026715223
-0.00079999998 -0.0053896909 -0.0026663798
0.00079999998 -0.0041095829 -0.0026592279
-0.00079999998 -0.0021749402 -0.0026566689
0.00079999998 0.0029889331 -0.0026322121
-0.00079999998 0.0048697614 -0.0026313497
0.00078498572 0.0056156828 -0.0026348901
-0.00072483369 0.0018317803 -0.0025934167
0.00079999998 -0.0030958143 -0.0025898851
-0.00079999998 0.0047910167 -0.0025869955
-5.3197386e-05 -0.0056438851 -0.0025667963
0.00079999998 -0.0055173151 -0.0025353096
-0.0004283468 0.0019121858 -0.0025317085
-0.00079999998 -0.0033182604 -0.0025105074
0.0003164208 0.0019403744 -0.0025100745
0.00079999998 0.0042693648 -0.0025004116
-0.00079999998 0.003889665 -0.0024958872
0.00079999998 -0.0026467303 -0.0024776901
0.00079999998 -0.0045681652 -0.0024640076
-0.00079999998 0.0039169444 -0.002460151
0.00079999998 -0.0022231431 -0.0024533463
-0.00022714604 0.0020148056 -0.0024529512
-0.00016149033 0.0056947717 -0.0024439273
-0.00079999998 -0.0029472804 -0.0024314253
-0.00032926895 -0.0020644763 -0.0024148303
0.00079999998 -0.0048522088 -0.0024015838
0.00079999998 -0.0042491183 -0.0024071706
0.00079999998 0.003228965 -0.0023928152
-0.00079999998 0.0038716141 -0.0023753424
-0.00079999998 -0.0045500235 -0.002359522
0.00073155429 0.0021467579 -0.0023516819
0.0003540311 -0.0057350872 -0.0023465836
2.7930619e-05 -0.0021584502 -0.0023427086
0.00079999998 0.0030627877 -0.0023489469
0.00079999998 -0.0026705193 -0.002321027
0.00079999998 0.0024502503 -0.0023150481
-0.00079999998 0.0036259217 -0.0023034832
-0.00052273954 -0.0057581645 -0.0022908614
0.00042345046 -0.0022200532 -0.0022954303
0.00079999998 -0.0048135412 -0.0022790076
-0.0006585801 -0.002250276 -0.0022722357
7.4071701e-05 0.0022611252 -0.002263909
-8.7708868e-05 -0.0057725175 -0.0022562069
0.00079999998 -0.0031339629 -0.0022562966
0.00076667697 -0.0022766152 -0.0022445689
-0.00079999998 -0.0026960694 -0.0022380413
-0.00079999998 -0.0053374418 -0.0022281629
-0.00079999998 -0.005168349 -0.0022239329
0.00079999998 -0.0026044038 -0.0022283024
0.00026078901 -0.0022883373 -0.0022292952
-0.00079999998 0.0053590438 -0.0022240516
-0.00079999998 -0.0050106565 -0.0022005762
-0.00079999998 0.0044436362 -0.0022064096
0.00079999998 -0.0057707797 -0.002186978
0.00079999998 -0.0057141422 -0.0021617878
-0.00079999998 0.004737414 -0.0021469332
0.00079999998 -0.0033733069 -0.0021332009
0.00079999998 0.002979191 -0.0021380445
-0.00079999998 0.0053530205 -0.0021054391
0.00079999998 0.0055481284 -0.0021019974
-0.00079999998 0.0049971277 -0.0020662979
0.00079999998 0.0044147531 -0.0020429008
0.0001088996 -0.0024413653 -0.0020299016
-0.00056753471 -0.002479176 -0.0019806351
0.00079999998 0.0041875369 -0.0019747035
0.00079999998 -0.0041926941 -0.0019659717
0.00079999998 -0.0035550091 -0.0019404474
0.00079999998 -0.004564554 -0.0019357991
0.00067341083 -0.0025107793 -0.0019394563
0.00046395912 0.0025189584 -0.0019287983
-0.00079999998 0.0040442231 -0.001900661
0.00079999998 0.0031929475 -0.0018902265
0.00079999998 -0.0049155289 -0.0018862433
0.00079999998 0.0045942711 -0.0018854056
-0.00079999998 0.00491919 -0.0018863637
0.00079999998 -0.0048861858 -0.0018354063
-0.00079999998 0.0029109283 -0.001801158
0.00079999998 -0.004296015 -0.0017565675
-0.00080000004 0.0051865731 -0.0017559733
0.0005505766 0.0026668187 -0.0017361381
0.00079999998 0.0056473603 -0.0017330158
0.00079999998 0.0026989134 -0.0017297224
0.00079999998 0.0051754955 -0.0017035062
0.00012099592 0.0060006822 -0.001705292
-7.1141367e-05 0.0060057659 -0.0016930173
-0.00079999998 -0.003398747 -0.0016853813
-0.00079999998 0.0041566077 -0.0016888231
0.00079999998 -0.0038239984 -0.0016715175
0.00080000004 0.0046148123 -0.0016560386
0.00044269356 0.0027364003 -0.0016454743
-0.00079999998 -0.0039332653 -0.0016392712
-0.00020998392 -0.0027477434 -0.0016306943
0.00079999992 -0.0048351679 -0.0016279242
0.00079999998 0.0041698804 -0.0016078294
-0.00079999998 -0.0045403433 -0.0015967474
0.00030604113 0.0027762225 -0.0015881169
-0.00080000004 0.0035369298 -0.001583569
-0.00079999998 0.0039648362 -0.0015479896
-0.00079999998 0.0036854451 -0.0015327993
-0.00036270439 0.0060478179 -0.0015354463
0.00018642099 -0.0060492782 -0.00152436
-0.00064754428 -0.0028008542 -0.0015286524
-0.00079999998 0.0038778821 -0.0015146252
0.00070088817 -0.0060519679 -0.0015039308
-0.00079649262 -0.0060561956 -0.0014718279
0.00079999998 -0.0060497141 -0.0014782664
0.00079999998 0.0036991718 -0.0014636534
-0.00079999998 -0.0039872671 -0.0014365839
0.00079999998 -0.0046931738 -0.0014139115
-0.00079999998 0.0029922589 -0.0014032819
-0.00020479859 -0.0060660136 -0.0013972613
-0.00079999998 -0.0033431393 -0.0013849753
-0.00079999998 -0.004929678 -0.0013719314
0.00040150812 -0.0028653785 -0.0013728822
-0.00079999998 0.0044904128 -0.0013522551
-0.00079999998 0.0044646054 -0.0013446088
0.00079999998 0.0052889213 -0.0013372591
-0.00031112976 0.0028837395 -0.0013285556
0.00079999998 0.0047958945 -0.00131123
-0.00079999998 -0.0054457039 -0.0013094933
-0.00079999998 -0.0048999265 -0.0012974581
0.00079999998 0.0040976191 -0.0012960156
-0.00033305827 0.0029126708 -0.0012587125
0.00035271957 0.0029125498 -0.0012590043
0.00079999998 -0.0047740075 -0.0012425178
0.00075184018 0.0060865232 -0.0012415032
0.00079999998 -0.0038983552 -0.001060986
0.00079999998 0.0058802231 -0.0009384306
-0.00079999998 -0.0044765063 -0.00090262882
0.00043019769 -0.0061347964 -0.00087490078
0.00079999998 -0.0034390767 -0.00087015145
-0.00077437749 -0.0030746281 -0.00086772488
0.00079999998 0.0053036646 -0.00085148314
0.00079999998 -0.0033758329 -0.00079945958
0.00079999998 -0.0061029885 -0.00078862457
0.00079999998 -0.0031570029 -0.00078112032
0.00059239526 -0.0030972308 -0.00078086089
-0.00079999998 -0.0048873341 -0.00077656237
0.00079999998 0.003434608 -0.00077822473
0.00079999998 -0.0060946019 -0.00076066068
0.00079999998 -0.0046820259 -0.00075503357
0.00080000004 -0.0033823012 -0.00075153628
-0.00079999998 0.0038292203 -0.00073761737
-3.0752562e-05 -0.0031049119 -0.0007224966
-0.00079999998 -0.0048431661 -0.00070280035
-0.00079999998 0.0051670745 -0.00070137944
-0.00079999998 0.0061577167 -0.00069003011
0.00079999998 0.0053907386 -0.00067417044
0.00021936711 0.0061605591 -0.00067924906
0.00079999998 -0.0054350714 -0.00064311328
-0.00079999998 -0.0049893232 -0.00062270963
-0.00079999998 0.0038874589 -0.00061914854
-0.00079999998 0.0038489415 -0.00060943217
0.00080000004 0.0060350546 -0.00060292787
0.00079999998 0.0042282706 -0.00053626124
-0.00041533782 0.0061789905 -0.00053926994
-0.00079999998 -0.0036364244 -0.00052869023
-0.00022727756 -0.0061818901 -0.0005172519
-0.00053755363 -0.003132957 -0.00050940417
0.00079658569 0.0031371133 -0.00047782401
0.00079999998 -0.0048967833 -0.00046542211
-0.00030914089 -0.0061906679 -0.00045059205
-0.00079999998 -0.0051316801 -0.00045192102
0.00079999998 -0.0060518566 -0.0004410058
-0.00079999998 0.0034919553 -0.00043273138
0.00079999998 -0.0056041498 -0.00040695694
-0.00061291555 0.003146203 -0.0004087605
0.00079999998 0.0049144113 -0.00039489637
0.00079999998 -0.0041316669 -0.0003640806
-0.00079999998 0.0035043098 -0.00036064294
0.00079999998 0.0039825635 -0.00035874158
-0.00014321768 0.003154709 -0.00034412963
-0.00079999998 -0.0053506056 -0.00033156501
0.00079999998 0.0055226949 -0.00032392232
-0.00079999998 0.0037924538 -0.0002864624
-0.00079999998 -0.0033637772 -0.00027549642
0.00079999998 0.0036003578 -0.00022369067
0.00079999998 0.0039481763 -0.00020551082
0.00079999998 -0.0051786718 -0.0001807759
0.00079999998 -0.0057338816 -0.00017322788
-0.00079999998 0.0052892677 -0.00017415998
0.00079999998 -0.0039782869 -0.00015841793
0.00079999998 0.0040440396 -0.00015487451
0.00079999998 -0.0061302539 -0.0001456742
0.00079311564 0.0031811639 -0.00014312174
0.00079999998 0.0055968864 -0.00013578682
0.00079999998 0.0040012626 -0.00012995934
0.0001195994 -0.0031856557 -0.00010899074
0.00079999998 0.0038833236 -0.00010501014
-0.00079999998 0.0047535291 -0.00010067769
0.00079999998 0.0053157695 -9.5542426e-05
0.00012118751 -0.0031881894 -8.9739988e-05
0.00042010876 0.0062394803 -7.9890808e-05
-0.00079999998 0.0036868611 -4.2884811e-05
0.00079999998 -0.0059418832 -1.73096e-05
-0.00079999998 0.0055845603 8.7030639e-07
-0.00079999998 -0.0048148995 3.0984353e-05
-0.00079999998 0.0054893778 3.4315824e-05
0.0006769941 0.0062455609 3.3714248e-05
-0.00017707153 -0.0031941263 4.4631353e-05
0.00022935359 0.0031930676 5.2673371e-05
-0.00079999998 0.0055363202 6.5648579e-05
-0.00080000004 -0.0033850288 7.3760886e-05
0.00079999998 -0.0032620127 7.1872048e-05
-0.00079999998 0.0045697647 9.9567951e-05
-0.00044668891 0.0062331329 0.00012809467
-0.00070559379 0.0062311441 0.00014320058
0.00079999998 0.0049886508 0.00015691349
0.00079999998 0.0050814291 0.00015911421
-0.00079999998 -0.0031937999 0.0001882239
-0.00079999998 -0.0043197121 0.0001981674
0.00079999998 -0.0042347633 0.00022600339
-0.00080000004 -0.0036173067 0.00024188716
-0.00079999998 0.0042523029 0.0002889949
0.00079999998 0.0060473424 0.00029534186
0.00080000004 0.0040700543 0.00031061241
-0.00079999998 0.0053161955 0.00031625398
0.00079999998 0.0052650743 0.00034907967
0.00011242951 0.0031538112 0.00035095296
-0.00030074545 0.0031518256 0.00036603879
0.00079999998 -0.0046365717 0.00039970374
-1.3103665e-05 -0.0061946278 0.00042051836
0.00079999998 -0.0052968212 0.00042361734
0.00079999998 -0.0057592564 0.00044647392
-0.00079999998 -0.0054325471 0.00044805056
-0.0007046588 0.0031354129 0.00049074524
0.00079999998 -0.0047080079 0.00050207815
0.00079999998 -0.0033629867 0.00052274816
-0.00079999998 0.0041448935 0.00052507641
0.00066467241 0.0061795861 0.00053475011
0.00048797592 -0.0031266371 0.00055742572
0.00079999998 0.0045441217 0.00056829356
-0.00079999992 -0.003468927 0.00058233441
-0.00079999998 0.004751652 0.00059385475
-0.00079999998 0.0050370181 0.00061000796
-0.00070666685 -0.0031181686 0.00062176894
-0.00079999998 0.0057962164 0.00062893587
-0.00079999998 0.0051073967 0.0006448846
-6.3207495e-05 0.0031122942 0.00066640513
0.00079999998 0.0039168554 0.00066149805
-0.00079999998 0.0047348933 0.00066959346
0.00079999998 0.0051099397 0.00070234004
0.00079999998 -0.003207847 0.00074415887
-0.00079999998 0.0047722193 0.00079807657
0.00079999998 -0.005479896 0.00082423101
0.00079999998 -0.0048326352 0.0008503226
-0.00079999998 -0.0042999671 0.00086293358
0.00065508153 0.0030615055 0.00089940423
0.00079999998 0.0048443154 0.00091118994
0.00079999998 -0.0050811837 0.00094977673
0.00079999998 0.003246689 0.00094112742
0.00079999998 0.0058541796 0.00095688039
0.00034147827 -0.0061228829 0.00096537219
0.00031589105 -0.0030345074 0.00096458197
-0.00073295867 0.0030361121 0.00096070772
-0.00079999998 -0.0041977912 0.0010032869
-0.00079999998 0.0044723949 0.0010008285
0.00027974005 0.0061161588 0.0010164422
0.00079999998 -0.0035680959 0.0010268763
0.00079999998 0.005028659 0.0010220585
0.00040127258 0.0061132014 0.0010389008
-0.00079999998 -0.0041893534 0.0010589374
0.00040712336 0.0029954638 0.0010588384
0.00079999998 0.0051156054 0.0010510612
0.00061276689 0.006104623 0.001104046
0.00022476156 -0.0061035026 0.0011125576
0.00079999998 -0.006092994 0.0011149842
0.00042251343 -0.0060999799 0.0011393166
0.00079999998 -0.0048614456 0.0011406189
0.00035082223 0.0029610354 0.0011419526
-0.00014326558 0.0060998006 0.0011406762
-0.00079999998 -0.0042075515 0.0011757498
-0.0003207578 0.0060946993 0.0011794142
0.00035382283 -0.006092818 0.0011937007
-0.00079999998 -0.003648777 0.001197829
0.00079999998 0.0035749942 0.0011934343
-0.00011537481 -0.0060887216 0.0012248111
0.00079999998 0.0045869029 0.0012210503
-0.00079999998 0.004863645 0.0012244073
0.00079999998 0.0053938162 0.0012368257
0.00079999998 -0.0056105205 0.0012469164
0.00079999998 0.0045247409 0.0012641002
0.00079999998 -0.0056758109 0.0012893023
0.00033696886 -0.0060797757 0.0012927519
-0.00079999998 -0.0030610319 0.001292258
0.00074857642 0.0028904411 0.0013123773
-0.00032693314 -0.0028864532 0.0013220047
-0.00079999998 -0.0055058282 0.0013336056
-0.00079999998 0.0046232538 0.0013472863
0.0001987725 -0.0028741835 0.0013516255
-0.00020415611 -0.0028685299 0.0013652731
0.00079999998 -0.0051837889 0.0013776061
-0.00010035502 0.002862944 0.00137876
0.0006205056 -0.0060664243 0.0013941438
-0.00079999998 -0.0047609382 0.0013948018
-0.00079999998 -0.0049435319 0.0014082679
0.00079999998 0.005880517 0.0014163121
0.00079999998 -0.0052033248 0.0014215481
-0.00079999998 -0.0045813448 0.0014236618
-0.00079999998 -0.0060139438 0.0014500744
0.0007276836 -0.0028316027 0.0014544212
-0.00079999998 -0.0059666284 0.001502443
0.0002799269 0.0060503013 0.0015165892
0.00079999998 0.0045762053 0.0015238491
-0.00079999998 -0.0058855312 0.001537972
0.00079999998 -0.0041712727 0.0015392144
-0.00079999998 0.0054285186 0.001540925
0.00079999998 0.005289623 0.0015529926
-0.00079999998 0.0047250418 0.0015661911
0.00079999998 0.0059424085 0.0015633327
-0.00079999998 0.0040905513 0.0015717109
-0.00035435101 -0.0060414169 0.0015840563
-0.00079999998 -0.0031012003 0.0016041884
-0.00079999998 0.0060352236 0.001606525
0.00079999998 -0.0036943213 0.0016100343
0.00059859833 -0.0027574913 0.001617993
-0.00079999998 0.0035950544 0.0016105489
-0.00079999998 0.0053027184 0.0016543244
0.00056474499 0.0027109741 0.0016786043
0.00016410185 -0.0027030695 0.0016889038
-0.00079999998 0.0035748915 0.0016900344
0.00049306371 0.0026655556 0.001737784
-0.00079999998 -0.0055954396 0.0017607311
0.00079999998 -0.0042559332 0.0017689448
-0.00024873766 -0.0026448718 0.0017647349
0.00051611877 -0.0026419479 0.0017685447
0.0005239232 -0.0026457617 0.0017635751
-0.00034024636 0.0026280328 0.001786676
-0.00077205949 -0.0026210488 0.0017957762
0.00057574571 0.005956341 0.0018123565
0.00079999998 -0.004076534 0.0018217309
6.287456e-06 0.0025908863 0.0018350775
-0.00019576389 -0.0059388089 0.0018546878
-0.00079999998 -0.0041550929 0.0018598527
5.4888162e-05 -0.0025788101 0.0018508127
0.00079999998 0.0054036947 0.0018604132
-0.00079999998 0.0029984599 0.00187783
0.00079999998 0.003359728 0.0018867272
-0.00079999998 -0.0050759646 0.0018908025
0.00079999998 -0.0027896948 0.001896966
0.00079999998 0.0054038782 0.0018902883
-0.00072140567 0.0059235501 0.0018915309
0.0001904353 0.0025352463 0.0019075756
-0.00079999998 0.0042494456 0.0019085502
-0.00079999998 -0.0033029944 0.001917445
-0.0001105274 0.0059136497 0.001915436
-0.00014907283 -0.005910866 0.0019221572
-0.00079999998 0.0027846158 0.0019239091
-0.00049044809 -0.0058796648 0.001997493
-0.00079999998 -0.0034559895 0.0019954825
0.00079999998 -0.002840165 0.0020073319
-0.00069242576 0.005876346 0.0020055075
-0.00057624484 0.0024562012 0.0020105706
-0.00020380954 -0.0023963642 0.0020885372
0.00079999998 -0.0040015718 0.0020959307
-0.00031191399 0.0058279098 0.0021224581
0.00079999998 0.0039323573 0.0021402987
0.00079999998 -0.0045860726 0.002181954
-0.00079999992 -0.0023137704 0.0022251501
-0.00079999998 -0.0034359875 0.0022752243
0.00063955825 -0.002240614 0.0022796509
-0.00053011382 -0.0022169144 0.0022978394
0.00079999998 -0.0047567482 0.0023297283
-0.00029224384 -0.0021741982 0.0023306226
0.00066254422 0.0057371561 0.0023415876
-0.00043510765 -0.0021386119 0.0023579337
0.00079999998 0.0024680095 0.0023505806
-0.00079999998 -0.0037721023 0.0023864508
-0.00079999998 0.0041270056 0.0023863381
-0.00079999998 -0.0056121037 0.0024012683
-0.00079999998 -0.0056881662 0.0024137429
-0.00079999998 -0.0034325884 0.0024179302
-0.00031000364 -0.0020687531 0.0024115483
-0.00079999998 -0.0039993003 0.0024220154
-0.00068518595 -0.0020516987 0.0024246369
-0.00079999998 -0.0041772975 0.0024415175
-0.00010165644 0.0020246874 0.0024453669
9.3640454e-05 0.002023634 0.0024461756
-0.00079999998 0.0033685637 0.0024429469
0.00079285592 0.0019416383 0.0025091043
0.00079999998 0.003545814 0.002500636
-0.00079999998 0.0046780342 0.002502698
-0.00079999998 0.0036389143 0.0025215826
0.00080000004 -0.0027219448 0.0025445169
-0.00069866027 0.0018833855 0.0025538115
-0.00079999998 -0.0021921634 0.0025743817
0.00079999998 0.0035990397 0.0025767952
-0.00079999998 0.0028158957 0.0025975788
0.00079999998 0.0048238747 0.002609405
-0.00060721207 0.0017856709 0.0026288042
-0.00032140376 0.0017920434 0.0026239133
9.4050993e-05 -0.0017817311 0.0026318277
0.00079999998 0.0047125448 0.0026368808
0.00079999998 0.0027824964 0.0027048104
-0.00034054386 -0.0016435662 0.0027378649
0.00079999998 0.0022020845 0.0027306422
-0.00079999998 0.0045532524 0.0027435366
0.00031510624 -0.0016270283 0.0027505571
0.00079999998 -0.0046646129 0.0027770095
-0.00079999998 -0.0023921283 0.002789451
-0.00079999998 0.0043608672 0.002792906
-0.00079999998 -0.0044611595 0.0028063213
1.2875081e-05 -0.0014759263 0.0028226948
0.00042606046 0.0014420111 0.0028367436
-0.00043903221 -0.0014245365 0.0028439818
-0.00079999992 0.0022200807 0.002844638
-0.00079999998 0.0034415324 0.0028648593
0.00079999998 0.0017367195 0.0028750976
-0.00079999998 -0.0038881134 0.0028906607
-0.00079999998 0.0038389757 0.0028948362
-0.00079999998 -0.0028035988 0.002902156
0.00079999998 0.0049668285 0.0029001432
0.00079999998 0.0050067604 0.0029164704
-0.00079999998 0.0039071795 0.0029296847
0.00079999998 -0.0018175939 0.0029519398
-0.00079999992 0.0053910059 0.0029582668
0.00024272825 -0.0011286755 0.0029665355
0.00079999998 0.0017022043 0.0029651092
0.00079999998 0.0023000247 0.0029667993
0.00079999998 0.0029876695 0.0029662345
0.00044897987 -0.0010969413 0.0029796804
-0.00079999998 0.0021507556 0.0029782793
0.00079999998 -0.0051373383 0.0029869997
0.00036486532 -0.0010746575 0.002988911
0.00079999998 0.0031626741 0.0029856868
0.00080000004 0.0012904394 0.0030073749
-0.00079999998 0.0049565602 0.0030053782
0.00079999998 -0.0037031062 0.0030290696
-0.00018298237 0.00098487781 0.0030261003
0.00079999998 -0.0051679118 0.003034868
-0.00026533694 -0.00095735874 0.0030374993
5.9919672e-05 0.00097252801 0.0030312159
0.00079999998 -0.0052411961 0.0030513022
-0.00079999998 -0.0044832453 0.0030506905
-0.00024530734 0.0054433611 0.0030509678
0.00056050788 0.0054361257 0.0030684399
0.00069728697 0.00085039384 0.0030818069
0.00079999998 -0.0035542708 0.0030987272
0.00052492536 -0.00081584178 0.0030926268
-0.00079999998 0.001372973 0.0030931879
-0.00039215089 0.00072401506 0.0031047121
0.00029373777 0.00061167363 0.0031194976
-0.00079999998 -0.0051128417 0.0031233476
0.00079999998 -0.0033691709 0.0031206976
8.5058098e-05 0.00053241214 0.0031299293
0.00079999998 -0.00096358627 0.0031351575
0.000582529 0.00049137068 0.0031353305
0.00079999998 0.0030954939 0.0031368034
0.0002427397 -0.00039979781 0.0031473825
-0.0005649568 -0.00031177368 0.0031589672
-4.1094187e-05 0.0053893095 0.0031554815
-0.00080000004 0.0052790362 0.0031602192
0.00024496132 -0.00022494742 0.0031703946
0.00049852493 -0.00022061246 0.003170965
-0.00078062149 0.00016633687 0.0031781087
-0.00079999998 0.0011300627 0.0031787008
-0.00079999998 0.0017610472 0.0031716977
0.00079999998 0.0052817501 0.0031706481
-0.00079999998 -0.004402183 0.0031890513
-0.00079999998 -0.0026068429 0.0031880869
0.00045237545 -0.00015035424 0.0031802119
-0.00079999998 -0.002887411 0.0031928597
0.00077505352 -4.103261e-05 0.0031946001
-0.00058865501 -3.2708951e-05 0.0031956953
0.00073500152 -1.2500038e-05 0.0031983552
-0.00053471752 7.4758798e-05 0.0031901612
-0.00079999998 0.003010195 0.0031997343
0.00079999998 0.0044359919 0.0031954912
-0.00079999998 0.003564273 0.0032085699
0.00079999998 0.0044737398 0.0032261233
-0.00079999998 -0.0024444081 0.0032308029
0.00079999998 -0.0003935897 0.0032318574
-0.00079999998 0.0014771501 0.0032387516
0.00079999998 -0.0031106796 0.0032523926
-0.00079999998 0.0014150065 0.0032512094
-0.00068815949 -0.0052953889 0.0032778722
0.00079999998 -0.0014386583 0.0032713052
0.00079999998 0.0016697797 0.0032784063
-0.00079999998 0.0036940407 0.0032728112
0.00079999998 0.0037731696 0.0032723958
0.00010499037 0.0053014075 0.0032700298
-0.00079999998 0.004238761 0.0032959874
0.00072488707 0.0052794442 0.0032986512
0.00079999998 0.0046578925 0.0033400054
0.00079999998 0.0031866117 0.0033526979
2.4293156e-05 -0.0052266624 0.0033674317
-0.00079999998 0.0042682593 0.0033661448
0.00079999998 -0.0045254757 0.0033845287
-0.00079999998 0.0009311022 0.003395908
0.00079999998 0.0013965521 0.003395593
0.00079999998 0.003507311 0.0033925662
-0.00079999998 0.0036922938 0.0033932023
-0.00079999992 0.0024910311 0.0034052702
-0.00079999998 -0.0048859497 0.0034479296
-0.00079999998 0.00079641351 0.0034465161
-0.00054191856 -0.0051442073 0.0034748819
0.00079999998 0.0036395527 0.0034731294
-0.00079999998 0.0017940613 0.003481918
-0.00079999998 0.0048403596 0.0035061564
0.00079999998 0.00093285838 0.0035137068
0.00079999998 0.0029705777 0.0035371669
-0.00079999998 -0.0029590488 0.0035423746
0.00079999998 0.0033811803 0.0035692947
-0.00079999998 -0.0038267814 0.003572518
0.0007047134 -0.0050589889 0.0035859321
-0.00079999998 0.0015298182 0.0035831048
0.00079999998 -0.0031118987 0.0036135013
-0.00079999998 0.004853257 0.00361656
-6.4685824e-05 0.0050396272 0.0036111639
-0.00079999998 -0.0043993276 0.0036562348
0.00079999998 -0.0032741462 0.0036679646
0.00079999998 0.00037353995 0.0036619245
-0.00079999998 0.00082488573 0.0036871545
-0.00079999998 -0.0023880992 0.0037025441
-0.00079999998 0.0011641096 0.003718155
0.00079999998 0.0015913675 0.0037400215
0.00079999998 -0.0041619521 0.003755714
0.00079999998 0.0038070581 0.0037597546
-0.00079999998 0.0045165136 0.0037728692
0.00079999998 0.003107154 0.0038045722
0.00079999998 0.00085465662 0.0038220503
-0.00079999998 0.002093269 0.0038475245
-0.00079999998 -0.0035499693 0.0038521027
-0.00079999998 0.0044946102 0.003856526
0.00079999998 -0.0013123575 0.0038744614
-0.00039478231 0.0048373798 0.0038747189
0.00079999998 -0.0026734129 0.0038854063
0.00079999998 -0.0012672076 0.0038889118
-0.00052954297 -0.0048152125 0.003903606
-0.00079999998 -0.0019061917 0.0039079944
0.00079999998 0.0013357388 0.0039224718
-0.00079999998 0.0029309823 0.0039221984
-0.00079999998 -0.0026637849 0.0039349976
-0.00071794813 -0.0047727553 0.0039589331
0.00079999998 -0.0010431233 0.0039791544
-1.4231414e-05 0.0047507593 0.0039875968
0.00044947685 -0.0047488636 0.0039900667
0.00079999998 -0.0026880179 0.0040172781
0.00079999998 -0.0035333072 0.0040214597
-0.00079999998 -0.0028033783 0.0041163
0.00079999998 -0.0015376986 0.0041268053
-0.00079999998 0.0003937601 0.0041231303
0.00079999998 0.0022276125 0.0041216169
-0.00079999998 -0.0032891927 0.0041758167
0.00012199339 -0.0046030316 0.0041801054
0.00032404103 0.0045972643 0.0041876202
-0.00079999998 -0.0027824475 0.0042064763
0.00079999998 -0.0034053936 0.0042185509
-0.00079999998 0.0037515168 0.0042202324
0.00079999998 0.0035453257 0.0042385138
0.00079999998 0.00018225408 0.0042657917
0.00079999998 -0.0015334586 0.0042816782
0.00079999998 -0.00039385987 0.0042985966
0.00079999998 0.0043167961 0.0042961976
-0.00011055404 -0.0044906107 0.0043266048
-3.9969127e-05 -0.004484667 0.0043343492
-0.00079999998 -0.0034487555 0.0043349522
-0.00079999998 -0.0021658097 0.0043326523
0.00079999998 -0.00077646592 0.0043459362
-0.00079999998 0.0029482299 0.0043709972
0.00079999998 -0.0040968102 0.004420409
0.00079999998 -0.0039570481 0.0044283909
4.8377038e-05 0.004415493 0.0044223987
-0.00079999998 -0.0035790096 0.0044428846
0.00019987411 -0.0043734456 0.0044546649
0.00079999998 -0.0032884139 0.0044571585
0.00079999998 -0.0014426097 0.0045150672
0.00079999998 0.0036450906 0.0045199874
-0.00079999998 0.00057387119 0.0045208582
0.00079999998 -0.0019089078 0.0045428607
-0.0001231488 0.0042591877 0.0045423447
-0.00014505893 -0.0042440752 0.004553942
0.00079999998 0.00072645833 0.0045583504
-0.00079999998 -0.0031199858 0.0045778686
-0.00079999998 0.0039977538 0.0045965542
0.00079999998 0.003575051 0.0046094898
-0.00079999998 -0.00046000571 0.0046133883
-0.00079999998 0.0009003288 0.0046220925
-0.00079999998 0.0036349865 0.0046343245
-0.00079999998 -0.0012599792 0.0046440796
-0.00079999998 0.0022563024 0.0046461946
0.00079999998 -0.00040802557 0.0046767611
0.00079999998 -0.00031680585 0.004673311
0.00079999998 0.0013240491 0.0046743872
0.00079999998 0.0027720539 0.0046702824
-0.00079999998 -0.0013061693 0.0047058007
0.00079999998 0.0037499263 0.0047009815
-0.00079999998 -0.0013899807 0.0047260388
-0.00079999998 -0.0011463448 0.0047227852
0.00033684392 -0.0039843502 0.0047532497
-0.00079999998 -2.9803277e-05 0.0047594961
6.7256129e-05 0.0039823544 0.0047547817
0.00044297011 0.003981946 0.0047550956
-0.00079999998 0.0026432974 0.0047812304
-0.00079999998 0.0005314633 0.0048108064
0.00079999998 -0.0032872208 0.0048216605
0.00079999998 -0.0021693243 0.0048285737
-0.00079999998 0.0022528113 0.0048483373
0.00079999998 0.0035196322 0.0048466008
-0.00079999998 -0.0021419583 0.0048596892
0.00079999998 0.00329647 0.004864776
-0.00079999998 -0.00068704801 0.0048972941
-0.00079999998 0.0022317092 0.0048973728
-0.00079999998 -0.0027872964 0.004908686
0.00051676645 -0.0037242954 0.0049528126
0.00070057454 -0.0037179384 0.0049576904
0.00079999998 -0.0027002296 0.0049629118
0.00079999998 -0.0025676235 0.0050353599
-0.00079999998 -0.0016931751 0.0050435537
-0.00079999992 -0.00039476325 0.0050533395
-0.00079999998 0.0013640032 0.0050528911
-0.00079999998 -0.0033794686 0.0050784918
-0.00079999998 -0.0027512023 0.0050800466
-0.00079999998 -0.0018059387 0.0050947908
0.00079999998 0.00094260497 0.0051080431
0.00079999998 0.00010074878 0.0051527349
0.00079999998 -0.0031198687 0.0051670191
-0.00079999998 -0.0027510065 0.0051622768
0.00027074016 0.003447942 0.0051648803
0.00079999998 -1.6560316e-05 0.0051772469
0.00079999998 0.0028458044 0.0051708203
-0.00033475307 0.0034074131 0.0051959814
0.00070701935 -0.0033978971 0.0052032839
-0.00079999998 -0.0028588532 0.0052009295
-0.00079999998 -0.0013105061 0.0052122106
0.00042513158 -0.0032653424 0.0053050038
0.00074799423 -0.0032672307 0.0053035552
0.00020721651 -0.0032379727 0.005326007
0.00079999992 0.0024157697 0.0053253039
-0.00079999998 -0.0028943254 0.0053419308
-0.00079999998 0.00020684506 0.0053413869
-0.00079999992 -0.00055628218 0.0053649032
-5.7223449e-05 -0.0031741424 0.0053749899
0.00079999998 -0.00024907649 0.0053728898
-0.00079999998 0.001158607 0.0053702998
-0.00060739263 0.003168996 0.0053789383
0.00057996606 -0.0031668723 0.0053805681
-0.00079999998 -0.002262753 0.0053858547
0.00079999998 -0.00065880315 0.00538653
0.00079999998 -0.0020697946 0.0054455409
-0.00079999998 0.0018076359 0.0054492475
0.00079999998 -0.0010175657 0.0054898094
-0.00079999998 -0.0023000904 0.005515384
8.3828185e-05 0.0028543093 0.0055248085
-0.00079999998 0.0015694619 0.0055337567
-0.00079999998 -0.00087003293 0.0055495123
-0.00079999998 -0.0020225747 0.0055615278
-0.00079999998 -0.0015113252 0.0055621169
-0.00012408722 -0.0027216857 0.0055797361
0.00079999998 0.0023334266 0.0055743181
-0.00063405896 -0.0027179427 0.0055812863
-0.00079999998 -0.0020058618 0.0055812355
0.00079999998 0.0021212928 0.0056238566
0.00052911637 -0.002597434 0.0056311954
-0.00028525238 0.0025717153 0.0056418469
-5.3106789e-05 0.0025314153 0.0056585371
-0.00021183214 0.0025051609 0.0056694108
0.00027448899 0.0024886564 0.0056762462
-0.00079999998 0.00021989566 0.0057133962
-0.00079999998 0.0020870275 0.0057243644
0.00075637939 -0.0022642012 0.0057692062
0.00067877822 0.0022325665 0.0057823081
0.00079999992 0.00070748513 0.0058278781
0.00056909979 0.0020977613 0.0058381385
0.00079999998 -0.00082263752 0.005847482
-0.00072191999 -0.0020604974 0.005853571
-0.00079999998 0.0018660006 0.0058659096
-0.00053777173 -0.0020173348 0.0058714477
-0.00019310824 0.0019201569 0.0059116948
-0.00079999998 -0.00060754595 0.0059585492
0.00079999998 7.4646478e-06 0.006014728
0.00027882544 -0.0016453625 0.0060255025
-0.00068455667 -0.0016291371 0.0060322224
-0.00072479626 0.0015997267 0.006039354
-3.8949474e-05 0.0016228014 0.006034846
0.00026365093 -0.0015788854 0.0060420982
-8.0510799e-05 0.0015600726 0.0060445755
-7.3332136e-05 -0.0014492862 0.0060591633
-0.00026889838 0.001464159 0.0060572051
-0.00054619164 0.001342082 0.0060732802
-0.00071581808 -0.0012813637 0.0060812752
-0.00035029356 0.0010446064 0.0061124503
-0.00065677072 0.00091482443 0.0061295391
-0.00034239181 0.00092367904 0.0061283736
0.00026958052 0.00094173104 0.0061259968
-0.00021357993 -0.00072124403 0.0061550294
0.00042939678 -0.00059610739 0.0061715073
0.0001085357 -0.00053824205 0.0061791269
0.00049871538 -0.00050180132 0.0061839251
-0.00027164037 0.00040400549 0.0061968025
0.00075505581 -0.0003347813 0.0062059178
0.0004542 0.00030688086 0.0062095914
-0.00055152213 -0.00014102423 0.0062314309
0.00060234353 -3.1845575e-05 0.0062458068
