# .PCD v0.7 - Point Cloud Data file format
VERSION 0.7
FIELDS x y z
SIZE 4 4 4
TYPE F F F
COUNT 1 1 1
WIDTH 1000
HEIGHT 1
VIEWPOINT 0 0 0 1 0 0 0
POINTS 1000
DATA ascii
0.00067699415 3.3713972e-05 -0.0062455609
0.00042010873 -7.9891077e-05 -0.0062394803
-0.00044668902 0.00012809441 -0.0062331329
-0.00070559385 0.0001432003 -0.0062311441
-0.00041533788 -0.00053927017 -0.0061789905
0.00066467252 0.00053474988 -0.0061795861
0.0002193671 -0.00067924929 -0.0061605591
-0.00080000004 -0.00069003034 -0.0061577167
0.00027974008 0.001016442 -0.0061161588
0.00040127261 0.0010389006 -0.0061132014
0.00061276689 0.0011040458 -0.006104623
-0.0001432656 0.0011406759 -0.0060998006
-0.00032075783 0.001179414 -0.0060946993
0.00075184024 -0.0012415034 -0.0060865232
0.0002799269 0.001516589 -0.0060503013
-0.00036270436 -0.0015354465 -0.0060478179
0.00080000004 0.0002953416 -0.0060473424
0.0008000001 -0.00060292811 -0.0060350546
-0.00080000004 0.0016065248 -0.0060352236
0.00012099592 -0.0017052923 -0.0060006822
-7.1141367e-05 -0.0016930175 -0.0060057659
0.00057574571 0.0018123563 -0.005956341
0.00080000004 0.0015633325 -0.0059424085
-0.00072140573 0.0018915308 -0.0059235501
-0.0001105274 0.0019154357 -0.0059136497
0.00079999998 -0.00093843084 -0.0058802231
0.00080000004 0.0014163118 -0.005880517
-0.00069242582 0.002005507 -0.005876346
0.00080000004 0.0009568801 -0.0058541796
-0.00031191402 0.0021224576 -0.0058279098
-0.00079999998 0.00062893552 -0.0057962164
0.00066254428 0.0023415873 -0.0057371561
-0.00016149033 -0.0024439276 -0.0056947717
0.00080000004 -0.001733016 -0.0056473603
0.00078498572 -0.0026348904 -0.0056156828
0.00080000004 -0.00013578708 -0.0055968864
-0.0008000001 8.7006225e-07 -0.0055845603
0.0008000001 -0.0021019978 -0.0055481284
-0.00080000004 6.5648346e-05 -0.0055363202
0.0008000001 -0.00032392255 -0.0055226949
-0.00080000004 3.4315588e-05 -0.0054893778
-0.0003832345 -0.0030515892 -0.0054431041
-0.00024530734 0.0030509678 -0.0054433611
0.00056050794 0.0030684399 -0.0054361257
-0.0008000001 0.0015409248 -0.0054285186
0.00080000004 0.001860413 -0.0054036947
0.00080000004 0.0018902881 -0.0054038782
0.00080000004 -0.00067417079 -0.0053907386
0.00080000004 0.0012368256 -0.0053938162
-0.00079999998 0.0029582665 -0.0053910059
-4.1094187e-05 0.0031554813 -0.0053893095
-0.0008000001 -0.0022240516 -0.0053590438
-0.0008000001 -0.0021054393 -0.0053530205
0.00080000004 -9.5542659e-05 -0.0053157695
-0.00079999998 0.00031625378 -0.0053161955
0.0008000001 -0.00085148338 -0.0053036646
-0.00080000004 0.0016543242 -0.0053027184
0.00010499037 0.0032700293 -0.0053014075
0.00080000004 -0.0013372592 -0.0052889213
-0.00080000004 -0.0001741602 -0.0052892677
0.00080000004 0.0015529924 -0.005289623
0.00080000004 0.0031706477 -0.0052817501
-0.0008000001 0.0031602189 -0.0052790362
0.00072488713 0.003298651 -0.0052794442
0.00080000004 0.0003490794 -0.0052650743
0.00057425426 -0.0033805377 -0.0052166055
9.8557182e-05 -0.0034073819 -0.0051960056
-0.00080000004 -0.0017559736 -0.0051865731
0.00080000004 -0.0017035063 -0.0051754955
-6.734595e-06 -0.0034492805 -0.0051638535
-0.00080000004 -0.00070137967 -0.0051670745
0.00034128231 -0.0035004667 -0.0051245741
0.00080000004 0.0010510611 -0.0051156054
-0.00080000004 0.00064488436 -0.0051073967
0.00080000004 0.00070233986 -0.0051099397
0.00080000004 0.000159114 -0.0050814291
0.00080000004 -0.0026715223 -0.005078176
0.00051830534 -0.003582261 -0.0050618066
0.00080000004 -0.0029375602 -0.0050349403
-0.00080000004 0.00061000773 -0.0050370181
-6.4685824e-05 0.0036111639 -0.0050396272
0.00079999998 0.0010220584 -0.005028659
0.00080000004 0.0029164704 -0.0050067604
-0.0008000001 -0.0020662982 -0.0049971277
0.00080000004 0.00015691329 -0.0049886508
0.00080000004 0.0029001429 -0.0049668285
-0.00080000004 0.0030053779 -0.0049565602
0.00032603697 -0.0037660887 -0.0049207401
-0.00080000004 -0.001886364 -0.00491919
0.00079999998 -0.00039489658 -0.0049144113
-0.0004484893 -0.0037876258 -0.0049042134
7.1040486e-05 -0.0038339426 -0.0048686708
-0.0008000001 -0.0026313497 -0.0048697614
-0.0008000001 0.0012244071 -0.004863645
-0.0008000001 0.0036165598 -0.004853257
0.00080000004 0.00091118977 -0.0048443154
-0.0008000001 0.0035061562 -0.0048403596
-0.00076776632 -0.0038714267 -0.004839906
-0.00039478237 0.0038747189 -0.0048373798
-0.00080000004 -0.0035232082 -0.0048217745
0.0008000001 0.0026094045 -0.0048238747
-0.00061530306 -0.0039092419 -0.0048108874
0.0008000001 -0.0027495453 -0.0048187319
-0.00080000004 -0.0036886879 -0.0048092348
-0.00079999998 -0.0025869957 -0.0047910167
0.0008000001 -0.0013112302 -0.0047958945
-0.00080000004 0.00079807639 -0.0047722193
-0.00080000004 -0.00010067791 -0.0047535291
-0.0008000001 0.00059385452 -0.004751652
-1.4231414e-05 0.0039875968 -0.0047507593
-0.00080000004 -0.0021469337 -0.004737414
-0.00080000004 0.00066959322 -0.0047348933
-0.00080000004 0.0015661907 -0.0047250418
0.0008000001 0.0026368804 -0.0047125448
0.00080000004 -0.0032245975 -0.0046837307
-0.00080000004 0.0025026975 -0.0046780342
0.00080000004 0.0033400052 -0.0046578925
-0.0008000001 0.0013472862 -0.0046232538
-0.00080000004 -0.0026787911 -0.0046140379
0.0008000001 -0.0016560388 -0.0046148123
0.0008000001 -0.0018854059 -0.0045942711
0.00032404109 0.0041876202 -0.0045972643
0.00080000004 0.0012210502 -0.0045869029
0.00079999998 0.0015238489 -0.0045762053
-0.00080000004 9.9567755e-05 -0.0045697647
-0.00080000004 -0.0032884136 -0.0045520458
-0.00080000004 0.0027435364 -0.0045532524
0.00079999998 0.00056829338 -0.0045441217
0.00080000004 0.0012641 -0.0045247409
-0.00080000004 0.003772869 -0.0045165136
-0.0008000001 -0.0013522555 -0.0044904128
-0.0008000001 0.003856526 -0.0044946102
-0.00080000004 0.0010008283 -0.0044723949
0.00080000004 0.0032261233 -0.0044737398
-0.00027119234 -0.0043633962 -0.0044623772
-0.00079999998 -0.0013446091 -0.0044646054
-0.0008000001 -0.00220641 -0.0044436362
0.0008000001 0.0031954912 -0.0044359919
0.00080000004 -0.0020429008 -0.0044147531
4.8377038e-05 0.0044223987 -0.004415493
-0.00079999998 -0.0039239018 -0.0043980987
0.00064271636 -0.0044451063 -0.0043859021
-0.00079999998 0.002792906 -0.0043608672
0.00079999998 -0.0036803968 -0.0043351729
0.0008000001 0.0042961976 -0.0043167961
0.00080000004 -0.0040309709 -0.004291995
0.0008000001 -0.0025004116 -0.0042693648
-0.00080000004 0.0033661448 -0.0042682593
0.00073617807 -0.0045469948 -0.0042531276
-0.0008000001 0.00028899469 -0.0042523029
-0.0001231488 0.0045423447 -0.0042591877
-0.00080000004 0.0019085499 -0.0042494456
-0.0008000001 0.0032959874 -0.004238761
0.0008000001 -0.00053626148 -0.0042282706
0.0008000001 -0.0019747037 -0.0041875369
0.00080000004 -0.0016078295 -0.0041698804
-0.00080000004 -0.0016888233 -0.0041566077
-0.0008000001 0.00052507623 -0.0041448935
-0.00080000004 0.0023863378 -0.0041270056
0.00037931802 -0.0046506119 -0.0041181012
0.00080000004 -0.0012960158 -0.0040976191
-0.00080000004 0.0015717107 -0.0040905513
0.0008000001 0.00031061226 -0.0040700543
-0.00079999998 -0.0019006613 -0.0040442231
0.00080000004 -0.00015487468 -0.0040440396
0.00080000004 -0.0042769145 -0.0040054987
0.0008000001 -0.00012995952 -0.0040012626
0.00080000004 -0.0038470717 -0.0039982609
-0.00080000004 0.0045965542 -0.0039977543
0.00080000004 -0.00035874176 -0.0039825635
6.7256129e-05 0.0047547817 -0.0039823544
0.00044297017 0.0047550956 -0.003981946
-0.00080000004 -0.0015479897 -0.0039648362
0.0008000001 -0.00020551098 -0.0039481763
0.0008000001 0.0021402987 -0.0039323573
-0.0008000001 -0.0034187292 -0.0039246357
-0.00080000004 -0.0024601512 -0.0039169439
0.00080000004 0.00066149788 -0.0039168554
-0.0008000001 0.0029296845 -0.0039071795
-0.00080000004 -0.0024958875 -0.003889665
-0.00080000004 -0.00061914866 -0.0038874589
0.0008000001 -0.00010501032 -0.0038833236
-0.0008000001 -0.0037407018 -0.003871263
-0.00080000004 -0.0023753427 -0.0038716141
-0.00080000004 -0.0015146254 -0.0038778821
-0.00080000004 -0.00060943235 -0.0038489415
-0.00010675193 -0.004867055 -0.0038360483
-0.00079999998 -0.0034717971 -0.0038358618
-0.0008000001 0.002894836 -0.0038389757
-0.0008000001 -0.00073761755 -0.0038292203
0.00080000004 0.0037597544 -0.0038070581
0.00080000004 -0.0047082962 -0.0037991544
-0.00080000004 -0.0002864626 -0.0037924538
0.00079999998 -0.0031643028 -0.003777408
0.0008000001 0.0032723953 -0.0037731696
-0.00080000004 -0.0032066614 -0.0037636666
-0.00080000004 0.0042202324 -0.0037515168
0.00080000004 0.0047009815 -0.0037499266
-0.00080000004 -0.0046776496 -0.0037349721
0.00080000004 -0.0014636534 -0.0036991718
-0.00079999998 0.0032728112 -0.0036940409
-0.0008000001 0.0033932021 -0.0036922938
-0.00080000004 -0.0015327993 -0.0036854451
-0.00080000004 -4.2884971e-05 -0.0036868611
-0.00080000004 -0.0037565734 -0.0036796266
0.00025764448 -0.0049982006 -0.003665148
-0.00080000004 -0.0047239303 -0.0036514732
0.00080000004 0.0045199874 -0.0036450906
0.00080000004 -0.0029819054 -0.0036364309
-0.00080000004 0.0025215826 -0.0036389143
0.00080000004 0.0034731294 -0.0036395527
-0.00080000004 0.0046343245 -0.0036349865
-0.00080000004 -0.0023034834 -0.0036259217
-0.0008000001 -0.0049395869 -0.0036056568
0.00080000004 -0.0002236908 -0.0036003578
-0.00080000004 0.0016105488 -0.0035950544
0.00079999998 0.0025767949 -0.0035990397
0.0008000001 0.001193434 -0.0035749942
-0.00080000004 0.0016900343 -0.0035748915
0.00080000004 0.0046094898 -0.003575051
-0.00080000004 0.0032085697 -0.003564273
0.0008000001 0.0025006358 -0.003545814
0.00080000004 0.0042385138 -0.0035453257
0.00080000004 -0.0046758559 -0.0035379818
-0.0008000001 -0.0015835691 -0.0035369298
-0.0008000001 -0.0051066689 -0.0035187395
-0.00080000004 -0.0048537515 -0.0035102651
0.00080000004 0.0048466008 -0.0035196326
-0.00062252383 -0.0051210672 -0.0035050365
-0.00079999998 -0.0029865101 -0.0035063832
-0.00080000004 -0.00036064308 -0.0035043098
0.00080000004 0.003392566 -0.003507311
-0.00079999998 -0.00043273153 -0.0034919553
-0.00026742736 -0.0051685353 -0.0034431792
-0.00080000004 0.0028648593 -0.0034415324
0.00027074016 0.0051648803 -0.003447942
-0.00069503422 -0.0051761125 -0.0034333053
-0.00080000004 -0.0041608666 -0.0034386117
0.00080000004 -0.00077822496 -0.003434608
0.0008000001 -0.0037575327 -0.0034048841
-0.0003347531 0.0051959814 -0.0034074134
0.0008000001 0.0035692942 -0.0033811803
-0.00080000004 0.0024429469 -0.0033685637
0.00080000004 0.0018867272 -0.003359728
0.00080000004 -0.0049007158 -0.0033124997
-0.00073477312 -0.0052720089 -0.0033083395
0.00080000004 -0.0033591655 -0.0032909426
0.00080000004 0.004864776 -0.0032964703
0.00043329183 -0.0052939625 -0.0032797309
0.00080000004 0.00094112731 -0.003246689
-0.0008000001 -0.0050899521 -0.0032251682
-0.0008000001 -0.0039529423 -0.0032282404
0.0008000001 -0.0023928152 -0.003228965
0.00080000004 -0.0018902266 -0.0031929475
0.00022935355 5.2673229e-05 -0.0031930676
0.00079311576 -0.00014312187 -0.0031811639
0.00080000004 0.0033526975 -0.0031866117
0.0008000001 0.0029856865 -0.0031626741
-0.00060739269 0.0053789383 -0.0031689962
0.00052091049 -0.0053871605 -0.0031582823
-0.00014321769 -0.00034412977 -0.003154709
0.00011242951 0.00035095285 -0.0031538112
-0.00030074545 0.00036603861 -0.0031518256
-0.00061291555 -0.00040876062 -0.003146203
0.00079658569 -0.00047782416 -0.0031371133
-0.00070465886 0.00049074506 -0.0031354129
-6.3207488e-05 0.00066640507 -0.0031122942
0.0008000001 0.0038045722 -0.003107154
0.00079999998 0.0031368034 -0.0030954941
0.0008000001 -0.0027550142 -0.0030812502
0.00080000004 -0.0023489469 -0.0030627877
0.00065508159 0.00089940411 -0.0030615055
-0.0008000001 -0.0034432383 -0.0030407144
-0.00073295872 0.00096070761 -0.0030361121
-0.0008000001 0.0031997343 -0.003010195
-0.0008000001 -0.001403282 -0.0029922589
0.00040712341 0.0010588382 -0.0029954638
-0.0008000001 0.0018778298 -0.0029984599
0.0008000001 -0.0026322124 -0.0029889329
0.00080000004 0.002966234 -0.0029876695
0.00080000004 -0.0021380445 -0.002979191
0.00079999998 0.0035371664 -0.0029705777
0.00035082229 0.0011419524 -0.0029610354
0.00080000004 -0.0051328144 -0.0029546481
-0.0008000001 0.0043709972 -0.0029482299
-0.00079999998 0.0039221984 -0.0029309823
-0.0008000001 -0.0018011582 -0.0029109283
-0.00033305833 -0.0012587126 -0.0029126708
0.00035271962 -0.0012590045 -0.0029125498
0.00074857642 0.0013123772 -0.0028904411
-0.00031112981 -0.0013285558 -0.0028837395
-0.00063076662 -0.0055164606 -0.0028744664
-0.00010035504 0.00137876 -0.002862944
8.3828185e-05 0.0055248085 -0.0028543093
0.00079999998 0.0051708203 -0.0028458044
-0.0008000001 0.0025975786 -0.0028158957
-0.00080000004 0.0019239091 -0.0027846158
0.00080000004 0.0027048104 -0.0027824966
0.00030604118 -0.0015881169 -0.0027762225
0.0008000001 0.0046702824 -0.0027720539
-0.00062054879 -0.0055670454 -0.0027523274
0.0008000001 -0.0037737272 -0.002750308
-0.00080000004 -0.0034893225 -0.0027558608
0.00080000004 -0.0045469124 -0.0027307216
0.00044269362 -0.0016454745 -0.0027364003
0.00056474505 0.0016786042 -0.0027109741
0.00080000004 -0.0017297224 -0.0026989134
0.00055057666 -0.0017361384 -0.0026668187
0.00049306382 0.001737784 -0.0026655556
-0.0008000001 -0.0028133332 -0.0026425109
-0.0008000001 0.0047812304 -0.0026432974
-0.00034024639 0.0017866758 -0.0026280328
6.287456e-06 0.0018350774 -0.0025908863
0.0008000001 -0.005133878 -0.0025810122
-0.0002852524 0.0056418469 -0.0025717155
0.00080000004 -0.0035161856 -0.0025624512
-0.0008000001 -0.0026765445 -0.0025375965
0.00019043536 0.0019075756 -0.0025352463
-5.3106789e-05 0.0056585371 -0.0025314156
-0.00080000004 -0.0054431166 -0.0025143411
-0.00080000004 -0.0028926248 -0.0025114638
0.00046395924 -0.0019287984 -0.0025189584
-0.0002118322 0.0056694108 -0.0025051609
0.00050181604 -0.0056724162 -0.0024979061
-0.00079999998 0.0034052699 -0.0024910311
0.00027448899 0.0056762462 -0.0024886569
0.00080000004 0.0023505806 -0.0024680095
0.00079999998 -0.0023150481 -0.0024502503
-0.00057624484 0.0020105706 -0.0024562012
0.00079999998 0.0053253039 -0.00241577
-0.00080000004 -0.0033533666 -0.0024045205
-0.00080000004 -0.0044480111 -0.0023923453
-0.00079999998 -0.0041068499 -0.0023631784
-0.0008000001 -0.0040110997 -0.0023595979
0.00080000004 -0.0045378827 -0.0023315032
0.00080000004 0.0055743181 -0.0023334266
-0.00080000004 -0.004620139 -0.0023253846
0.00080000004 0.0029667993 -0.0023000247
3.0700269e-06 -0.0057683545 -0.0022662564
7.4071701e-05 -0.002263909 -0.0022611252
-0.00080000004 0.0046461946 -0.0022563024
-0.0008000001 0.0048483373 -0.0022528113
-0.00080000004 0.0048973728 -0.0022317092
0.00067877828 0.0057823081 -0.0022325667
0.00080000004 -0.0056144716 -0.0022299723
-0.00079999998 0.002844638 -0.0022200807
0.00079999998 0.0041216169 -0.0022276125
0.00080000004 0.0027306422 -0.0022020848
-0.00079999998 -0.0048708078 -0.0021873985
-0.0008000001 0.002978279 -0.0021507558
0.00018242333 -0.0058206045 -0.0021400973
0.00073155435 -0.0023516819 -0.0021467577
0.00080000004 0.0056238566 -0.002121293
-0.0008000001 -0.0057285759 -0.0020917931
-0.00080000004 -0.0055238008 -0.0020995531
-0.00080000004 -0.0042894231 -0.0020901575
-0.00080000004 0.0038475245 -0.002093269
0.00056909979 0.0058381385 -0.0020977617
-0.00080000004 0.0057243644 -0.002087028
0.00017834663 -0.0058516711 -0.0020650858
-0.00010165641 0.0024453669 -0.0020246876
9.3640454e-05 0.0024461756 -0.0020236343
0.0008000001 -0.0035384081 -0.0020133744
-0.00022714607 -0.0024529512 -0.0020148056
-0.0008000001 -0.0053655012 -0.0019515335
-0.00080000004 -0.0055116001 -0.0019401904
0.00031642086 -0.0025100745 -0.0019403744
0.00079285598 0.0025091043 -0.0019416383
-0.00019310825 0.0059116948 -0.0019201572
-0.00042834683 -0.0025317085 -0.0019121858
-0.00069866027 0.0025538115 -0.0018833855
-0.00080000004 -0.0041196551 -0.0018628803
-0.0008000001 0.0058659096 -0.0018660008
0.00079999998 -0.0057836347 -0.0018507064
-0.00072483375 -0.0025934167 -0.0018317802
-0.00080000004 0.0054492475 -0.0018076361
-0.00032140379 0.0026239133 -0.0017920436
-0.0008000001 0.003481918 -0.0017940614
0.00079999998 -0.0031593295 -0.0017841858
-0.00060721207 0.0026288042 -0.0017856711
-0.00079999998 0.0031716975 -0.0017610473
-0.00042598616 -0.0059880298 -0.0017358415
-0.00080000004 -0.0027022245 -0.0017387891
0.0008000001 0.0028750976 -0.0017367196
0.00079999998 -0.0040305406 -0.0017244891
-0.00080000004 -0.0038145105 -0.001717821
-0.00079999998 -0.0029185284 -0.0017043327
0.00079999998 0.0029651092 -0.0017022043
0.00080000004 0.0032784063 -0.0016697798
-3.8949474e-05 0.006034846 -0.0016228016
0.00080000004 -0.0057774889 -0.0016025999
0.00080000004 0.0037400215 -0.0015913675
-0.00072479632 0.006039354 -0.001599727
0.00080000004 -0.0052641537 -0.0015656004
-0.00079999998 0.0055337567 -0.0015694621
-8.0510799e-05 0.0060445755 -0.0015600728
-0.00080000004 0.0035831048 -0.0015298183
0.0008000001 -0.004283342 -0.0014983941
-0.00079999998 0.0032387516 -0.0014771501
-0.00026889841 0.0060572051 -0.0014641593
0.00042606052 0.0028367436 -0.0014420112
-0.0002943617 -0.0060609877 -0.001435429
-0.0008000001 0.0032512094 -0.0014150066
0.00080000004 0.003395593 -0.0013965522
-0.00080000004 -0.0057653035 -0.0013776566
0.0008000001 -0.0043593599 -0.0013702089
-0.00080000004 0.0030931879 -0.0013729731
-0.00079999998 0.0050528911 -0.0013640032
0.00080000004 -0.0031829681 -0.0013524945
0.0008000001 -0.0045267474 -0.0013448141
-0.0005461917 0.0060732802 -0.0013420822
0.00080000004 0.0039224718 -0.0013357389
0.00080000004 0.0046743872 -0.0013240491
0.00080000004 0.0030073749 -0.0012904396
-0.00080000004 -0.003478799 -0.0012439883
-0.0008000001 -0.0043949434 -0.0011630782
-0.00080000004 0.003718155 -0.0011641097
0.00080000004 -0.0043392512 -0.0011503391
-0.00080000004 0.0053702998 -0.0011586073
0.00080000004 -0.0050422708 -0.0011446119
-0.00080000004 -0.0046338243 -0.0011410528
-0.00079999998 -0.0032925203 -0.0011403825
0.0008000001 -0.0059090299 -0.0011361935
-0.0008000001 0.0031787008 -0.0011300629
-0.0008000001 -0.0043687955 -0.0011258322
-0.00080000004 -0.0029805526 -0.0011256052
0.00080000004 -0.0048917914 -0.0010940761
-0.00079999998 -0.005569397 -0.0010825483
0.00040671174 -0.0029952743 -0.0010592958
-0.00035029365 0.0061124503 -0.0010446068
0.00080000004 -0.0043129232 -0.0010310074
0.00080000004 -0.004832251 -0.0010245621
-0.0008000001 -0.0053207269 -0.0010023827
-0.00018298239 0.0030261003 -0.00098487781
5.9919657e-05 0.0030312159 -0.00097252819
-0.00080000004 -0.0040281299 -0.0009625915
-0.00079999998 -0.0038934352 -0.00096066506
0.00080000004 0.0051080431 -0.00094260497
0.0002695806 0.0061259968 -0.00094173127
-0.00080000004 0.003395908 -0.00093110232
0.00080000004 0.0035137068 -0.0009328585
-0.00034239184 0.0061283736 -0.00092367927
-0.00065677072 0.0061295391 -0.00091482472
-0.00080000004 0.0046220925 -0.0009003288
0.00020538045 -0.006137297 -0.00085590832
0.00069728703 0.0030818069 -0.00085039402
0.0008000001 0.0038220503 -0.00085465668
0.00080000004 -0.0034234172 -0.0008417326
-0.00080000004 0.0036871545 -0.00082488585
-0.00028589542 -0.0030944711 -0.00080182723
-0.00029579559 -0.0061453921 -0.00079443364
-0.00080000004 0.0034465161 -0.00079641363
0.0008000001 -0.0031129033 -0.00072017411
-0.00039215092 0.0031047121 -0.00072401518
0.00080000004 0.0045583504 -0.00072645838
0.00080000004 0.0058278781 -0.00070748525
-0.00066420017 -0.0061583202 -0.00069625239
-0.0008000001 -0.004250465 -0.00068612339
-0.00079999998 -0.0053073708 -0.00066528074
-0.0008000001 -0.0043164198 -0.00066206552
-0.00080000004 -0.0042623072 -0.00065891305
0.00047570452 -0.0031155692 -0.00064152089
-0.00080000004 -0.0045560477 -0.00063382264
-0.00080000004 -0.0035829723 -0.0006233211
0.0002937378 0.0031194976 -0.00061167375
0.00080000004 -0.0051646447 -0.00057877338
-0.0008000001 0.0045208582 -0.00057387119
0.00025298219 -0.0031282387 -0.00054525438
8.5058098e-05 0.0031299293 -0.00053241226
-0.0008000001 0.0048108064 -0.00053146342
0.00058252906 0.0031353305 -0.0004913708
3.7861468e-05 -0.0061875051 -0.00047461069
-0.00080000004 -0.0057079094 -0.00046072234
-0.00080000004 -0.0055385162 -0.00044720032
0.00079999998 -0.0041930405 -0.00042461802
-0.0002716404 0.0061968025 -0.00040400575
-0.0008000001 0.0041231303 -0.0003937601
0.00080000004 0.0036619245 -0.00037354007
0.0008000001 -0.0058421618 -0.00034169163
0.00080000004 -0.0047513247 -0.00031509032
0.0004542 0.0062095914 -0.00030688112
-0.00027311832 -0.0062134159 -0.0002778343
0.00079999998 -0.0051068282 -0.00022936227
0.00079999998 -0.0050253058 -0.00021521343
-0.0008000001 0.0057133962 -0.00021989597
-0.0008000001 0.0053413869 -0.00020684517
0.00080000004 0.0042657917 -0.00018225408
-0.00078062154 0.0031781087 -0.00016633702
0.0008000001 0.0051527349 -0.0001007489
-0.00053471746 0.0031901612 -7.4758937e-05
-0.00080000004 -0.003209305 -5.3906548e-05
0.0008000001 0.006014728 -7.4648265e-06
0.00073500158 0.0031983552 1.2499899e-05
0.0008000001 0.0051772469 1.6560198e-05
-0.00050647138 -0.006246442 2.702255e-05
-0.00079999998 0.0047594961 2.9803159e-05
-0.00058865506 0.0031956953 3.2708813e-05
0.00060234359 0.0062458068 3.1845302e-05
0.00077505357 0.0031946001 4.1032468e-05
0.00047699042 -0.003188747 8.5502688e-05
-0.00058772712 -0.0062325872 0.00013224233
-0.00080000004 -0.005976826 0.00013868774
-0.00055152219 0.0062314309 0.00014102393
-0.00080000004 -0.0036955629 0.00015632821
0.00045237548 0.0031802119 0.00015035411
0.00024496132 0.0031703946 0.00022494729
0.00049852493 0.003170965 0.00022061233
-0.0008000001 -0.0057570613 0.00024180861
0.00080000004 0.0053728898 0.00024907626
-0.00080000004 -0.0044793533 0.00027333168
-0.00016220751 -0.0062111169 0.00029529291
0.0008000001 -0.0050442591 0.00029745616
0.00080000004 -0.0040027117 0.00029755288
-0.00056495686 0.0031589672 0.00031177356
0.0008000001 0.004673311 0.00031680579
-0.00072738092 -0.0062069953 0.00032659856
-0.0008000001 -0.0037383421 0.00032370019
0.00075505581 0.0062059178 0.00033478104
0.0002560502 -0.0062049995 0.00034174992
0.0008000001 -0.0055170325 0.00037505641
0.0002427397 0.0031473825 0.00039979772
0.00080000004 0.0032318574 0.00039358958
0.00079999998 0.0042985966 0.00039385987
-0.00079999998 0.0050533395 0.00039476313
0.00080000004 0.0046767611 0.00040802552
-0.00062497612 -0.0061898748 0.00045661829
-0.0008000001 0.0046133883 0.00046000566
0.00030421515 -0.0061876238 0.00047370966
-0.00080000004 -0.00432766 0.00049032597
-0.0008000001 -0.0050797649 0.00050535536
-0.0008000001 -0.0047583212 0.00050012401
0.00049871544 0.0061839251 0.00050180109
0.00080000004 -0.0052054483 0.00051572017
0.00010853567 0.0061791269 0.00053824176
0.00080000004 -0.0054952838 0.00054512394
-0.00056297373 -0.0031283768 0.00054420665
-0.00079999998 0.0053649032 0.00055628183
0.00080000004 -0.0042862589 0.00058785704
0.00042939678 0.0061715073 0.0005961071
-0.0008000001 0.0059585492 0.00060754578
0.0008000001 -0.0055256123 0.00063695351
0.00079999998 0.00538653 0.0006588028
0.00080000004 -0.0040768855 0.00068551465
-0.00080000004 0.0048972941 0.0006870479
-0.00021357996 0.0061550294 0.00072124379
0.00031138476 -0.0061530215 0.00073649309
-0.0008000001 -0.0061273845 0.00076143636
0.00080000004 0.0043459362 0.00077646592
0.00080000004 -0.0045814444 0.00080133881
0.00052492542 0.0030926268 0.0008158416
0.00080000004 -0.0055944952 0.00082018157
0.00080000004 -0.0049889404 0.00082471559
0.00080000004 0.005847482 0.00082263729
0.00079999998 -0.0057641394 0.0008503967
-0.00080000004 0.0055495123 0.00087003259
0.00063147664 -0.0061280355 0.00092624669
-0.000265337 0.0030374993 0.00095735863
0.0008000001 0.0031351575 0.00096358615
0.00080000004 -0.0060325693 0.0010015307
0.00080000004 0.0054898094 0.0010175655
0.00080000004 0.0039791544 0.0010431233
0.00080000004 -0.0052817678 0.001052733
0.00036486535 0.002988911 0.0010746575
0.0004489799 0.0029796804 0.0010969412
-0.00080000004 -0.0057093003 0.0011071844
0.00024272827 0.0029665355 0.0011286754
-0.00080000004 0.0047227852 0.0011463447
0.00080000004 -0.0030042215 0.0011502313
0.00080000004 -0.0059107984 0.0011819276
-0.00059261644 -0.0029425595 0.0011865561
0.00068252825 -0.0029340764 0.0012070356
-0.0008000001 -0.0052625374 0.0012494681
-0.0008000001 -0.0040768818 0.0012484974
-0.00080000004 0.0046440796 0.0012599791
0.00080000004 0.0038889118 0.0012672076
-0.00071581814 0.0060812752 0.0012813633
-0.00080000004 0.0047058007 0.0013061692
0.00080000004 0.0038744614 0.0013123575
-0.0008000001 0.0052122106 0.0013105058
0.00080000004 -0.0056486218 0.001326055
-0.0008000001 0.0047260388 0.0013899807
-0.00043903227 0.0028439818 0.0014245363
0.0008000001 0.0032713052 0.0014386582
-0.00024382124 -0.0060600587 0.0014424874
0.00080000004 0.0045150672 0.0014426097
-7.3332136e-05 0.0060591633 0.001449286
-0.0008000001 -0.0029802036 0.001450274
0.00080000004 -0.003404411 0.0014686497
-0.0008000001 -0.0044985241 0.0014718234
1.2875051e-05 0.0028226948 0.001475926
-0.00020907528 -0.0028173958 0.001488719
-0.00080000004 0.0055621169 0.0015113248
0.0008000001 0.0041268053 0.0015376986
0.00080000004 0.0042816782 0.0015334586
-0.00080000004 -0.005269364 0.0015522402
0.00026365096 0.0060420982 0.0015788849
0.00031510618 0.0027505571 0.0016270282
-0.00068455678 0.0060322224 0.0016291369
-0.00034054389 0.0027378649 0.0016435662
0.00027882546 0.0060255025 0.0016453622
5.4073633e-05 -0.0060040387 0.0016971878
-0.00079999998 0.0050435537 0.0016931748
0.00080000004 -0.0057060272 0.0017076796
-0.00080000004 -0.0029978256 0.0017194549
-0.00080000004 -0.0059664287 0.0017813798
9.4051036e-05 0.0026318277 0.0017817311
-0.00079999998 0.0050947908 0.0018059387
-0.00056344888 -0.0059571234 0.0018104661
0.00079999998 0.0029519398 0.0018175937
-0.00080000004 -0.0035764477 0.0018347122
1.3856084e-05 -0.0059374068 0.0018580727
0.00080000004 -0.0041852351 0.0019047786
-0.00079999998 0.0039079944 0.0019061916
0.00080000004 0.0045428607 0.0019089078
0.0008000001 -0.0046479939 0.001920566
0.00034949119 -0.0059002806 0.0019477156
-0.00080000004 0.0055812355 0.0020058614
-0.00053777173 0.0058714477 0.0020173346
-0.00080000004 0.0055615278 0.0020225744
-0.00068518601 0.0024246369 0.0020516985
-0.00032926898 -0.0024148303 0.0020644763
-0.00031000367 0.0024115483 0.0020687531
0.0008000001 0.0054455409 0.0020697943
-0.00072192005 0.005853571 0.0020604969
0.00080000004 -0.0049179965 0.0021386039
-0.00043510771 0.0023579337 0.0021386119
-0.0008000001 0.0048596892 0.0021419581
2.793059e-05 -0.0023427086 0.0021584502
-0.0008000001 0.0043326523 0.0021658097
0.00080000004 0.0048285737 0.0021693243
-0.0008000001 -0.0026566689 0.0021749402
-0.00029224387 0.0023306226 0.0021741982
-0.00080000004 0.0025743819 0.0021921631
0.00080000004 -0.0039432305 0.0022182486
-0.00053011387 0.0022978394 0.0022169144
0.00080000004 -0.0024533463 0.0022231431
0.00042345049 -0.0022954303 0.0022200532
-0.00080000004 -0.0055561382 0.002240618
0.0006395583 0.0022796509 0.002240614
0.00080000004 -0.004821667 0.0022535753
-0.00080000004 -0.0027329139 0.0022505135
-0.00065858016 -0.0022722357 0.002250276
-0.00080000004 0.0053858547 0.0022627527
0.00075637939 0.0057692062 0.0022642007
0.00076667703 -0.0022445689 0.0022766152
0.00026078901 -0.0022292952 0.0022883373
-0.00080000004 -0.0045279325 0.0022990354
-0.00080000004 -0.0036916181 0.0023070627
-0.00080000004 0.005515384 0.0023000902
-0.00058828155 -0.0057490859 0.0023127827
-0.00079999998 0.0022251501 0.0023137704
-0.00080000004 -0.0052596829 0.0023484817
-0.00080000004 0.0037025441 0.002388099
0.00072513643 -0.0057137576 0.0023980835
-0.00080000004 -0.0056290152 0.0023910049
0.00079999998 -0.0032163798 0.0023943391
0.00080000004 -0.002754203 0.0023911397
-0.00020380957 0.0020885372 0.0023963642
-0.00080000004 0.002789451 0.0023921281
-0.0008000001 -0.004335653 0.0024019857
-0.0008000001 -0.0044782516 0.0024235959
-0.00063521392 -0.0056987535 0.0024343126
0.00010889963 -0.0020299016 0.0024413653
-0.00080000004 0.0032308032 0.0024444081
0.00076823105 -0.0056880116 0.0024602495
-0.00056753476 -0.0019806351 0.002479176
-0.00080000004 -0.0030183662 0.0024869407
0.00080000004 -0.0055077556 0.0024956672
0.00014968262 -0.0056674699 0.0025098487
0.00073935336 -0.0056682443 0.0025079786
0.00067341095 -0.0019394562 0.0025107793
0.0008000001 -0.0047133104 0.0025321206
0.00080000004 -0.004802506 0.0025515482
-0.00080000004 -0.0036229519 0.0025506041
0.00080000004 -0.0029871026 0.0025685567
0.0008000001 0.0050353599 0.0025676233
0.00073535531 -0.005641229 0.0025732089
5.4888162e-05 0.0018508128 0.0025788101
0.00052911643 0.0056311954 0.0025974335
-0.0008000001 -0.0040124706 0.0026030885
0.00080000004 -0.0022283024 0.0026044038
-0.00080000004 0.0031880871 0.0026068429
-0.00077205949 0.0017957763 0.0026210488
0.0008000001 -0.0024776901 0.0026467305
-0.00024873769 0.0017647349 0.0026448718
0.00051611883 0.0017685448 0.0026419479
0.00052392326 0.0017635752 0.0026457617
-0.00080000004 0.0039349976 0.0026637849
-0.00067000999 -0.0055984617 0.0026764714
0.0008000001 -0.002321027 0.0026705193
0.00080000004 0.0038854063 0.0026734129
0.00080000004 0.0040172781 0.0026880179
-0.00080000004 -0.002238041 0.0026960694
0.0001641019 0.0016889038 0.0027030695
0.00080000004 0.0049629118 0.0027002294
-0.00063405902 0.0055812863 0.0027179425
0.00080000004 0.0025445169 0.0027219448
-0.00012408722 0.0055797361 0.0027216855
0.00080000004 -0.0036063057 0.0027476964
-0.00020998392 -0.0016306943 0.0027477434
0.00059859839 0.0016179931 0.0027574913
-0.00080000004 0.0050800466 0.0027512023
-0.00080000004 0.0051622768 0.0027510063
0.00080000004 0.001896966 0.0027896948
-0.00080000004 0.0042064763 0.0027824475
-0.00080000004 0.004908686 0.0027872962
0.00013563325 -0.0055488432 0.0027962779
-0.00080000004 -0.0047612181 0.0027904001
0.00079999998 -0.0027052481 0.0028024674
-0.00064754434 -0.0015286523 0.0028008542
-0.00079999998 0.002902156 0.0028035988
-0.00079999998 0.0041163 0.0028033783
0.00072768365 0.0014544212 0.0028316027
0.00080000004 0.0020073319 0.002840165
-0.00080000004 0.0052009295 0.002858853
-0.0008000001 -0.0028755926 0.0028691643
0.00040150818 -0.001372882 0.0028653785
-0.00020415614 0.0013652733 0.0028685299
0.00019877256 0.0013516255 0.0028741835
0.00025289221 -0.0055102506 0.0028894616
-0.00080000004 -0.0044014095 0.002882567
0.00080000004 -0.0043206643 0.0028810485
-0.00032693319 0.0013220049 0.0028864532
-0.00080000004 0.0031928599 0.002887411
-0.0008000001 0.0053419308 0.0028943252
-0.00050674303 -0.0055039991 0.0029045551
-0.00080000004 -0.0024314253 0.0029472806
-0.00079999998 0.0035423746 0.0029590488
-0.00071748934 -0.0054684118 0.0029904824
0.00031589111 0.00096458214 0.0030345074
0.00080000004 -0.0034034564 0.0030487839
-0.00080000004 0.0012922582 0.0030610319
-0.00077437761 -0.00086772477 0.0030746281
0.00071284123 -0.0054299505 0.0030833494
0.00079999998 -0.0025898851 0.0030958143
0.00059239531 -0.00078086084 0.0030972308
-3.075257e-05 -0.00072249648 0.0031049119
-0.00080000004 0.0016041885 0.0031012003
-0.00080000004 -0.0041207741 0.0031120372
-0.00070666691 0.00062176905 0.0031181686
0.00080000004 0.0032523929 0.0031106796
0.00080000004 0.0036135016 0.0031118987
-0.00080000004 0.0045778686 0.0031199858
0.0008000001 0.0051670191 0.0031198687
0.00048797598 0.00055742584 0.0031266371
0.0008000001 -0.0022562963 0.0031339629
-0.00053755369 -0.00050940405 0.003132957
0.00080000004 -0.00078112021 0.0031570029
-0.00020684118 -0.0053792768 0.0031685554
0.00057996612 0.0053805681 0.0031668721
-5.7223442e-05 0.0053749899 0.0031741422
0.0001195995 -0.00010899061 0.0031856557
0.00012118751 -8.9739842e-05 0.0031881894
-0.00017707156 4.4631495e-05 0.0031941263
-0.0008000001 0.00018822405 0.0031937999
-0.00016800393 -0.0053522638 0.0032037569
0.00080000004 0.00074415898 0.003207847
0.00080000004 -0.0041477904 0.0032248348
0.00020721654 0.005326007 0.0032379727
0.00080000004 7.1872179e-05 0.0032620127
0.00042513161 0.0053050038 0.0032653424
0.00074799429 0.0053035552 0.0032672305
0.00080000004 0.0036679646 0.0032741462
-0.00080000004 0.0041758167 0.0032891927
0.00080000004 0.0044571585 0.0032884139
0.00080000004 0.0048216605 0.0032872208
-0.00080000004 0.0019174452 0.0033029944
-0.00080000004 -0.0025105074 0.0033182607
-0.00079999998 -0.0040688063 0.0033430511
-0.00080000004 -0.0013849752 0.0033431393
0.0008000001 -0.0050302735 0.0033694168
-0.0008000001 -0.00027549625 0.0033637772
0.0008000001 0.00052274828 0.0033629867
0.00080000004 0.0031206976 0.0033691709
0.00080000004 -0.0036457353 0.0033711893
0.00080000004 -0.0021332009 0.0033733069
0.00080000004 -0.00079945946 0.0033758329
-0.00079999998 0.0050784918 0.0033794681
0.0008000001 -0.00075153622 0.0033823012
-0.0008000001 7.3761032e-05 0.0033850288
-0.00080000004 -0.0016853813 0.003398747
0.00070701941 0.0052032839 0.0033978969
0.00080000004 -0.0032603026 0.0034086846
0.00080000004 0.0042185509 0.0034053936
0.0007220963 -0.00517134 0.0034395247
-0.0008000001 -0.0041803136 0.0034365384
0.00080000004 -0.00087015133 0.0034390767
-0.0008000001 0.0022752243 0.0034359875
-0.00080000004 0.0024179304 0.0034325884
-0.00080000004 0.0043349522 0.0034487555
0.0008000001 -0.0041741333 0.0034536254
0.0008000001 -0.0035227435 0.0034547297
-0.00080000004 0.0019954827 0.0034559895
-0.00079999998 0.00058233453 0.003468927
0.00013095893 -0.0051367893 0.0034845488
0.00080000004 0.0040214597 0.0035333072
-0.00080000004 0.0038521027 0.0035499693
0.0008000001 -0.0019404471 0.0035550091
0.00080000004 0.0030987274 0.0035542708
0.0008000001 0.0010268765 0.0035680959
-0.00080000004 -0.0037857229 0.0035785793
-0.00080000004 0.0044428846 0.0035790096
-0.00080000004 -0.0046102577 0.0036068314
-0.00080000004 0.00024188733 0.0036173067
-0.00079999998 -0.00052869017 0.0036364244
-0.00080000004 0.0011978293 0.003648777
0.00080000004 -0.0036363024 0.0036597324
-0.00051438762 -0.004972599 0.0036985106
0.00015440099 -0.0049777166 0.0036918409
0.0008000001 0.0016100344 0.0036943213
-0.0008000001 -0.0031553283 0.0037014589
-0.00080000004 -0.0028326155 0.0037015616
0.00079999998 0.0030290699 0.0037031062
-0.00048108015 -0.0049609267 0.00371372
0.00070057466 0.0049576904 0.0037179382
0.00051676645 0.0049528126 0.0037242954
-0.00080000004 0.0023864512 0.0037721023
0.0008000001 -0.0039978027 0.0038259365
0.0008000001 -0.0016715174 0.0038239984
-0.0008000001 0.003572518 0.0038267814
-0.00048009839 -0.0048297234 0.0038846952
-0.0008000001 0.0028906607 0.0038881134
0.00080000004 -0.0010609857 0.0038983552
-0.0008000001 -0.0035858999 0.0039271307
-0.00079999998 -0.0016392712 0.0039332653
0.00080000004 0.0044283909 0.0039570481
0.00079999998 -0.00015841775 0.0039782869
-0.00080000004 -0.0014365838 0.0039872671
0.00033684398 0.0047532497 0.0039843502
-0.00080000004 0.0024220154 0.0039993003
0.00080000004 0.0020959307 0.0040015718
0.00080000004 -0.0032917757 0.0040153991
0.00080000004 -0.003850529 0.0040440536
-0.00051284791 -0.0046952106 0.0040599834
-0.00031569338 -0.004699978 0.0040537706
0.0008000001 -0.0046344912 0.004071
0.00080000004 0.001821731 0.004076534
0.00079999998 -0.0029928249 0.0040931357
0.00080000004 0.004420409 0.0040968102
0.00080000004 -0.0028674651 0.0041028
0.00079999998 -0.0026592279 0.0041095829
0.00080000004 -0.00036408042 0.0041316669
-0.0002367492 -0.0046305382 0.0041442602
-0.00080000004 0.0018598527 0.0041550929
-0.00062592869 -0.0046117362 0.0041687624
0.00080000004 0.003755714 0.0041619521
0.00080000004 0.0015392146 0.0041712727
-0.00079999998 0.0024415175 0.0041772975
-0.00079999998 0.0010589375 0.0041893534
0.00067576405 -0.0045899237 0.0041971863
0.00080000004 -0.0019659714 0.0041926941
-0.0008000001 0.0010032872 0.0041977912
-0.00080000004 0.00117575 0.0042075515
-0.00080000004 -0.0044489293 0.0042285942
0.0008000001 0.00022600357 0.0042347633
-0.0008000001 -0.0037061623 0.0042403233
0.00080000004 -0.0024071704 0.0042491183
-0.00014505896 0.004553942 0.0042440752
0.00079999998 -0.002986961 0.0042520519
0.0008000001 0.001768945 0.0042559332
0.00079999998 -0.0017565673 0.004296015
-0.0008000001 0.00086293375 0.0042999671
-0.00080000004 0.00019816759 0.0043197121
0.00019987411 0.0044546649 0.0043734456
0.0008000001 -0.0040097274 0.0043986468
-0.0008000001 0.0036562353 0.0043993276
-0.0008000001 0.0031890518 0.004402183
-2.8428822e-05 -0.0044260561 0.0044107269
0.00080000004 -0.0030013069 0.0044571729
-0.00080000004 0.0028063215 0.0044611595
0.00019750626 -0.0043485533 0.0044737677
-0.00080000004 -0.00090262858 0.0044765063
-0.0008000001 0.0030506907 0.0044832453
-3.9969123e-05 0.0043343492 0.004484667
-0.00011055404 0.0043266048 0.0044906107
0.00080000004 0.0033845294 0.0045254757
-0.0005565426 -0.0042626229 0.0045397081
-0.00080000004 -0.0015967472 0.0045403433
-0.0008000001 -0.002359522 0.0045500235
0.00079999998 -0.0024640076 0.0045681652
0.00080000004 -0.0019357989 0.004564554
-0.00080000004 0.0014236622 0.0045813448
0.00080000004 0.002181954 0.0045860726
0.00032909962 -0.0041727326 0.0046086893
0.00012199341 0.0041801054 0.0046030316
0.00080000004 0.00039970392 0.0046365717
-0.00080000004 -0.003385378 0.004644271
0.00039944382 -0.0041106404 0.0046563381
0.0008000001 0.00277701 0.0046646129
0.00080000004 -0.0007550334 0.0046820259
0.00080000004 -0.0014139111 0.0046931738
-7.1714108e-05 -0.0040521021 0.0047012591
0.00080000004 0.00050207839 0.0047080079
0.00044947691 0.0039900672 0.0047488636
0.00080000004 0.0023297288 0.0047567482
-0.00080000004 0.0013948019 0.0047609382
0.0008000001 -0.0012425176 0.0047740075
-0.00071794825 0.0039589331 0.0047727553
-6.2813073e-05 -0.0039272299 0.0047970833
0.0008000001 -0.0022790071 0.0048135412
-0.00080000004 3.098456e-05 0.0048148995
-0.00052954297 0.0039036062 0.0048152125
-0.0008000001 -0.0034032185 0.0048233531
0.00079999998 -0.001627924 0.0048351679
0.0008000001 0.00085032283 0.0048326352
-0.00080000004 -0.0034314757 0.0048459503
-0.00080000004 -0.00070280005 0.0048431661
0.0008000001 -0.0024015838 0.0048522088
0.00080000004 0.0011406192 0.0048614456
0.0008000001 -0.0018354062 0.0048861858
-0.0008000001 -0.00077656226 0.0048873341
-0.00080000004 0.0034479296 0.0048859497
-0.00080000004 -0.0012974578 0.0048999265
0.00079999998 -0.00046542191 0.0048967833
0.0008000001 -0.0018862431 0.0049155289
0.00046163949 -0.0037637341 0.0049225469
-0.00080000004 -0.0013719312 0.004929678
-0.00080000004 0.0014082682 0.0049435319
-0.00080000004 -0.0031971491 0.0049785459
-0.00010294736 -0.0036785034 0.0049879514
-0.00080000004 -0.00062270934 0.0049893232
-0.0008000001 -0.002200576 0.0050106565
0.00035503088 -0.003631128 0.0050243065
-0.00080000004 -0.0031292697 0.0050329473
0.00026063132 -0.0036017101 0.0050468817
0.00070471352 0.0035859321 0.0050589889
-0.0001746379 -0.0035817472 0.0050622006
-0.0008000001 0.0018908026 0.0050759646
0.0008000001 0.00094977691 0.0050811837
-0.00080000004 0.0031233479 0.0051128417
0.00080000004 -0.0032486748 0.0051268544
-0.00080000004 -0.00045192082 0.0051316801
0.00080000004 0.0029869999 0.0051373383
0.00011703197 -0.0034737689 0.0051450613
-0.00054191868 0.0034748819 0.0051442073
0.00025478643 -0.0034631335 0.0051532229
-0.0008000001 -0.0022239326 0.005168349
0.00080000004 0.0030348683 0.0051679118
0.0008000001 -0.00018077566 0.0051786718
0.00080000004 0.0013776062 0.0051837889
0.00080000004 0.0014215482 0.0052033248
-0.00055859302 -0.003374333 0.0052213669
2.4293156e-05 0.0033674317 0.0052266624
0.00080000004 0.0030513024 0.0052411961
0.00080000004 0.00042361757 0.0052968212
-0.00068815955 0.0032778725 0.0052953889
-0.00080000004 -0.0022281629 0.0053374418
-0.00080000004 -0.00033156478 0.0053506056
-0.00080000004 -0.0026663796 0.0053896909
2.441504e-05 -0.0031263763 0.0054116445
0.00080000004 -0.00064311305 0.0054350714
-0.00080000004 0.00044805076 0.0054325471
0.00080000004 -0.0029435095 0.0054472294
-0.00080000004 -0.0013094931 0.0054457039
0.00080000004 0.00082423125 0.005479896
-0.00080000004 0.0013336058 0.0055058282
0.00080000004 -0.0025353094 0.0055173151
-0.00080000004 0.0017607313 0.0055954396
0.00080000004 -0.00040695668 0.0056041498
0.00080000004 0.0012469166 0.0056105205
-0.00080000004 0.0024012688 0.0056121037
-5.3197415e-05 -0.002566796 0.0056438851
0.00080000004 0.0012893025 0.0056758109
-0.00080000004 0.0024137429 0.0056881662
0.0008000001 -0.0021617876 0.0057141422
0.00035403113 -0.0023465834 0.0057350872
0.00080000004 -0.00017322761 0.0057338816
-0.00052273966 -0.0022908612 0.0057581645
0.00079999998 0.00044647418 0.0057592564
-8.7708897e-05 -0.0022562067 0.0057725175
0.00079999998 -0.002186978 0.0057707797
-0.00049044809 0.0019974932 0.0058796648
-0.00080000004 0.0015379722 0.0058855312
-0.00014907283 0.0019221574 0.005910866
-0.00019576389 0.001854688 0.0059388089
0.00080000004 -1.7309341e-05 0.0059418832
-0.00080000004 0.0015024432 0.0059666284
-0.00080000004 0.0014500746 0.0060139438
0.00018642105 -0.0015243598 0.0060492782
0.00080000004 -0.0014782662 0.0060497141
-0.00035435104 0.0015840565 0.0060414169
0.00070088822 -0.0015039305 0.0060519679
-0.00079649268 -0.0014718276 0.0060561956
0.0008000001 -0.00044100554 0.0060518566
-0.00020479862 -0.001397261 0.0060660136
0.00062050566 0.001394144 0.0060664243
0.00033696892 0.001292752 0.0060797757
-0.00011537482 0.0012248113 0.0060887216
0.00080000004 -0.00076066045 0.0060946019
0.00080000004 0.0011149844 0.006092994
0.00042251343 0.0011393169 0.0060999799
0.00035382283 0.0011937011 0.006092818
0.00080000004 -0.0007886244 0.0061029885
0.00022476159 0.0011125578 0.0061035026
0.0003414783 0.00096537248 0.0061228829
0.00043019772 -0.00087490055 0.0061347964
0.00080000004 -0.00014567394 0.0061302539
-0.00022727759 -0.00051725161 0.0061818901
-0.00030914095 -0.00045059179 0.0061906679
-1.3103694e-05 0.00042051863 0.0061946278
