# .PCD v0.7 - Point Cloud Data file format
VERSION 0.7
FIELDS x y z
SIZE 4 4 4
TYPE F F F
COUNT 1 1 1
WIDTH 1000
HEIGHT 1
VIEWPOINT 0 0 0 1 0 0 0
POINTS 1000
DATA ascii
-0.0031468463 -2.4595929e-05 -0.0034967612
-0.0021692291 -0.00012152977 -0.0034839956
-0.0012403402 -0.00022518955 -0.0034703442
-0.00027685633 -0.00016072985 -0.0034788335
-0.00026741967 -0.0001563111 -0.0034794151
-6.286618e-05 -0.00026762261 -0.0034647563
-0.002148455 0.00025960943 -0.0034658117
-0.0019234982 -0.00034285651 -0.0034548487
-0.0021263827 -0.00049352279 -0.0034350071
-0.00093587226 0.00046036931 -0.0034393731
-0.0016825927 0.00052156497 -0.0034313141
-0.0015953409 0.0005206659 -0.0034314326
-0.0013502832 -0.00059827795 -0.0034212116
-0.0003953191 -0.00056834432 -0.0034251537
-0.00059050432 0.0005571954 -0.0034266219
-0.0035253481 0.00065357931 -0.0034139287
-0.003483545 -0.00078131945 -0.0033971067
-0.0017308065 0.00079027971 -0.0033959267
-0.0028410165 -0.00085325551 -0.0033876335
-0.0031328895 0.0008541196 -0.0033875194
-0.00074830145 -0.00095031114 -0.0033623066
-0.0036924502 0.00048996822 -0.0033430248
0 0.00090321706 -0.0033393202
-0.0017945579 -0.0010471577 -0.0033221957
-0.0032861484 -0.0010369876 -0.0033264081
-0.0029761638 0.0011366345 -0.0032851372
-0.0034332599 0.0012171705 -0.0032517819
-0.0010092222 0.0012651747 -0.0032318998
-0.00037458603 -0.0012892627 -0.0032219233
-0.0010622351 0.0013334712 -0.0032036135
-0.0024021321 -0.0013852094 -0.0031821851
-0.0012646377 0.0013854016 -0.0031821057
-8.616093e-05 -0.0014670423 -0.0031482922
-0.00018146698 0.0014655326 -0.0031489178
-0.0036164089 -0.0014477996 -0.0031386539
-0.0038032185 -0.00097346597 -0.0031346544
-0.0037112422 0.0012071428 -0.0031365696
-0.0014328492 0.0015294978 -0.0031224252
-0.0022733521 -0.0015544834 -0.003112077
-6.259791e-06 -0.0015580991 -0.0031105797
-0.0036189475 -0.0015109654 -0.0031097683
-0.0024832319 -0.0015910534 -0.0030969309
-0.0035291275 -0.0016457239 -0.0030742884
-0.002280555 -0.001683012 -0.0030588445
-0.0017559656 0.0016832167 -0.00305876
-0.0028549382 -0.0017262892 -0.0030409207
0 0.0006234285 -0.0030492467
-9.8494093e-05 0.0017324202 -0.0030383812
-0.0018876361 -0.0017525014 -0.0030291807
0 -0.001543435 -0.0029994843
-0.0035005286 0.0018095182 -0.002985433
-0.00030541621 0.0018288654 -0.0029705886
-0.001646569 -0.001848528 -0.0029555019
-0.0003535221 0.0018800983 -0.0029312791
-0.0022344934 -0.001895498 -0.0029194623
-0.0038526854 0.0014033787 -0.0029035145
-0.0036591378 0.0018131795 -0.0029087232
-0.00051952555 -0.0019809068 -0.0028539305
0 0.00018694234 -0.0028509924
-0.00027274899 -0.0020457341 -0.0028041902
-0.0022822015 0.0020446416 -0.0028050283
-0.0021264178 0.002074199 -0.0027823492
-0.00050188077 -0.0020883896 -0.0027714614
-0.0031333868 0.0020865798 -0.0027728498
-0.0020124307 0.0020840683 -0.0027747771
-0.0038034637 0.0017639102 -0.0027661708
-0.00026431156 0.0021058151 -0.0027580911
-0.0030374823 0.0021111434 -0.002754003
0 -0.00069268449 -0.0027378374
0 0.0021273282 -0.0027337798
-0.0018639646 0.002133488 -0.0027368583
-0.0022766222 -0.0021768231 -0.0027036082
-0.0011823997 -0.0021688864 -0.0027096979
-0.00050536194 0.0021717825 -0.0027074756
0 -0.0015173525 -0.002685861
-0.0024418177 -0.0022088285 -0.0026790509
-0.0028149397 0.0022090806 -0.0026788579
-0.0039999997 0.0015696588 -0.0026529159
0 -0.001789634 -0.0026482122
0 0.0018496178 -0.0026427906
-0.0029267927 -0.0022751554 -0.0026281602
-0.0037265655 -0.0020793744 -0.0026201832
0 -0.0017958118 -0.0025979269
-0.0038571416 -0.0019082994 -0.0025882577
-0.0016113865 -0.0023447264 -0.0025747793
0 -0.00043623737 -0.0025763998
-0.0038346373 0.0019662557 -0.0025719539
-0.0021308842 0.0023404572 -0.002578055
-0.0022704192 0.0023703815 -0.0025550951
-0.0030735286 0.0024480473 -0.0024955038
-0.0039999997 -0.0016569064 -0.0024825095
0 0.0011111113 -0.0024852608
-0.0039999997 -0.00079961342 -0.0024700356
0 -0.00065133418 -0.0024612034
-0.0039999997 0.00077228481 -0.0024618085
0 -0.00038424201 -0.0023802917
0 -0.0019256508 -0.0023723319
-0.0039496813 -0.0020535097 -0.0023611679
0 -0.0020668365 -0.0023420141
0 0.0019244791 -0.002341005
-0.0039999997 0.00025332518 -0.0023394965
0 -0.0010432411 -0.0023070343
-0.00060313469 -0.0026157638 -0.002291311
0 0.0018721205 -0.002278558
0 -0.0023152924 -0.0022654131
-0.0011567352 0.0026359044 -0.002265062
0 0.0020946104 -0.0022559853
-0.0023692099 0.0026509233 -0.0022454879
-0.0018320206 -0.0026604449 -0.002233078
0 -0.00096199923 -0.0022174495
-0.0039999997 -7.7523517e-05 -0.0022013136
-0.0039999997 0.00015082066 -0.0022046457
-0.0036703963 0.0026003863 -0.0021966759
-0.0039999997 -0.00081683818 -0.0021788499
0 -0.0016409397 -0.0021564742
-0.0039999997 -0.0014731373 -0.0021411323
-0.0039999997 -0.0011692201 -0.0021333629
-0.00035726553 0.0027368022 -0.0021335608
0 0.0020040059 -0.0021200229
-0.0039999997 0.00088959042 -0.002112617
-0.0022303502 -0.0027642937 -0.002097731
-0.0022284794 -0.0027729541 -0.0020864443
-0.0011604145 -0.0027894976 -0.0020648828
-0.0039999997 -0.00069123501 -0.0020682539
-0.0039999997 0.002132382 -0.0020662947
-0.0028703348 0.0027929975 -0.0020603212
-0.0019455431 -0.002822197 -0.0020222652
-0.0018141468 -0.0028338011 -0.0020071415
-0.0039999997 -0.00061234634 -0.0020009843
-0.0039999997 -0.00058381731 -0.0019929809
0.0065333252 -6.9124173e-05 -0.0019909055
0.0079561593 -3.576071e-05 -0.0019952951
0.0063538398 -2.4135114e-05 -0.0019968245
0.00095969252 -1.725033e-05 -0.0019977305
0.003564077 3.5338449e-05 -0.0019953507
-0.0039999997 -0.00038126676 -0.0019837841
0.006639556 -0.00015148178 -0.0019800698
0.00039033126 -0.00013575285 -0.0019821394
0.0065232832 -0.00012765976 -0.0019832039
0.0073878733 -9.6918644e-05 -0.0019872484
0.0026244994 -8.6433989e-05 -0.0019886282
0.00036334517 -0.00022063742 -0.0019709712
0.0044310489 -0.00018633007 -0.0019754849
0.0079501932 -0.00018115186 -0.0019761662
0.0034472058 0.00015303724 -0.0019798654
0.0059742201 0.00015653318 -0.0019794053
0.00056996237 0.000184316 -0.0019757499
-0.00040542529 0.0028553277 -0.0019790858
0.0066036633 -0.00029894218 -0.0019606687
0.0093095805 -0.00029557486 -0.0019611116
0.0043840478 -0.00024833399 -0.0019673272
0.0028474536 0.00025094126 -0.001966984
-0.00082893303 0.0028679087 -0.0019626888
-0.0010344456 -0.0028744244 -0.001954197
0.0010376595 -0.00034021042 -0.0019552389
0.000629168 -0.00033493867 -0.0019559325
0.002096676 0.00034591981 -0.001954488
0.0078793308 0.00036099087 -0.001952505
0 0.00048901752 -0.0019520095
0.0010516183 -0.00044390155 -0.0019415965
0.0086011169 -0.0004327691 -0.0019430612
0.0083376961 -0.00040404493 -0.0019468404
0.0040555382 0.00042191177 -0.0019444897
0.0021959108 0.0004301072 -0.0019434114
0.0054398226 0.00043411073 -0.0019428846
0.00069053099 -0.00051363854 -0.0019324213
0.0064530624 -0.0005080672 -0.0019331544
0.0072255814 -0.00049234112 -0.0019352234
0.003577 -0.00046391808 -0.0019389631
0.0050243279 0.00048359012 -0.0019363748
0.005446536 0.00048049315 -0.0019367823
0.0077712163 0.0004814197 -0.0019366604
0.0018052117 0.00049420574 -0.0019349781
0.0029137931 0.0004910563 -0.0019353925
0.0052668303 -0.0005347557 -0.0019247945
0.00047416234 -0.00052512129 -0.0019287849
0.0091206636 -0.00052293006 -0.0019296926
0.0096079856 -0.00028065944 -0.0019255882
0.0094172377 0.0005423043 -0.0019216682
-0.0039999997 0.0015031446 -0.0019229421
0.0063936822 -0.00056335906 -0.0019129477
0.0095769819 -0.00053552014 -0.0019175214
0.008897976 0.00054748228 -0.0019195235
-0.0029093933 -0.0029154592 -0.0019007162
-0.0039999997 -0.0014864178 -0.0019053555
0.0079251239 -0.00059333659 -0.0019005316
0.0080523305 -0.00059976481 -0.0018978692
0.0014059253 -0.00062833261 -0.0018860368
0.0017374594 -0.00062240881 -0.0018884905
-0.0039999997 0.0021399329 -0.0018867294
-0.00056715828 0.002935569 -0.0018745067
0.0046199756 -0.00068561389 -0.0018623122
0.0068805525 -0.00068847777 -0.0018611263
0.0059003388 0.00067478814 -0.0018667961
0 0.0010869243 -0.0018615145
-0.00016900414 -0.002956483 -0.0018472495
0.0068332879 -0.00072454073 -0.0018461896
0.0087137651 -0.00072718132 -0.001845096
0.0031727371 -0.00071915728 -0.0018484193
-0.0039999997 -0.00093782105 -0.0018389206
0.0035602343 0.00075483753 -0.0018336414
0.0093644047 0.00079563254 -0.0018167449
0.0030603094 0.00082732429 -0.0018036189
0.0026659179 0.00085200614 -0.0017933962
0.0064100842 -0.00087951747 -0.0017820013
0.0091377869 0.0008798549 -0.0017818619
-0.0039999997 0.0010485722 -0.001785163
0 0.0014882662 -0.0017800421
-0.0038093848 -0.0027501774 -0.0017751111
0.0020380681 -0.00090311398 -0.0017722283
0.0020684244 -0.000908482 -0.0017700049
0 0.0016279147 -0.0017751066
-0.0018924619 -0.0030180023 -0.0017670706
0.0024507018 -0.0009564553 -0.0017501353
0.00037797596 -0.00093627942 -0.001758492
2.0979871e-05 0.00095547049 -0.0017505435
0.0086585777 0.00095540547 -0.0017505703
-0.0039999997 -0.00069775479 -0.0017455523
0.0096871564 -0.00065476832 -0.0017498987
-0.0039999997 -0.00019414099 -0.0017262897
0.0071745482 0.0010048928 -0.0017283449
0.0014439911 0.0010172909 -0.0017188293
0.0051875468 -0.0010498371 -0.0016938502
-0.0037006347 -5.6282599e-05 -0.0016996025
0.0067537799 0.0010429721 -0.0016991188
-0.002693366 -7.3668591e-05 -0.0016895639
0.0044095293 0.0010658695 -0.0016815451
0 0.0020631086 -0.0016717952
0.0063360617 -0.0010924261 -0.0016611627
0.0089546088 0.0010974795 -0.0016572843
0.007710963 0.0011006461 -0.0016548539
0.0043562879 0.0011081321 -0.0016491085
0.0023877595 -0.001137012 -0.0016269427
0.0059666461 0.0011333001 -0.0016297918
0 0.0026559236 -0.0016285506
-0.0033529687 0.003085182 -0.0016194205
0 -0.0030050098 -0.0016037015
0 -0.0015654033 -0.0016084593
0.0097658355 -0.0008014518 -0.0016047097
0 -0.0013523853 -0.0015986043
0.0061331983 -0.0011807836 -0.001593348
0.0025787165 0.0011768035 -0.0015964028
0.0092410995 0.0011813856 -0.0015928861
-0.003921126 -0.0027567395 -0.001580421
0.0095416112 -0.0011945763 -0.0015827621
0.0080649555 0.0011998697 -0.0015786994
1.0176191e-05 0.0012007797 -0.0015780008
-2.7740489e-05 -0.0031068032 -0.0015672175
-0.0028136589 0.00029334688 -0.001562702
0.0022367425 -0.0012326088 -0.001553572
0.0046987296 -0.0012370787 -0.0015501413
0.006117987 -0.001231341 -0.001554545
-0.0039999997 -0.00037478123 -0.0015539936
0.0040924773 0.0012337506 -0.0015526956
0.0083859256 -0.0012389801 -0.001548682
-0.002755295 0.00034880236 -0.0015306784
0.0033770846 0.0012523095 -0.0015384515
0.0020880995 -0.0012937591 -0.0015066388
0.0038345701 -0.0012981521 -0.0015032671
0.0056361817 -0.0012941692 -0.0015063242
-0.003346114 0.00039146861 -0.0015060595
0.0096471682 0.0011764675 -0.0015008394
0.0067078155 0.0012923396 -0.0015077284
0.009376972 0.0012972009 -0.0015039972
0.0014562558 0.0013010073 -0.0015010758
-0.0023869397 0.00041588352 -0.0014919413
0.0096561089 0.0011652784 -0.0014982525
0.0097441785 0.0010337407 -0.0014891404
0.008235706 0.0013261569 -0.0014817734
0.0023861262 0.001343093 -0.0014687749
-0.0036796203 0.0030657095 -0.0014601444
0.00032529698 -0.0013643387 -0.0014524688
-0.0039999997 -0.0015002541 -0.0014446288
0.0093910713 0.0013775901 -0.0014422983
0.0095828511 -0.0013814361 -0.0014239107
0.0049338276 -0.0014123503 -0.0014156195
0.0050194273 0.0014114247 -0.00141633
-0.0010032902 0.0031688872 -0.001417317
0 0.0027605314 -0.0014014562
0.00049354328 0.0014261751 -0.0013985973
-0.0014515049 0.0031791006 -0.0013926571
0.0093710311 -0.0014386396 -0.001382357
-0.0021344675 -0.00060742395 -0.0013813397
0.0099084508 0.00089608389 -0.0013894881
0.0068757529 0.0014340915 -0.0013882829
0.0064066625 -0.0014410878 -0.0013791673
0.0076383981 0.0014470197 -0.0013714383
0.0030384338 -0.0014514007 -0.0013657301
-0.0038853204 0.0028852865 -0.0013628165
-0.0020982428 -0.00065054814 -0.001356435
-0.0027715133 -0.0031986095 -0.0013455539
-0.0039999997 0.0024468142 -0.001346742
-0.0036654128 -0.0031315892 -0.0013379015
0 -0.0022786781 -0.0013395732
-0.00096619903 0.003201734 -0.0013380091
-0.00066432246 -0.0032065851 -0.0013262959
0.00077754335 0.0014829641 -0.0013246054
-0.002843908 0.0032072465 -0.0013246997
-0.0027620238 0.0032074049 -0.001324318
0.0034238645 -0.0014934221 -0.0013109797
-0.0026101077 -0.00072760071 -0.0013119654
-0.002211517 -0.0032200702 -0.0012937376
0.0026867846 -0.0015136212 -0.0012846618
-0.00382818 -0.0007795667 -0.0012819782
0.00030759317 -0.001522453 -0.0012731545
0.0005976297 -0.0015175319 -0.0012795663
0.0035567402 -0.0015175692 -0.0012795178
0.0085344482 0.0015247059 -0.0012702191
0.00098567863 0.0015271204 -0.0012670733
-0.0019444813 0.0002910241 -0.0012544809
0.0012664078 0.0015434251 -0.0012458293
0 0.0021607873 -0.0012442303
0.0083269589 -0.0015547018 -0.0012311366
0 0.0030310589 -0.001239346
0.002350016 -0.0015590417 -0.0012254821
0 0.0030092595 -0.0012046088
-0.0039999997 0.0011864674 -0.0011926296
0.0028217128 -0.0016016152 -0.0011700123
0.0055149654 -0.0015954884 -0.001177995
-0.0019192899 0.00019789844 -0.0011727187
0.0044698459 -0.0016025699 -0.0011687684
0.0099999998 0.00040418623 -0.0011596839
0.0089618191 -0.0016187197 -0.0011477262
0.0014177876 0.0016230908 -0.0011420309
-0.0033434818 0.0010316746 -0.0011364111
-0.0032109444 -0.0032913403 -0.0011216577
0.0021133521 -0.0016367277 -0.0011242633
0.0025925196 -0.0016368804 -0.001124064
-0.0019024097 7.1843773e-05 -0.0011263102
-0.0030632073 0.0010564884 -0.0011220837
0.0043574474 0.0016350184 -0.0011264902
0.0094076255 0.001639004 -0.0011212972
-0.0037148951 0.0031656567 -0.0011274314
0.0037484898 0.0016423629 -0.0011169208
-0.00091326062 0.0032931166 -0.0011173685
-0.0030818298 0.0011069187 -0.0010929651
-0.00079288305 0.0033044326 -0.0010900458
0.0062768385 -0.0016699958 -0.0010809172
0.0023666904 0.0016679151 -0.0010836283
0.0083387876 0.0016649375 -0.0010875079
0.00086683873 -0.0016739779 -0.0010757289
0.0055620903 0.0016740675 -0.0010756121
-0.0030387973 0.0033088822 -0.0010793031
-0.0023970131 -0.0033180779 -0.0010570997
0.0099999988 8.5864864e-05 -0.0010409424
0.0054801209 0.0016986167 -0.0010436263
0.002052133 0.001706111 -0.0010338617
0.008723258 -0.0017133427 -0.0010244395
0.0019156386 0.0017267894 -0.0010069193
0.0059759482 -0.0017330314 -0.00099775207
0.0058857924 -0.0017378402 -0.00098614092
-0.0037196819 -0.0012979808 -0.00098264555
-0.0025733095 -0.0012929499 -0.00098553707
0.0041493657 -0.0017404957 -0.00097972993
0.0052287276 -0.0017448183 -0.00096929318
-0.0039999997 0.0017329929 -0.00096374413
-0.0028618407 -0.0013518132 -0.00095155323
0.0096456436 0.001673729 -0.0009462327
-0.0021037138 -0.0033704513 -0.00093064614
-0.0019184127 -0.00072555745 -0.00093727157
0 -0.0030641439 -0.00092947367
0.0050443877 -0.0017650647 -0.00092041009
0.0059885248 -0.0017651916 -0.0009201038
-0.0036566271 -0.001402661 -0.00092219724
0.0028318407 -0.001766104 -0.00091790047
0.0066585494 -0.0017665551 -0.00091681158
-0.0035014946 0.0014125002 -0.0009165224
-0.0033291189 0.0014191654 -0.00091267389
0.0055890726 0.0017693358 -0.0009100975
0.0067048585 0.001781212 -0.00088142359
-0.0019409067 -0.00093300594 -0.00086788804
-0.0030973423 0.0015 -0.00086188392
0.0099999998 0.00025344343 -0.00085420109
-0.0026160849 0.0033867592 -0.0008598917
0.0054875528 -0.0017965806 -0.00084431778
0.0099999998 0.00020219482 -0.00084137038
-0.0031637461 -0.0015 -0.00083931116
0.00081229548 0.0018011405 -0.00083330757
0.0015613028 -0.0018091126 -0.00081406004
0.0028410915 0.0018097291 -0.00081257144
-0.0019085412 -0.0033942349 -0.00080312486
-0.0018412503 0.00047265625 -0.00077139906
-0.0039390968 -0.003059973 -0.00076675008
-0.0035236327 0.0015 -0.00075237459
0 0.003195894 -0.00074542686
-0.0021041448 0.003401458 -0.00074827712
-2.5552159e-05 -0.0034030238 -0.00073638826
0.0071804663 -0.0018401688 -0.00073907775
-0.0031461688 -0.003404218 -0.00072731869
-0.0036334742 -0.0033713421 -0.00072277314
0.0088852122 0.0018459233 -0.00072518375
-0.0025145598 -0.0015 -0.00071302976
-0.0018056398 0.000286453 -0.00071258133
-0.0018124124 0.00034098496 -0.00071711419
0.0060013938 -0.0018531595 -0.00070771249
-0.00010835948 0.0034084381 -0.00069527555
0 -0.0024036651 -0.0006866795
0.0070114136 0.0018626451 -0.00068481016
0.0099999998 0.0010746432 -0.00067561463
-0.0020815334 0.0015 -0.00067273126
0.0078081344 0.0018715132 -0.00066339906
0 -0.0030671915 -0.00065883639
0.0056440695 -0.0018737189 -0.0006580737
0.0081392461 -0.001875861 -0.00065290171
-0.0037595988 -0.0015 -0.00064250774
0.0011415816 -0.0018812133 -0.00063997903
0.00075071637 0.0018851953 -0.0006303651
-0.0039999997 0.0028893503 -0.00062129891
0.0012285872 -0.0018899716 -0.00061883294
0.0051233592 -0.0018957639 -0.0006048478
0.0098242098 -0.0016232737 -0.00060537877
0.0099999998 0.00095093995 -0.00059962185
0.0068840282 -0.0019028946 -0.00058763148
0 -0.0022794083 -0.00057555537
0.0072043967 0.0019094911 -0.00057170447
-0.0030767575 -0.0015 -0.0005669978
0.0079798577 0.0019107671 -0.00056862383
-0.0028860515 -0.00342675 -0.00055622496
0.0024709657 -0.0019144064 -0.00055983698
0.0046374951 -0.0019165655 -0.00055462407
0.0068737785 -0.0019147948 -0.00055889972
-0.0039999997 -0.0016462927 -0.00055733323
-0.0018232089 0.00342717 -0.00055303448
-0.0029983744 -0.0034283826 -0.00054382574
0 0.002831629 -0.00054974877
0.002783525 -0.0019241071 -0.00053641578
-0.0035923175 0.0034311709 -0.00052265252
-0.0039470871 -0.0030857208 -0.00051042775
0.0031117124 0.001932539 -0.00051274284
-0.0036835601 -0.0033492818 -0.00050996104
0 -0.0020177681 -0.00050042116
0.0029546458 0.0019329487 -0.00050963066
-0.0039999997 0.0029331513 -0.00050519675
0 0.0033861962 -0.00050068018
0.0062045273 0.0019350434 -0.00049370807
-0.0011235278 -0.0034356024 -0.00048900314
0.0064815232 -0.0019361689 -0.00048515506
0.0013503124 0.001935736 -0.00048844528
0.0088216765 -0.0019369624 -0.00047912376
0.0011686812 -0.0019386439 -0.00046634304
0.0043603168 0.0019381722 -0.0004699291
0.0028546152 -0.0019396354 -0.00045880786
0.0023485855 -0.001942999 -0.00043324294
0.0053384551 0.0019421395 -0.00043977454
0.0041441233 -0.0019447209 -0.00042015503
0.0016849744 0.0019439677 -0.00042588031
-0.0022218453 0.0015 -0.00041962415
0.0082682027 -0.0019484219 -0.0003920242
0.0099999998 -0.00072879466 -0.00039409014
-0.0013064239 0.0034499045 -0.00038039801
0.0038997068 -0.0019526624 -0.00035979445
-0.0037701654 -0.0032847514 -0.000342338
0.0061201262 -0.0019544563 -0.00034615854
-0.0039999997 0.0029271417 -0.00034129605
0.009056895 -0.0019572896 -0.00032462424
-0.0019982706 0.0014512767 -0.00032111484
0 0.0033451801 -0.00032160012
0.00082234794 -0.0019590824 -0.00031099899
-0.00273451 0.0034602282 -0.00030200585
0.0089074327 -0.0019608224 -0.00029777407
0.0090137394 0.0019608003 -0.00029794211
0.0099999998 0.00087275117 -0.00028169595
0.0026754357 0.0019619879 -0.00028891451
0.0085780621 -0.0019640303 -0.00027339248
0 -0.0025121265 -0.00026589027
0.0022324088 -0.0019686955 -0.00023793308
-0.0022966452 -0.0015 -0.00023013681
0.0090916734 0.001968978 -0.00023578572
-0.00073794066 -0.0034708539 -0.00022132251
0.0030053584 -0.0019708157 -0.00022181764
0.0095662996 -0.0019708308 -0.00022170467
-0.0023038059 -0.0015 -0.00021474718
-0.0034642024 0.0015 -0.00021811508
-0.003838113 -0.0015 -0.00020819051
0.0099999998 -0.00068900443 -0.0002059095
0.0043241372 0.0019728234 -0.0002065578
-0.001765811 0.00059287908 -0.00019033166
0.0041720183 -0.0019788193 -0.00016098638
0.0099999998 0.0001316577 -0.00014473344
0.00046608652 0.0019822614 -0.00013482357
-0.0029013478 0.0015 -0.0001155589
-0.0014610194 -0.003486037 -0.00010602867
0.0054290905 -0.0019866179 -0.00010171194
0.0018483596 -0.0019871073 -9.7992473e-05
0.0073140957 -0.001987499 -9.5016338e-05
-0.0026657158 0.0015 -7.6616918e-05
0.0075271847 -0.0019940631 -4.512363e-05
0.0099999998 0.0015512535 -4.7902085e-05
-0.00085475529 0.0034941081 -4.4741024e-05
-0.0039999997 -0.0023798868 -2.4532379e-05
0.007699199 -0.0019994359 -4.2888282e-06
0.0095151244 0.001999534 3.543953e-06
0.009568667 -0.0019977156 1.7364448e-05
0.0050696102 0.0019977964 1.6750742e-05
0.0017473829 -0.0019963435 2.7792235e-05
0.0075771916 -0.0019969819 2.2940903e-05
0.0020698488 0.0019962343 2.8621991e-05
0.0022504879 0.0019968511 2.3934983e-05
0.0059485477 0.0019969181 2.3424889e-05
-0.001759538 0.00059783581 3.5670546e-05
0.0056613628 -0.0019939756 4.5790057e-05
0 -0.0030321628 5.0306175e-05
0.0099999998 -0.00074793858 5.3449781e-05
-0.0035224038 0.0015 5.0087336e-05
0.0057750382 0.0019934063 5.011633e-05
0.0089537762 -0.001991526 6.4408152e-05
-0.0018921634 -0.0010895064 6.0915536e-05
-0.0022569103 0.0015 7.6698663e-05
0 0.0023292224 7.6625016e-05
-0.0018149726 0.00079765567 8.9431749e-05
0.0003722196 0.0019888964 8.4395499e-05
0.0029414028 0.0019872489 9.6915537e-05
0.0050374949 0.0019870056 9.8765428e-05
0.0061722938 0.00198802 9.1055117e-05
0.0094932122 -0.0019839697 0.0001218402
-0.0035069042 -0.0015 0.00012796519
0.0062811649 0.0019801531 0.00015084806
-0.0039739665 0.0031052763 0.00015770488
-0.0018906598 -0.0010697785 0.00016815202
0.00023798503 0.0019785005 0.00016340856
-0.0039999997 -0.0027001575 0.0001716471
0.0041553807 -0.0019766099 0.00017777918
0.010000001 0.00016826227 0.00017127133
-0.00069193984 -0.0034759741 0.00018244304
0.0060469895 -0.0019757352 0.00018442844
0.009343884 -0.0019761492 0.00018128118
0.00094139489 -0.0019743764 0.00019475656
0.00092837447 -0.0019722981 0.00021055083
-0.0033966943 -0.0015 0.00021992014
0.0094254045 -0.0019702606 0.00022603724
0.0047218041 0.0019693507 0.00023295282
-0.0039999997 0.0025408042 0.00023325659
-0.0026867734 0.0034686415 0.00023812029
0 -0.0033704473 0.00024684268
-0.0029119956 -0.0034667836 0.00025223065
-0.0039999997 -0.0024418856 0.00025899266
0.0024325494 -0.0019661076 0.00025760251
0.0094813528 -0.001966456 0.00025495453
0.0099999998 0.00019940616 0.00025067432
0.0041085067 0.0019662089 0.00025683275
-0.0033944554 0.0015 0.00026023117
0.0027124444 -0.0019639356 0.00027411117
-0.0017564312 -0.00052187033 0.00027104034
0.0035611698 0.0019617765 0.00029052221
0.0096310237 -0.001899366 0.0003048612
0.0084391767 0.0019600894 0.00030334349
0 0.0024168659 0.00030347364
0.0048851348 0.0019583779 0.00031635317
0.0071343309 0.0019590494 0.00031124984
-0.0039999997 0.0030580468 0.00031871357
0.0099999998 0.0014744258 0.0003258104
0.007163235 0.0019575809 0.00032240967
0.007969779 0.001956901 0.00032757837
0.0021875461 -0.0019561003 0.00033366293
0.0084803104 -0.0019558249 0.00033575733
0.0094951997 0.0019540056 0.00034958607
0 0.0023336697 0.00035654887
-0.0026419389 0.0034528866 0.00035775799
0.0018377313 -0.0019522399 0.00036300655
-0.0019970804 0.0034523408 0.00036189967
0.0052396399 -0.0019498505 0.00038116676
0.0050116554 -0.0019465961 0.00040590146
0.0099999998 9.9428878e-05 0.00041237773
0.0046705944 0.0019452142 0.00041640515
-0.0039999997 0.0022932328 0.00041201193
0.0078589357 0.0019440666 0.00042512754
0 -0.0024749795 0.00044930508
0.0099999998 -7.1389499e-05 0.00045346381
-0.0017368058 -0.00018521807 0.00047882184
0 -0.0030387102 0.00048889394
0.0058203088 0.0019360919 0.00048574037
-0.00045556496 0.0034363123 0.00048361125
-0.0039999997 -0.0017682775 0.0004988141
0.0026007162 0.0019346639 0.00049659394
-0.0031165341 0.0034343889 0.00049821672
0.0025755838 0.0019333448 0.00050661975
0.002092852 0.0019319367 0.00051732169
0.0085982922 0.0019311763 0.00051934749
-0.0033124737 0.0034324145 0.0005132095
0.0035531281 -0.0019305791 0.00052078988
0.0032567561 -0.0019276649 0.00052782573
-0.0019849639 0.0013299708 0.00052989321
0 0.0019354756 0.00052276516
-0.00061449519 -0.0034297206 0.00053366739
0.0055425474 -0.0019258343 0.00053224532
0.0047121542 0.001926184 0.00053140102
-0.0012601076 0.0034292971 0.0005368815
-0.0020780971 -0.0034274799 0.00055068039
0.010000001 0.00079071382 0.00055781065
-0.0039485754 0.0015 0.00056388567
-0.0019086606 0.0010046907 0.00057734532
-0.0035416146 0.0015000002 0.00057255878
0.0091081997 0.0019101216 0.00057018234
0.0032278695 -0.0018945303 0.00060782605
0.0022676997 -0.0018906447 0.00061720778
0.0067371852 -0.0018881584 0.00062321057
-0.0019435843 -0.0011253561 0.00062372239
0.0030989761 -0.0018833125 0.00063491071
0.0088261254 0.0018835962 0.00063422561
0 0.0019452395 0.00064506684
0.0050537782 -0.0018703534 0.00066619989
0.0032886711 0.0018701721 0.00066663721
-0.002613968 -0.0034111536 0.00067465409
0.0087512555 -0.001861885 0.00068664527
0 -0.0024468971 0.00069967302
-0.0018177296 -0.00041511032 0.00070584746
-0.0018177514 -0.00038724061 0.00071933476
-0.0039607622 0.0030457529 0.0007102575
0.0099999998 0.00065878872 0.00072723354
0.0015597005 0.0018463464 0.00072416232
0.0027951973 0.0018441235 0.00072952971
0.0061127637 0.0018453932 0.00072646356
-0.00036262322 0.0034040371 0.00072869344
-0.00075827725 -0.0034038054 0.00073045178
0.0067312964 -0.0018423356 0.00073384587
-0.00077517272 0.0033990955 0.00076621841
5.2136507e-05 0.0018257517 0.0007738861
0.0010091063 -0.0018216064 0.00078389421
-0.0020517588 0.0015 0.00078087032
0.0069622169 0.0018210103 0.0007853345
-0.0010878567 -0.0033944631 0.00080139365
0.001241999 -0.001810937 0.00080965494
0.0099999998 -0.00063565013 0.00080904685
-0.0018160766 4.8901777e-05 0.00080711133
-0.0039999997 0.0027098521 0.00080567214
0.0060711741 -0.001808082 0.00081654836
0.0022899818 0.001809034 0.00081424956
0.0027931279 -0.001805846 0.00082194718
-0.0017797722 -0.0033896882 0.00083765067
0.0081147207 0.0017992373 0.00083790283
0.0071436237 0.0018024109 0.00083024078
-0.0014983444 -0.0033884589 0.00084698468
-0.003187184 -0.0033876551 0.00085308653
0.00075732102 -0.0017939466 0.00085067714
-0.001845427 -0.00031737532 0.00085913
-0.0024058712 -0.0033856488 0.00086832419
-0.0021230816 0.0014923682 0.00087040628
-0.0017172863 0.0033837208 0.00088296441
-0.0023006706 -0.003381779 0.00089770788
0.0050815679 -0.0017747139 0.00089711277
-0.0025350165 -0.0014581564 0.00089015777
-0.0019999999 -0.0011963928 0.00089220417
0.0056789932 -0.0017704334 0.00090744736
-0.0033683085 -0.0014377541 0.00090193667
0.0046514873 0.0017697283 0.00090915035
0.00092895003 0.0017702397 0.00090791518
0 -0.0022351849 0.00091412297
0.0083451439 -0.0017671664 0.0009153352
-0.0028135402 -0.0014083773 0.00091889681
0.0067293318 0.0017687764 0.0009114478
-0.0039999997 -0.0018401464 0.00094380061
0 -0.0022825275 0.00095016864
0.00123589 -0.0017507774 0.00095490529
-0.0032793775 0.003358379 0.00095979421
3.1022009e-05 -0.0017445302 0.00096998841
-0.0018605151 -8.7679415e-05 0.00096786313
0.0042281169 0.0017477894 0.00096211984
-0.003078338 -0.0033516672 0.00097599928
-0.0028304029 -0.0013116417 0.00097474555
0 0.0028762762 0.00097253983
-0.0019637418 0.00093333784 0.00098929636
-0.0039999997 -0.0028334465 0.001010451
0.0053448505 0.0017141699 0.0010233619
0.0057592415 0.0017112506 0.0010271657
-0.00028194033 -0.0033253913 0.0010394424
-0.0028652179 -0.0012013445 0.0010384239
-0.0027047573 0.0033283778 0.0010322309
-0.00046256138 -0.0033215138 0.0010488039
-0.0019011959 -0.00041657942 0.0010414005
0.0025170685 0.0017010799 0.0010404172
-0.0027536429 -0.0011656709 0.0010590194
0.0026715058 0.0016879329 0.0010575467
0.0018732918 0.0016793592 0.0010687175
-0.0039999997 0.0016957341 0.0010653406
0.00079685403 -0.0016745899 0.0010749315
0.009003941 -0.0016782868 0.0010701146
0.0099999998 0.00035137578 0.0010752539
-0.0030467289 -0.0033055572 0.0010873307
-0.0021861491 0.0011169033 0.0010871748
-0.0014324009 0.0033019744 0.0010959822
0.0012259101 -0.0016479798 0.0011096026
0.0050344137 0.0016504737 0.0011063532
0 0.0029174294 0.0011081012
0.0083127609 0.0016460696 0.0011120914
0.006237838 -0.0016367034 0.0011242951
-0.0019123286 -0.0032846658 0.001137773
0.008613972 0.0016269828 0.0011369602
-0.00092313951 -0.0032726526 0.0011667782
0.0062190006 -0.0016060289 0.0011642615
-0.0019709338 -0.00075206702 0.0011618668
0.0061186939 0.0016084741 0.0011610754
0.0044072769 -0.0015915383 0.0011831416
0.0062946333 -0.0015898712 0.0011853136
0.0057215518 0.0015925906 0.0011817703
-0.0013323023 0.0032645902 0.0011862445
-0.00039968092 -0.0032593331 0.0011989382
0 -0.002268221 0.0012006363
0 -0.0023481285 0.0012138702
0.0030283495 -0.0015695477 0.0012117935
-0.00026115225 0.0032511915 0.0012185952
0.0099999998 0.00019799225 0.0012284332
0.0038268899 0.0015570762 0.0012280431
-0.0039999997 0.0018115293 0.0012251964
-0.0039999997 -0.0018474122 0.001238638
0.0099999998 -0.00060058781 0.0012551089
0.0063293907 -0.0015289389 0.0012647039
-0.0032956225 -0.00081443711 0.0012618265
0.0099999998 -4.5774432e-05 0.0012646634
-0.0027763895 -0.0032268935 0.0012772625
0.0040381006 -0.0015156333 0.00128204
-0.0039999997 0.0022561327 0.0013024451
0.0016920839 -0.0014929248 0.0013116277
0 0.0028893682 0.0013164302
-0.0022642468 -0.00070687564 0.0013239067
0 0.001753288 0.0013284475
0 0.002830514 0.0013282949
-0.0020318762 -0.00069484295 0.0013308515
-0.002027554 -0.00067933649 0.001339806
0.0098560397 0.0010534147 0.0013342393
0.0061170869 0.0014758679 0.0013338513
-0.0019788586 0.00041442137 0.0013533584
0.0015917318 0.0014570331 0.0013583917
0.0041168346 -0.0014486104 0.0013693657
-0.0038137536 -0.00064433314 0.0013600574
0.0015836597 -0.0014425546 0.001377256
-0.0026794525 -0.00062319601 0.0013722338
0 0.001923182 0.0013756767
0.0068093394 -0.0014185575 0.0014085227
0.0087298155 -0.0014134861 0.0014147479
0.0088639418 -0.0014151913 0.0014129085
0.0051794495 0.001416711 0.0014109283
0.00057057629 -0.0014014543 0.0014239823
0.0022034529 -0.0013964466 0.0014278258
0.0052790428 0.0013964924 0.0014277907
0 -0.0022333383 0.0014333489
-0.0039999997 -0.0021818199 0.0014358959
0.0097799543 -0.001049592 0.0014322608
-0.0039999997 0.0020115937 0.0014302359
0.0048047914 0.0013742765 0.0014448415
-0.0038122828 0.0029313695 0.0014407863
0.0099999998 0.00045861269 0.001457858
1.9582851e-05 0.0013673779 0.0014501362
0 -0.0026576126 0.0014769955
-0.0039999997 -0.00071086659 0.0014775378
0.001689684 -0.0013216463 0.0014852355
-0.0039999997 -0.00089718815 0.0014883083
-0.0039999997 0.0026548866 0.0014989398
0.0074038687 -0.0012940216 0.0015064374
-0.0021971723 0.0003867998 0.0015087361
0.0073898775 0.0012814727 0.0015160688
0.0063276645 -0.0012633963 0.0015299424
-0.0029288915 0.0031258457 0.0015212403
-0.0035773525 0.00034333146 0.0015338499
-0.0032729316 0.00034705701 0.0015316912
0.0070290146 0.0012602858 0.0015323297
0.0035497921 -0.0012478642 0.0015418635
0.0043950644 -0.0012404795 0.0015475312
-0.0021144017 0.00032736472 0.0015430578
0.0019287551 0.0012408046 0.0015472816
0.0048423558 0.0012274989 0.001557494
0.008198522 0.001233939 0.0015525511
-0.0037264663 0.00029005783 0.0015646139
0.0024021547 0.0012142456 0.0015676657
0.0030498474 -0.0012049199 0.0015748235
0.0069342349 -0.001207766 0.0015726389
-0.0039999997 -0.0004945586 0.0015728344
-0.0039999997 -0.0012357347 0.0015808416
0.0088891778 -0.0011926615 0.0015842317
0.0064826938 -0.0011863599 0.0015890682
0.0038506303 0.001196783 0.0015810684
0.0065822327 0.00119586 0.0015817769
0 0.002449251 0.0015869725
-0.0037972871 -0.0028813358 0.0016004425
0.0067554736 -0.0011493135 0.0016175015
0.0098561291 0.00055293436 0.0016107431
0.0041795103 -0.0011399004 0.0016247261
0.007992181 -0.0011341412 0.0016291462
0.0006262422 0.0011435166 0.0016219504
0.0015161269 0.0011283102 0.0016336214
-0.00026940941 -0.0030733126 0.0016480793
0.0040754103 0.0011166085 0.0016426026
-0.0032365664 0.00014127586 0.001650518
0.0015916659 0.0010951656 0.0016590601
-0.0035467474 0.0030699538 0.0016561889
-0.003006374 0.00011105854 0.0016679674
-0.0039999997 0.0020971457 0.0016652857
0.0025165805 -0.0010806354 0.0016702123
0.0034508931 -0.0010697049 0.0016786014
0.0080894371 0.0010784373 0.0016718991
0.0084110294 0.0010737109 0.0016755267
-0.0034990383 0.0030610082 0.0016777887
0.006497914 -0.001063204 0.0016835908
-0.0025209915 7.8750389e-05 0.0016866244
0.0029687458 0.0010646762 0.0016824609
-0.0034088374 0.0030578142 0.0016855
0.0037175124 -0.001048185 0.001695118
0.0045357267 -0.0010347263 0.0017054477
0.005300906 -0.0010311113 0.0017082222
0 -0.0013296554 0.001719079
0.0028283922 -0.0010221177 0.0017151249
0.0086020017 -0.0010251515 0.0017127963
0.0087478701 0.0010201801 0.0017166118
0.0098024448 -0.00032729068 0.0017249833
0.0095192343 0.0010100949 0.0017243522
0.0046728407 -0.00098594895 0.0017379199
0.0090264566 -0.00098203693 0.0017395401
0.00020002299 -0.00096170953 0.0017479592
0.00033194266 -0.00096778048 0.0017454448
0.0086880969 -0.00095534598 0.0017505949
0.0020890043 -0.00093961362 0.0017571108
0 0.0015847275 0.0017676041
0.0042072344 -0.0008846001 0.0017798963
0.00076236093 0.00087192777 0.0017851449
-0.0011524417 -0.0029962927 0.0017953648
0.00072731386 -0.00085874443 0.0017906054
0.0077228532 -0.00084488752 0.0017963445
0.0066218697 0.00085165078 0.0017935433
-0.0012749957 0.0029998566 0.0017907202
-0.00066750939 0.0029943942 0.0017978391
0.0033402846 -0.00081760669 0.0018076437
-0.00045106778 0.0029886467 0.0018053305
0.0088568423 -0.00076546497 0.0018292397
0.0053078663 0.00076793198 0.0018282179
0.0050120242 0.00077764608 0.0018241946
0.0013166013 0.00078085205 0.0018228666
0.0020659887 0.00078540982 0.0018209789
0 0.0017385127 0.001828899
0.0018306412 -0.00073626795 0.0018413325
-0.0039999997 0.0016288224 0.0018461806
0.0049865427 -0.00069987634 0.0018564051
0.0066106962 0.00070436945 0.0018545442
0.0019341265 0.00071509875 0.0018501002
0.0088142594 0.00068076135 0.001864322
-0.0012082702 -0.0029358589 0.0018741285
0.006158066 -0.00065450557 0.0018751967
0 -0.0011518804 0.0018862054
0.0089559359 0.00064248295 0.0018801761
-0.00066695397 -0.0029197391 0.0018951377
-0.0039999997 -0.0018633587 0.0018935177
-0.00064563018 -0.0029086105 0.001909642
0 -0.001167586 0.0019020342
0.00022426809 -0.00057076756 0.0019098793
0.0035121713 0.00057718263 0.0019072222
-0.0039845211 -0.0024268518 0.0019111878
0.0030656578 -0.00056479516 0.0019123529
-0.0031856042 -0.0028992649 0.0019218217
0.0092916647 -0.00054120272 0.0019221244
0.0041714641 -0.00053366751 0.0019252453
0.0086391503 -0.00049854483 0.0019344072
0.0015286214 -0.00046059152 0.0019394008
9.7198335e-06 0.00049915776 0.0019343265
8.6623404e-05 0.00049452338 0.0019349363
0.0066351057 0.00050989533 0.0019329139
0.00065848493 -0.00043434557 0.0019428538
0.00042565443 -0.00042842506 0.0019436328
0.0045774016 -0.00040948766 0.0019461244
0.000921759 0.00038583003 0.0019492368
0.0024464403 0.00039028635 0.0019486506
0.0024796827 0.00039716269 0.0019477459
0.00093174184 -0.00037006423 0.0019513112
0.0018022765 -0.00035328092 0.0019535194
0.0031099492 -0.00035419798 0.0019533986
0.0048398552 -0.00034516279 0.0019545876
0.0014711227 -0.00031932676 0.0019579867
0.0028273307 -0.00031212831 0.0019589337
-0.00011967433 0.0028770082 0.0019508294
0.0056703389 -0.00023155499 0.0019695347
0.0089830384 0.00023208102 0.0019694655
0.0024568103 0.0002946766 0.0019612298
-0.0025581692 -0.0028594409 0.0019737247
0.0086223641 -0.00021009672 0.001972358
0.0042383727 -0.00020780221 0.00197266
0.00075885607 -0.00016720757 0.0019780006
0.0024172647 0.00020805595 0.0019726264
0.0091990298 0.00022261019 0.0019707116
0.0016063276 -0.00014949073 0.001980332
0.0051095011 -0.00013077461 0.0019827944
0.0084895827 -0.00013977123 0.0019816107
0.006115214 -0.00010427893 0.0019862803
0.0009691568 9.0082365e-05 0.0019881481
0.0089244703 9.9053839e-05 0.0019869676
0.0092429183 0.00014672917 0.0019806952
0.00049900217 -1.7716329e-05 0.0019976692
0.0012778892 1.967531e-05 0.0019974115
0.0018861355 1.6752761e-05 0.0019977959
0.0028925214 6.4334054e-05 0.0019915358
0.0057679056 7.2405543e-05 0.0019904738
-0.0032977103 -0.0028337417 0.0020072192
-0.0010524021 -0.0028170701 0.0020289472
-0.0037697356 0.0025931108 0.0020443932
-0.0009790255 0.002795035 0.0020576657
-0.0023508067 -0.0027926671 0.0020607521
0 -0.00042644155 0.0020731592
-0.0039999997 0.0011482246 0.0020823642
-0.0037235448 -0.0026014 0.0021087744
0 -0.0015158448 0.0021082591
0 -0.0019128135 0.0021373138
0 -0.0016867357 0.0021548418
-0.0039999997 -0.0013343722 0.0021650768
-0.0032503083 0.0027014038 0.0021796958
0 0.00024546444 0.0021892407
-0.0014997112 0.0026965092 0.0021860753
-0.0031165623 0.0027003095 0.0021811225
-0.0029855403 0.0026921479 0.0021917596
0 0.0010535908 0.0022025835
0 0.0026077386 0.002206679
-0.0039999997 0.00046478046 0.0022157084
-0.00019262287 -0.002650816 0.0022456278
-0.0039999997 0.0017804824 0.0022572151
-0.00064991415 0.0026378247 0.002262559
-0.00086916907 0.0026175859 0.0022889366
0 0.0018795838 0.0023047228
-0.0037626578 0.0024030881 0.0023035337
-0.0039999997 0.001887762 0.0023144442
-0.0017128251 -0.002587796 0.0023277623
0 -0.00031345125 0.0023995
-0.0023417654 0.0025006565 0.0024413315
-0.00099366368 -0.0024828929 0.0024644828
0 -0.0013499703 0.0024688691
-0.0026908075 -0.0024757206 0.0024738309
-0.0039999997 -0.00069958065 0.0024719373
-0.00064048875 0.0024404544 0.0025013296
-0.0017094917 -0.0024152696 0.0025206532
0 0.00087758573 0.0025493086
-0.0024069801 0.0023653128 0.0025589843
-0.00036968882 -0.0023605088 0.0025626703
-0.0038095599 0.002009704 0.0025699046
-0.0023273579 -0.0023481324 0.002572166
-0.0038492749 -0.0019382661 0.002575137
-0.0039999997 -0.0013351478 0.0025780927
-0.0039999997 0.0012018473 0.0025818567
-0.0039999997 -0.0015306711 0.0025968277
0 -0.00091457617 0.0026567876
-0.00013050345 0.0022393619 0.0026556235
0 -0.00021081269 0.0026664808
0 -0.0018777881 0.0026922747
-0.0039999997 -0.00051534665 0.0026979202
-0.00090455328 -0.0021761742 0.002704106
-0.0039999997 -2.8206111e-06 0.0027069352
-0.0026773724 -0.0021133053 0.0027523441
-0.00066949462 0.0020794328 0.0027783338
0 -0.00051362818 0.0027894317
-0.0039999997 -0.00017313767 0.0027968846
-0.00026528194 -0.0020076199 0.0028334339
-0.0018238128 0.0019973407 0.0028413208
-0.00011890145 -0.0019826582 0.0028525866
-0.00015114112 0.0019722425 0.0028605782
-0.0034963062 0.0019340677 0.0028898688
-0.00014169616 0.0019384676 0.0028864928
-0.0039999997 0.00061912416 0.0029168597
-0.0038352269 0.0014005128 0.0029234285
-0.0038030874 -0.0014496739 0.0029375628
-0.0024357596 -0.0018440782 0.0029589161
-0.0030107186 -0.0018202594 0.0029771919
-0.0026787813 0.0018292055 0.0029703276
0 -0.00081529858 0.0029997164
-0.0027558829 0.0017929489 0.0029981465
-0.0018795059 0.0017937531 0.0029975295
-0.0038864699 -0.0010769665 0.0030024615
0 -0.00096869201 0.0030063172
-0.0010443878 -0.0017442693 0.0030334739
-0.0019135855 0.0017161688 0.0030451121
-0.0021598267 0.0017277604 0.0030403109
-0.001461699 -0.0016683544 0.0030649153
-0.00034291649 0.0016757309 0.0030618601
-0.00056100806 -0.0016207621 0.0030846265
-0.0026873201 -0.0016057336 0.0030908508
-0.0031023198 -0.0015213815 0.003125787
-0.0015408249 -0.0015259252 0.0031239053
-0.0024872883 -0.0014862802 0.0031403247
-0.0029957178 0.0014293385 0.0031639081
-0.00031801176 -0.0013954425 0.0031779469
-0.0030177189 0.0013677725 0.0031894068
-0.00077945483 0.0013671523 0.0031896641
-0.00060464977 0.0013873095 0.0031813155
0 -0.00018235538 0.003191408
-0.0036974044 0.00093095389 0.0032658046
-0.00089152093 -0.001141848 0.003282978
-0.0037603367 -0.00025149508 0.0033065435
0 0.00034556724 0.0033013572
-0.0014596869 -0.00099979318 0.0033418129
-0.0011077079 0.00098801148 0.0033466923
-0.0025222157 0.00094983197 0.0033625052
-0.002224694 0.00085132284 0.0033878877
-0.0019007308 -0.00081781356 0.0033923006
-0.0025960766 -0.00071781548 0.0034054695
-0.0036593364 0.00014140781 0.00342205
-0.00045313584 0.00057064823 0.0034248501
-0.0012040721 -0.00038837767 0.003448854
-0.0030957209 -0.00037146814 0.0034510808
-0.0014826017 -0.00033831078 0.0034554473
-0.00057013257 0.00031865714 0.0034580356
-0.0027659959 0.00034316635 0.0034548079
-0.0027569775 0.00023305455 0.0034693086
-0.00290381 -0.00020494049 0.0034730113
-0.0019943863 0.00018666366 0.0034754178
-0.0014975114 -0.00014508082 0.003480894
-0.0015301127 0.00011602532 0.0034847204
-0.0015330542 0.0001260205 0.0034834044
-0.0023012287 2.8081631e-05 0.0034963021
