# .PCD v0.7 - Point Cloud Data file format
VERSION 0.7
FIELDS x y z
SIZE 4 4 4
TYPE F F F
COUNT 1 1 1
WIDTH 1000
HEIGHT 1
VIEWPOINT 0 0 0 1 0 0 0
POINTS 1000
DATA ascii
-0.00085475534 -4.4741177e-05 -0.0034941081
-0.0027345102 -0.000302006 -0.0034602282
-0.0026867737 0.00023812016 -0.0034686415
-0.0026419391 0.00035775788 -0.0034528866
-0.0019970806 0.00036189953 -0.0034523408
-0.0013064239 -0.00038039812 -0.0034499045
-0.0035923179 -0.00052265264 -0.0034311709
-0.00045556502 0.00048361113 -0.0034363123
-0.0031165341 0.00049821654 -0.0034343889
-0.0033124739 0.00051320932 -0.0034324145
-0.0018232091 -0.00055303465 -0.00342717
-0.0012601077 0.00053688139 -0.0034292971
-0.002104145 -0.00074827729 -0.003401458
-0.00010835948 -0.00069527578 -0.0034084381
-0.00036262325 0.00072869333 -0.0034040371
-0.00077517278 0.00076621835 -0.0033990955
-0.0026160851 -0.00085989182 -0.0033867592
0 -0.0005006803 -0.0033861962
-0.0017172864 0.00088296429 -0.0033837208
-0.0032793777 0.00095979404 -0.003358379
0 -0.00032160024 -0.0033451801
-0.0027047575 0.0010322308 -0.0033283778
-0.0007928831 -0.0010900459 -0.0033044326
-0.0030387973 -0.0010793032 -0.0033088822
-0.001432401 0.001095982 -0.0033019744
-0.00091326068 -0.0011173687 -0.0032931166
-0.0013323025 0.0011862445 -0.0032645902
-0.00026115228 0.0012185951 -0.0032511915
-0.00096619909 -0.0013380094 -0.003201734
-0.002843908 -0.0013246997 -0.0032072465
-0.0027620241 -0.0013243182 -0.0032074049
0 -0.00074542698 -0.003195894
-0.001451505 -0.0013926571 -0.0031791006
-0.0010032903 -0.0014173172 -0.0031688872
-0.0037148953 -0.0011274314 -0.0031656567
-0.0029288917 0.0015212403 -0.0031258457
-0.0039739665 0.00015770475 -0.0031052763
-0.003352969 -0.0016194206 -0.003085182
-0.0036796203 -0.0014601446 -0.0030657095
-0.0035467476 0.0016561886 -0.0030699538
-0.0034990385 0.0016777886 -0.0030610082
-0.0040000002 0.0003187134 -0.0030580468
-0.0034088378 0.0016854999 -0.0030578142
-0.0039607622 0.00071025739 -0.0030457529
0 -0.0012393461 -0.0030310589
0 -0.0012046089 -0.0030092595
-0.0012749959 0.00179072 -0.0029998566
-0.00066750945 0.0017978387 -0.0029943942
-0.00045106778 0.0018053304 -0.0029886467
-0.00056715828 -0.0018745068 -0.002935569
-0.0040000002 -0.00050519698 -0.0029331513
-0.003812283 0.0014407862 -0.0029313695
-0.0040000002 -0.0003412962 -0.0029271417
0 0.001108101 -0.0029174294
-0.0038853209 -0.0013628165 -0.0028852865
-0.0040000002 -0.00062129908 -0.0028893503
0 0.0013164299 -0.0028893682
0 0.00097253971 -0.0028762762
-0.00011967434 0.0019508293 -0.0028770082
-0.00082893315 -0.0019626888 -0.0028679087
-0.00040542532 -0.0019790858 -0.0028553277
0 -0.00054974883 -0.002831629
0 0.0013282947 -0.002830514
-0.0028703352 -0.0020603212 -0.0027929975
-0.00097902562 0.0020576655 -0.002795035
0 -0.0014014562 -0.0027605311
-0.00035726556 -0.0021335608 -0.0027368022
-0.0040000002 0.00080567197 -0.0027098521
-0.0032503083 0.0021796958 -0.0027014038
-0.0031165627 0.0021811225 -0.0027003095
-0.0014997113 0.0021860753 -0.0026965092
-0.0029855408 0.0021917596 -0.0026921479
-0.0023692099 -0.0022454879 -0.0026509233
0 -0.0016285506 -0.0026559236
-0.0040000002 0.0014989397 -0.0026548866
-0.0011567354 -0.002265062 -0.0026359044
-0.00064991415 0.002262559 -0.0026378247
-0.00086916913 0.0022889366 -0.0026175859
-0.0036703965 -0.0021966759 -0.0026003863
0 0.002206679 -0.0026077386
-0.0037697358 0.0020443932 -0.0025931108
-0.0040000002 0.00023325648 -0.0025408042
-0.0023417657 0.0024413315 -0.0025006565
-0.0030735286 -0.0024955038 -0.0024480473
-0.0040000002 -0.0013467422 -0.0024468142
0 0.0015869723 -0.002449251
-0.00064048881 0.0025013296 -0.0024404547
0 0.00030347356 -0.0024168659
-0.0037626578 0.0023035337 -0.0024030881
-0.0022704194 -0.0025550951 -0.0023703813
-0.0024069806 0.0025589843 -0.0023653128
-0.0021308844 -0.002578055 -0.0023404572
0 0.00035654876 -0.0023336697
0 7.6624921e-05 -0.0023292224
-0.0040000002 0.00041201181 -0.0022932328
-0.0040000002 0.001302445 -0.0022561327
-0.00013050347 0.0026556235 -0.0022393619
-0.0028149399 -0.0026788579 -0.0022090804
-0.00050536194 -0.0027074756 -0.0021717825
0 -0.0012442304 -0.0021607873
-0.0018639647 -0.0027368583 -0.002133488
-0.0040000002 -0.0020662947 -0.002132382
-0.0040000002 -0.0018867294 -0.0021399329
0 -0.0027337798 -0.0021273282
-0.0030374827 -0.002754003 -0.0021111434
-0.00026431159 -0.0027580911 -0.0021058151
0 -0.0022559853 -0.0020946104
-0.0040000002 0.0016652854 -0.0020971459
-0.0031333871 -0.0027728498 -0.0020865796
-0.0020124309 -0.0027747771 -0.002084068
-0.0021264178 -0.0027823492 -0.002074199
-0.00066949462 0.0027783338 -0.0020794328
0 -0.0016717952 -0.0020631086
-0.0022822015 -0.0028050283 -0.0020446416
-0.0040000002 0.0014302357 -0.0020115937
0 -0.0021200229 -0.0020040059
-0.0038095601 0.0025699046 -0.002009704
0.0095151253 3.5438657e-06 -0.001999534
0.0050696107 1.6750655e-05 -0.0019977964
0.0020698491 2.8621906e-05 -0.0019962343
0.0022504881 2.3934894e-05 -0.0019968511
0.0059485487 2.3424802e-05 -0.0019969181
0.0057750386 5.0116247e-05 -0.0019934063
-0.001823813 0.0028413208 -0.0019973407
0.00046608658 -0.00013482365 -0.0019822614
0.00037221963 8.4395419e-05 -0.0019888964
0.0029414031 9.6915457e-05 -0.0019872489
0.0050374954 9.876534e-05 -0.0019870056
0.0061722943 9.105503e-05 -0.00198802
0.0062811654 0.00015084798 -0.0019801531
0.0043241377 -0.00020655787 -0.0019728234
0.00023798506 0.00016340849 -0.0019785005
-0.00015114114 0.0028605782 -0.0019722427
-0.0038346378 -0.0025719539 -0.0019662555
0.0090137403 -0.00029794217 -0.0019608003
0.002675436 -0.0002889146 -0.0019619879
0.0090916744 -0.00023578579 -0.001968978
0.0047218045 0.00023295272 -0.0019693507
0.0041085072 0.00025683269 -0.0019662089
0.0035611703 0.00029052212 -0.0019617765
0.0084391776 0.00030334343 -0.0019600894
0.0048851352 0.00031635308 -0.0019583779
0.0071343314 0.00031124978 -0.0019590494
0.0071632355 0.00032240961 -0.0019575809
0.0079697808 0.00032757831 -0.001956901
0.0094952006 0.00034958601 -0.0019540056
0.0053384556 -0.00043977459 -0.0019421395
0.0016849746 -0.0004258804 -0.0019439677
0.0046705948 0.00041640506 -0.0019452142
0.0078589367 0.00042512745 -0.0019440666
0 0.00064506679 -0.0019452395
0.0031117126 -0.0005127429 -0.001932539
0.002954646 -0.00050963071 -0.0019329487
0.0062045278 -0.00049370812 -0.0019350434
0.0013503125 -0.00048844534 -0.001935736
0.0043603173 -0.00046992913 -0.0019381722
0.0058203093 0.00048574034 -0.0019360919
0.0026007164 0.00049659383 -0.0019346639
0.002575584 0.00050661969 -0.0019333448
0.0020928523 0.00051732163 -0.0019319367
0.0085982932 0.00051934744 -0.0019311763
0 0.0005227651 -0.0019354756
-0.0034963065 0.0028898688 -0.0019340678
-0.00014169616 0.0028864928 -0.0019384677
0 -0.002341005 -0.0019244791
0.0047121546 0.00053140096 -0.001926184
0 0.0013756766 -0.001923182
0.0079798587 -0.00056862395 -0.0019107671
0.0091082007 0.00057018228 -0.0019101216
0.0072043976 -0.00057170453 -0.0019094911
-0.00035352213 -0.0029312791 -0.0018800979
0.00075071648 -0.00063036516 -0.0018851953
0.0088261263 0.00063422555 -0.0018835962
-0.0040000002 0.0023144442 -0.0018877621
0 -0.002278558 -0.0018721205
0.0078081354 -0.00066339911 -0.0018715132
0.0032886716 0.00066663709 -0.0018701721
0 0.0023047228 -0.0018795838
0.007011414 -0.00068481022 -0.0018626451
0 -0.0026427906 -0.0018496178
0.0088852141 -0.00072518381 -0.0018459233
0.0015597006 0.00072416232 -0.0018463464
0.0027951975 0.00072952965 -0.0018441235
0.0061127641 0.00072646351 -0.0018453932
-0.00030541624 -0.0029705886 -0.0018288654
5.2136511e-05 0.00077388604 -0.0018257517
0.0069622174 0.00078533444 -0.0018210103
-0.0026787817 0.0029703276 -0.0018292057
-0.003659138 -0.0029087232 -0.0018131793
-0.0040000002 0.0012251963 -0.0018115293
-0.0035005289 -0.002985433 -0.0018095182
0.00081229559 -0.00083330763 -0.0018011405
0.0028410917 -0.00081257155 -0.0018097291
0.002289982 0.00081424945 -0.001809034
0.0071436246 0.00083024072 -0.0018024109
0.0081147216 0.00083790277 -0.0017992373
-0.0027558829 0.0029981465 -0.001792949
-0.0018795062 0.0029975295 -0.0017937532
0.006704859 -0.00088142365 -0.001781212
-0.0040000002 0.0022572151 -0.0017804824
0.00092895009 0.00090791506 -0.0017702397
-0.0038034641 -0.0027661708 -0.0017639101
0.0055890731 -0.00091009762 -0.0017693358
0.0046514883 0.00090915029 -0.0017697283
0.0067293327 0.00091144769 -0.0017687764
0 0.0013284474 -0.0017532881
0.0042281174 0.00096211972 -0.0017477894
-9.84941e-05 -0.0030383812 -0.0017324201
-0.0040000002 -0.00096374418 -0.0017329929
0 0.001828899 -0.0017385127
0.0019156387 -0.0010069194 -0.0017267894
-0.0021598269 0.0030403109 -0.0017277605
0.0053448509 0.0010233617 -0.00171417
0.005759242 0.0010271654 -0.0017112506
-0.0019135856 0.0030451121 -0.0017161689
0.0020521332 -0.0010338618 -0.001706111
0.0025170688 0.0010404171 -0.0017010799
0.0054801214 -0.0010436266 -0.0016986167
-0.0040000002 0.0010653405 -0.0016957341
-0.0017559658 -0.00305876 -0.0016832164
0.002671506 0.0010575466 -0.001687933
0.0055620912 -0.0010756123 -0.0016740675
0.0096456446 -0.00094623276 -0.001673729
0.001873292 0.0010687173 -0.0016793594
-0.00034291649 0.0030618601 -0.0016757312
0.0023666907 -0.0010836284 -0.0016679151
0.0083387885 -0.001087508 -0.0016649375
0.0050344141 0.0011063531 -0.0016504738
0.00374849 -0.001116921 -0.0016423629
0.0083127618 0.0011120912 -0.0016460696
0.0043574478 -0.0011264904 -0.0016350184
0.0094076265 -0.0011212974 -0.001639004
0 -0.0017751068 -0.0016279147
0.0014177879 -0.001142031 -0.0016230908
0.0086139729 0.0011369602 -0.0016269829
-0.0040000002 0.0018461806 -0.0016288224
0.0061186948 0.0011610754 -0.0016084742
0.0057215528 0.0011817703 -0.0015925908
0 0.0017676041 -0.0015847277
-0.0040000002 -0.0026529159 -0.0015696586
0.010000001 -4.7902155e-05 -0.0015512535
0.0038268904 0.0012280431 -0.0015570762
0.0012664079 -0.0012458294 -0.0015434251
-0.0014328493 -0.0031224252 -0.0015294977
0.0085344492 -0.0012702193 -0.0015247059
0.00098567875 -0.0012670736 -0.0015271204
-0.0040000002 -0.0019229422 -0.0015031446
-0.0035416149 0.00057255873 -0.0015000002
-0.0030973428 -0.00086188398 -0.0015
-0.0035236329 -0.00075237465 -0.0015
-0.0020815337 -0.00067273126 -0.0015
-0.0022218456 -0.00041962421 -0.0015
-0.0034642026 -0.00021811514 -0.0015
-0.0029013481 -0.00011555893 -0.0015
-0.0026657158 -7.6616947e-05 -0.0015
-0.0035224045 5.0087274e-05 -0.0015
-0.0022569108 7.6698598e-05 -0.0015
-0.0033944556 0.00026023111 -0.0015
-0.0039485754 0.00056388561 -0.0015
-0.0020517588 0.00078087026 -0.0015
-0.0021230818 0.00087040622 -0.0014923682
0 -0.0017800421 -0.001488266
0.00077754341 -0.0013246055 -0.0014829641
0.010000001 0.00032581028 -0.0014744258
0.0061170873 0.0013338511 -0.0014758682
-0.00018146701 -0.0031489178 -0.0014655326
-0.0019982709 -0.00032111487 -0.0014512767
0.0015917319 0.0013583917 -0.0014570333
0.0076383986 -0.0013714384 -0.0014470197
0.0068757539 -0.001388283 -0.0014340915
0.00049354328 -0.0013985975 -0.0014261751
-0.002995718 0.0031639081 -0.0014293386
0.0050194277 -0.0014163303 -0.0014114247
-0.0035014949 -0.00091652246 -0.0014125002
-0.0033291192 -0.000912674 -0.0014191654
0.0051794499 0.0014109283 -0.0014167113
-0.0038526857 -0.0029035145 -0.0014033787
-0.0038352271 0.0029234285 -0.001400513
0.0052790432 0.0014277907 -0.0013964926
-0.0012646378 -0.0031821057 -0.0013854015
-0.00060464983 0.0031813155 -0.0013873096
0.0093910722 -0.0014422985 -0.00137759
0.0048047919 0.0014448415 -0.0013742767
1.9582852e-05 0.0014501362 -0.001367378
-0.0030177191 0.0031894068 -0.0013677726
-0.00077945489 0.0031896641 -0.0013671524
0.0023861264 -0.0014687751 -0.001343093
-0.0010622351 -0.0032036135 -0.001333471
0.0082357069 -0.0014817737 -0.0013261569
-0.0019849641 0.00052989315 -0.0013299708
0.0014562559 -0.001501076 -0.0013010072
0.0067078164 -0.0015077285 -0.0012923396
0.0093769729 -0.0015039974 -0.0012972009
0.0073898789 0.0015160688 -0.001281473
-0.0010092224 -0.0032318998 -0.0012651747
0.007029016 0.0015323297 -0.001260286
0.0033770849 -0.0015384518 -0.0012523094
0.0019287554 0.0015472816 -0.0012408049
0.0040924777 -0.0015526959 -0.0012337506
0.008198523 0.0015525511 -0.0012339392
0.0048423563 0.001557494 -0.0012274991
-0.0034332601 -0.0032517819 -0.0012171705
0.002402155 0.0015676657 -0.0012142458
-0.0037112422 -0.0031365696 -0.0012071426
1.0176192e-05 -0.001578001 -0.0012007797
-0.0040000002 0.0025818567 -0.0012018475
0.0080649564 -0.0015786997 -0.0011998696
0.0038506307 0.0015810684 -0.0011967832
0.0065822331 0.0015817769 -0.0011958602
0.0092411004 -0.0015928861 -0.0011813856
-0.0040000002 -0.0011926296 -0.0011864674
0.002578717 -0.001596403 -0.0011768035
0.0096471692 -0.0015008394 -0.0011764675
0.0096561108 -0.0014982527 -0.0011652784
0.00062624225 0.0016219504 -0.0011435167
-0.0040000002 0.0020823642 -0.0011482246
-0.0029761642 -0.0032851372 -0.0011366344
0.0059666466 -0.0016297919 -0.0011333001
0.001516127 0.0016336214 -0.0011283103
0 -0.0024852608 -0.0011111113
-0.0021861494 0.0010871748 -0.0011169033
0.0040754108 0.0016426026 -0.0011166086
0.007710964 -0.0016548539 -0.001100646
0.0043562879 -0.0016491085 -0.001108132
-0.0030818302 -0.0010929651 -0.0011069187
0.0089546097 -0.0016572844 -0.0010974794
0.001591666 0.0016590601 -0.0010951657
0 -0.0018615145 -0.0010869243
0.010000001 -0.00067561463 -0.0010746432
0.0080894381 0.0016718991 -0.0010784374
0.0084110294 0.0016755267 -0.001073711
0.0044095297 -0.0016815451 -0.0010658693
0.0029687458 0.0016824609 -0.0010646763
-0.0030632073 -0.0011220837 -0.0010564884
0.0098560397 0.0013342393 -0.0010534147
0 0.0022025835 -0.0010535909
-0.0040000002 -0.001785163 -0.0010485721
0.0067537804 -0.0016991188 -0.0010429721
0.0097441794 -0.0014891404 -0.0010337406
-0.0033434823 -0.0011364112 -0.0010316746
0.008747871 0.0017166118 -0.0010201802
0.0014439912 -0.0017188295 -0.0010172907
0.0095192352 0.0017243522 -0.0010100949
0.0071745492 -0.0017283449 -0.0010048926
-0.0019086607 0.00057734532 -0.0010046907
-0.0011077081 0.0033466923 -0.0009880116
2.0979875e-05 -0.0017505435 -0.00095547031
0.0086585777 -0.0017505703 -0.00095540535
0.010000001 -0.00059962185 -0.00095093995
-0.0025222159 0.0033625052 -0.00094983203
-0.0019637418 0.00098929636 -0.00093333784
-0.0036974046 0.0032658046 -0.000930954
0 -0.0033393202 -0.00090321695
0.0099084517 -0.0013894881 -0.00089608383
-0.0040000002 -0.002112617 -0.00088959042
0.0091377869 -0.0017818619 -0.00087985472
0.010000001 -0.00028169595 -0.00087275117
0.00076236099 0.0017851449 -0.00087192788
0 0.0025493086 -0.00087758573
-0.0031328897 -0.0033875194 -0.00085411948
0.0026659181 -0.0017933962 -0.00085200608
0.0066218707 0.0017935433 -0.0008516509
-0.002224694 0.0033878877 -0.00085132295
0.0030603097 -0.0018036189 -0.00082732423
-0.0017308067 -0.0033959267 -0.00079027965
0.0093644066 -0.0018167449 -0.00079563243
-0.0018149727 8.9431705e-05 -0.00079765567
0.010000001 0.00055781059 -0.00079071382
0.0013166014 0.0018228666 -0.00078085216
0.002065989 0.0018209789 -0.00078540982
-0.0040000002 -0.0024618085 -0.00077228475
0.0050120247 0.0018241946 -0.0007776462
0.0053078672 0.0018282179 -0.0007679321
0.0035602348 -0.0018336414 -0.00075483741
0.0019341267 0.0018501002 -0.00071509881
0.0066106967 0.0018545442 -0.00070436945
0.0088142604 0.001864322 -0.00068076141
0.0059003392 -0.0018667961 -0.00067478803
-0.0035253484 -0.0034139287 -0.00065357913
0.010000001 0.00072723354 -0.00065878878
0.0089559369 0.0018801761 -0.00064248301
0 -0.0030492467 -0.00062342832
-0.0040000002 0.0029168597 -0.00061912421
-0.0017658112 -0.00019033167 -0.00059287908
-0.0017595383 3.567052e-05 -0.00059783581
0.0035121716 0.0019072222 -0.00057718268
-0.00045313584 0.0034248501 -0.00057064835
-0.00059050438 -0.0034266219 -0.00055719528
0.00985613 0.0016107431 -0.00055293442
0.0094172386 -0.0019216682 -0.00054230425
0.0088979769 -0.0019195235 -0.00054748222
-0.0016825928 -0.0034313141 -0.00052156486
-0.001595341 -0.0034314326 -0.00052066572
0.0066351071 0.0019329139 -0.00050989533
0.0018052118 -0.0019349781 -0.00049420568
0.0029137933 -0.0019353925 -0.00049105624
9.7198345e-06 0.0019343265 -0.00049915782
8.6623411e-05 0.0019349363 -0.00049452344
-0.0036924507 -0.0033430248 -0.00048996811
0 -0.0019520095 -0.00048901746
0.0050243284 -0.0019363748 -0.00048359006
0.0054465365 -0.0019367823 -0.00048049309
0.0077712173 -0.0019366604 -0.00048141964
-0.0018412505 -0.00077139906 -0.00047265622
-0.00093587232 -0.0034393731 -0.00046036916
-0.0040000002 0.0022157084 -0.00046478046
0.010000001 0.001457858 -0.00045861278
0.002195911 -0.0019434114 -0.00043010717
0.005439823 -0.0019428846 -0.00043411067
0.0040555391 -0.0019444897 -0.00042191168
-0.0023869402 -0.0014919413 -0.00041588346
-0.0019788588 0.0013533584 -0.00041442143
0.010000001 -0.0011596839 -0.00040418623
-0.0033461144 -0.0015060595 -0.00039146855
0.0024464405 0.0019486506 -0.00039028641
0.0024796829 0.0019477459 -0.0003971628
-0.0021971723 0.0015087361 -0.00038679986
0.00092175906 0.0019492368 -0.00038583006
0.0078793317 -0.001952505 -0.00036099079
0.010000001 0.0010752539 -0.00035137584
0.0020966763 -0.001954488 -0.00034591975
-0.0027552955 -0.0015306784 -0.00034880231
-0.0018124126 -0.00071711419 -0.00034098493
-0.0035773532 0.0015338499 -0.00034333151
-0.0032729318 0.0015316912 -0.00034705707
0 0.0033013572 -0.00034556739
-0.0027659961 0.0034548079 -0.00034316647
-0.0021144017 0.0015430578 -0.00032736477
-0.00057013263 0.0034580356 -0.00031865726
-0.0028136591 -0.001562702 -0.00029334682
-0.0019444815 -0.0012544809 -0.00029102404
-0.0037264666 0.0015646139 -0.00029005785
0.0024568106 0.0019612298 -0.00029467666
-0.0018056399 -0.00071258133 -0.00028645294
-0.002148455 -0.0034658117 -0.00025960925
-0.0040000002 -0.0023394965 -0.00025332518
0.0028474538 -0.001966984 -0.00025094117
0.010000001 -0.00085420109 -0.0002534434
0 0.0021892407 -0.00024546453
0.0089830393 0.0019694655 -0.0002320811
-0.0027569777 0.0034693086 -0.00023305471
0.0091990307 0.0019707116 -0.00022261025
0.010000001 -0.00084137038 -0.00020219479
0.002417265 0.0019726264 -0.00020805601
-0.0019192902 -0.0011727187 -0.00019789838
0.010000001 0.00025067432 -0.00019940616
0.010000001 0.0012284332 -0.00019799233
0 -0.0028509924 -0.00018694228
0.00056996243 -0.0019757499 -0.00018431591
-0.0019943865 0.0034754178 -0.00018666382
0.010000001 0.00017127133 -0.00016826228
-0.0040000002 -0.0022046457 -0.00015082065
0.0034472062 -0.0019798654 -0.00015303714
0.005974221 -0.0019794053 -0.00015653309
-0.0032365667 0.001650518 -0.00014127593
0.0092429183 0.0019806952 -0.00014672925
-0.0036593364 0.00342205 -0.00014140795
0.010000001 -0.00014473344 -0.00013165767
-0.0015330543 0.0034834044 -0.00012602065
-0.0030063745 0.0016679674 -0.00011105862
-0.0015301128 0.0034847204 -0.00011602548
0.010000001 0.00041237773 -9.9428878e-05
0.00096915691 0.0019881481 -9.0082453e-05
0.0089244712 0.0019869676 -9.9053927e-05
0.0099999998 -0.0010409424 -8.5864813e-05
-0.0019024098 -0.0011263102 -7.1843722e-05
-0.0025209917 0.0016866244 -7.8750469e-05
0.0057679066 0.0019904738 -7.2405623e-05
0.0028925217 0.0019915358 -6.4334134e-05
-0.0018160768 0.00080711133 -4.8901813e-05
0.0035640777 -0.0019953507 -3.5338358e-05
-0.0023012287 0.0034963021 -2.8081784e-05
0.0012778894 0.0019974115 -1.9675397e-05
0.0018861357 0.0019977959 -1.6752847e-05
-0.0040000002 0.0027069352 2.820492e-06
0.00095969264 -0.0019977305 1.7250419e-05
0.00049900223 0.0019976692 1.7716244e-05
-0.0031468465 -0.0034967612 2.4596082e-05
0.0063538402 -0.0019968245 2.4135197e-05
0.0079561602 -0.0019952951 3.5760801e-05
0.010000001 0.0012646634 4.5774403e-05
-0.0037006349 -0.0016996025 5.6282672e-05
0.0065333256 -0.0019909055 6.9124253e-05
-0.0040000002 -0.0022013136 7.7523517e-05
-0.002693366 -0.0016895639 7.3668663e-05
0.010000001 0.00045346381 7.138947e-05
0.0026244996 -0.0019886282 8.6434069e-05
-0.0018605152 0.00096786313 8.7679371e-05
0.0073878742 -0.0019872484 9.6918739e-05
0.0061152144 0.0019862803 0.00010427885
-0.0021692291 -0.0034839956 0.00012152992
0.0065232837 -0.0019832039 0.00012765985
0.00039033132 -0.0019821394 0.00013575293
0.005109502 0.0019827944 0.00013077454
0.0084895846 0.0019816107 0.00013977116
0.0016063277 0.001980332 0.00014949066
-0.0014975114 0.003480894 0.00014508067
-0.00026741967 -0.0034794151 0.00015631123
0.0066395565 -0.0019800698 0.00015148186
-0.00027685633 -0.0034788335 0.00016072998
0.00075885613 0.0019780006 0.00016720752
-0.0040000002 0.0027968846 0.00017313744
0.0044310493 -0.0019754849 0.00018633014
0.0079501932 -0.0019761662 0.00018115193
-0.0017368058 0.00047882184 0.00018521807
0 0.003191408 0.0001823552
-0.0040000002 -0.0017262897 0.00019414103
0.0042383731 0.00197266 0.00020780211
-0.00290381 0.0034730113 0.00020494034
0.0086223651 0.001972358 0.00021009665
0 0.0026664808 0.00021081264
-0.0012403402 -0.0034703442 0.00022518969
0.0003633452 -0.0019709712 0.00022063748
0.0056703393 0.0019695347 0.00023155492
0.0043840483 -0.0019673272 0.00024833405
-0.0037603369 0.0033065435 0.00025149496
-6.2866187e-05 -0.0034647563 0.00026762276
0.0096079865 -0.0019255882 0.0002806595
0.0066036643 -0.0019606687 0.00029894224
0.0093095815 -0.0019611116 0.00029557495
-0.0018454271 0.00085913 0.00031737529
0.0014711228 0.0019579867 0.0003193267
0.002827331 0.0019589337 0.00031212822
0 0.0023995 0.00031345125
0.0098024467 0.0017249833 0.00032729059
0.00062916806 -0.0019559325 0.00033493873
-0.0014826019 0.0034554473 0.00033831064
-0.0019234983 -0.0034548487 0.00034285663
0.0010376595 -0.0019552389 0.00034021048
0.0048398557 0.0019545876 0.0003451627
0.0018022766 0.0019535194 0.00035328086
0.0031099494 0.0019533986 0.00035419792
-0.0040000002 -0.0015539936 0.00037478129
0.0009317419 0.0019513112 0.00037006417
-0.0030957211 0.0034510808 0.00037146796
0 -0.0023802917 0.00038424201
-0.0040000002 -0.0019837841 0.00038126676
-0.0018177517 0.00071933476 0.00038724058
-0.0012040723 0.003448854 0.00038837749
0.0083376961 -0.0019468404 0.00040404501
0.004577402 0.0019461244 0.00040948761
-0.0018177297 0.00070584746 0.00041511029
-0.0019011961 0.0010414005 0.00041657939
0.00042565449 0.0019436328 0.00042842497
0 0.0020731592 0.00042644149
0 -0.0025763998 0.0004362374
0.0086011179 -0.0019430612 0.00043276916
0.00065848499 0.0019428538 0.00043434551
0.0010516184 -0.0019415965 0.00044390163
0.0035770002 -0.0019389631 0.00046391811
0.0015286215 0.0019394008 0.00046059143
-0.0021263827 -0.0034350071 0.00049352291
0.0072255819 -0.0019352234 0.00049234118
-0.0040000002 0.0015728344 0.00049455854
0.0086391512 0.0019344072 0.00049854477
0.0064530629 -0.0019331544 0.00050806726
0.00069053104 -0.0019324213 0.0005136386
-0.0040000002 0.0026979202 0.00051534647
0 0.0027894317 0.00051362813
0.0004741624 -0.0019287849 0.00052512134
0.0091206655 -0.0019296926 0.00052293012
-0.0017564313 0.00027104034 0.00052187033
0.0052668308 -0.0019247945 0.00053475576
0.0095769828 -0.0019175214 0.0005355202
0.0041714641 0.0019252453 0.00053366751
0.0092916656 0.0019221244 0.00054120272
-0.0003953191 -0.0034251537 0.00056834443
0.0063936831 -0.0019129477 0.00056335912
0.003065658 0.0019123529 0.00056479505
0.00022426811 0.0019098793 0.0005707675
-0.0040000002 -0.0019929809 0.00058381731
-0.0013502832 -0.0034212116 0.00059827807
0.0079251248 -0.0019005316 0.00059333665
0.0080523305 -0.0018978692 0.00059976487
-0.0021344677 -0.0013813397 0.00060742395
0.010000001 0.0012551089 0.00060058775
-0.0040000002 -0.002000984 0.00061234634
0.0014059254 -0.0018860368 0.00062833267
0.0017374597 -0.0018884905 0.00062240881
-0.0026794525 0.0013722338 0.00062319596
0.010000001 0.00080904685 0.00063565013
-0.0038137543 0.0013600575 0.00064433308
0 -0.0024612034 0.00065133418
0.0096871573 -0.0017498987 0.00065476832
-0.0020982428 -0.001356435 0.00065054814
0.0061580669 0.0018751967 0.00065450551
-0.002027554 0.001339806 0.00067933649
0.004619976 -0.0018623122 0.00068561401
0.0068805539 -0.0018611263 0.00068847788
0.010000001 -0.0002059095 0.00068900437
0 -0.0027378374 0.00069268455
-0.0040000002 -0.0020682539 0.00069123501
-0.0040000002 -0.0017455523 0.00069775479
-0.0020318762 0.0013308515 0.00069484289
0.0049865432 0.0018564051 0.00069987623
-0.0040000002 0.0024719373 0.00069958065
-0.002264247 0.0013239067 0.00070687552
0.0031727373 -0.0018484193 0.00071915734
-0.0040000002 0.0014775379 0.00071086647
-0.0025960768 0.0034054695 0.0007178153
0.0068332884 -0.0018461896 0.00072454079
0.008713766 -0.001845096 0.00072718138
-0.0026101077 -0.0013119654 0.00072760071
-0.001918413 -0.00093727157 0.00072555739
0.010000001 -0.00039409014 0.00072879466
0.0018306415 0.0018413325 0.00073626783
0.010000001 5.3449843e-05 0.00074793858
-0.001970934 0.0011618668 0.00075206696
0.0088568432 0.0018292397 0.00076546479
-0.0038281805 -0.0012819782 0.00077956676
-0.003483545 -0.0033971067 0.00078131957
-0.0040000002 -0.0024700356 0.00079961348
0.0097658364 -0.0016047097 0.00080145197
-0.0040000002 -0.0021788499 0.00081683818
-0.003295623 0.0012618266 0.00081443705
0.0033402848 0.0018076437 0.00081760663
0 0.0029997164 0.00081529847
-0.001900731 0.0033923006 0.00081781344
0.0077228537 0.0017963445 0.0008448874
-0.0028410167 -0.0033876335 0.00085325562
0.00072731392 0.0017906054 0.00085874432
0.0064100847 -0.0017820013 0.00087951758
0.0042072348 0.0017798963 0.00088460004
-0.0040000002 0.0014883083 0.00089718809
0.0020380684 -0.0017722283 0.00090311404
0.0020684244 -0.0017700049 0.00090848212
0 0.0026567876 0.00091457611
-0.0040000002 -0.0018389204 0.00093782105
0.00037797602 -0.001758492 0.00093627954
-0.001940907 -0.00086788792 0.00093300577
0.0020890047 0.0017571108 0.00093961356
-0.00074830151 -0.0033623066 0.00095031125
0.002450702 -0.0017501353 0.00095645536
0.0086880978 0.0017505949 0.00095534587
0 -0.0022174495 0.00096199929
0.000200023 0.0017479592 0.00096170942
0.00033194269 0.0017454448 0.00096778036
0 0.0030063172 0.00096869195
-0.0038032189 -0.0031346544 0.00097346609
0.0046728412 0.0017379199 0.00098594883
0.0090264576 0.0017395401 0.00098203681
-0.001459687 0.0033418129 0.00099979294
0.0028283927 0.0017151249 0.0010221174
0.0086020026 0.0017127963 0.0010251513
-0.0032861484 -0.0033264081 0.0010369878
0.0045357272 0.0017054477 0.0010347262
0.0053009065 0.0017082222 0.0010311112
-0.0017945581 -0.0033221957 0.0010471578
0 -0.0023070343 0.0010432411
0.0051875473 -0.0016938502 0.0010498372
0.0097799553 0.0014322608 0.001049592
0.0037175128 0.001695118 0.0010481849
-0.0018906599 0.00016815207 0.0010697785
0.0034508933 0.0016786014 0.0010697048
0.0064979144 0.0016835908 0.0010632039
-0.0038864701 0.0030024615 0.0010769665
-0.0018921637 6.0915583e-05 0.0010895064
0.0025165807 0.0016702123 0.0010806352
0.0063360622 -0.0016611627 0.0010924262
-0.0019435844 0.00062372244 0.0011253561
0.0023877597 -0.0016269427 0.0011370123
0.0041795108 0.0016247262 0.0011399003
0.0079921819 0.0016291462 0.0011341412
0.006755474 0.0016175016 0.0011493135
-0.00089152099 0.003282978 0.0011418479
0 0.0018862055 0.0011518804
-0.0040000002 -0.0021333629 0.0011692201
-0.0027536431 0.0010590194 0.0011656708
0 0.0019020342 0.0011675858
0.0061331987 -0.001593348 0.0011807838
0.0064826948 0.0015890682 0.0011863599
0.0095416112 -0.0015827621 0.0011945766
-0.0020000001 0.00089220417 0.0011963928
0.0088891787 0.0015842319 0.0011926614
-0.0028652181 0.0010384239 0.0012013445
0.0030498477 0.0015748237 0.0012049198
0.0069342358 0.0015726391 0.0012077659
0.0022367428 -0.001553572 0.001232609
0.0046987305 -0.0015501413 0.0012370789
0.006117987 -0.001554545 0.0012313412
0.0083859274 -0.001548682 0.0012389802
-0.0040000002 0.0015808416 0.0012357347
0.0035497928 0.0015418635 0.0012478642
0.0043950649 0.0015475315 0.0012404795
0.0063276649 0.0015299426 0.0012633962
-0.00037458606 -0.0032219233 0.0012892628
0.0020880997 -0.0015066388 0.0012937594
0.0038345705 -0.0015032671 0.0012981524
0.0056361821 -0.0015063242 0.0012941693
-0.0037196821 -0.00098264543 0.0012979808
-0.0025733099 -0.00098553707 0.0012929499
0.0074038692 0.0015064377 0.0012940216
-0.0028304032 0.00097474566 0.0013116417
0.0016896842 0.0014852356 0.0013216463
0 0.0017190791 0.0013296552
-0.0040000002 0.0021650768 0.0013343722
-0.0040000002 0.0025780927 0.0013351477
0 0.0024688691 0.0013499703
0 -0.0015986043 0.0013523854
-0.0028618409 -0.00095155317 0.0013518132
0.00032529701 -0.0014524688 0.0013643389
-0.0024021326 -0.0031821851 0.0013852094
0.009582852 -0.0014239107 0.0013814364
0.0022034531 0.001427826 0.0013964466
-0.00031801176 0.0031779469 0.0013954424
-0.0036566274 -0.00092219713 0.001402661
-0.0028135406 0.00091889687 0.0014083773
0.00057057635 0.0014239826 0.0014014543
0.004933828 -0.0014156195 0.0014123507
0.0068093399 0.0014085229 0.0014185575
0.0087298164 0.001414748 0.0014134861
0.0088639427 0.0014129088 0.0014151913
0.009371032 -0.001382357 0.0014386398
-0.0033683088 0.00090193673 0.001437754
-0.0036164091 -0.0031386539 0.0014477997
0.0064066635 -0.0013791672 0.001441088
0.0041168355 0.001369366 0.0014486104
0.0015836597 0.0013772562 0.0014425546
-0.0038030876 0.0029375628 0.0014496737
0.0030384343 -0.0013657301 0.001451401
-0.0025350165 0.00089015783 0.0014581564
-8.6160937e-05 -0.0031482922 0.0014670424
-0.0040000002 -0.0021411323 0.0014731373
-0.0040000002 -0.0019053553 0.0014864178
-0.0024872883 0.0031403247 0.0014862802
0.003423865 -0.0013109796 0.0014934223
0.001692084 0.0013116279 0.0014929248
-0.0040000002 -0.0014446288 0.0015002541
-0.0031637466 -0.00083931116 0.0015
-0.0025145602 -0.00071302976 0.0015
-0.0037595993 -0.00064250769 0.0015
-0.003076758 -0.0005669978 0.0015
-0.0022966454 -0.00023013673 0.0015
-0.0023038059 -0.00021474711 0.0015
-0.0038381135 -0.00020819042 0.0015
-0.0035069047 0.00012796528 0.0015
-0.0033966948 0.00021992014 0.0015
-0.0036189477 -0.0031097683 0.0015109655
0 -0.002685861 0.0015173526
0.0026867848 -0.0012846618 0.0015136213
0.00059762975 -0.0012795661 0.0015175322
0.0035567407 -0.0012795177 0.0015175693
0.0040381011 0.0012820401 0.0015156333
0 0.0021082591 0.0015158448
0.0003075932 -0.0012731545 0.0015224532
0.0063293907 0.001264704 0.0015289389
-0.00310232 0.003125787 0.0015213814
-0.001540825 0.0031239053 0.0015259251
-0.0040000002 0.0025968277 0.001530671
0 -0.0029994843 0.0015434352
-0.0022733521 -0.003112077 0.0015544838
-6.2597915e-06 -0.0031105797 0.0015580992
0.0083269598 -0.0012311366 0.0015547021
0.0023500163 -0.0012254821 0.0015590418
0 -0.0016084593 0.0015654035
0.00302835 0.0012117935 0.0015695477
0.0062946337 0.0011853138 0.0015898712
-0.0024832322 -0.0030969309 0.0015910536
0.0055149654 -0.0011779949 0.0015954884
0.0044072773 0.0011831417 0.0015915383
0.0028217132 -0.0011700123 0.0016016152
0.0044698459 -0.0011687683 0.0016025699
0.006219001 0.0011642616 0.0016060289
-0.0026873203 0.0030908508 0.0016057334
0.00896182 -0.0011477261 0.0016187198
0.0098242098 -0.00060537877 0.0016232737
-0.00056100811 0.0030846265 0.0016207619
0.0021133523 -0.0011242632 0.0016367277
0.0025925199 -0.0011240639 0.0016368806
0.0062378389 0.0011242951 0.0016367034
-0.0035291277 -0.0030742884 0.0016457241
0 -0.0021564742 0.0016409397
-0.0040000002 -0.00055733311 0.0016462927
0.0012259103 0.0011096027 0.0016479798
-0.0040000002 -0.0024825095 0.0016569064
0.0062768389 -0.0010809171 0.001669996
-0.001461699 0.0030649153 0.0016683544
0.00086683879 -0.0010757288 0.0016739781
0.0007968542 0.0010749316 0.0016745899
0.0090039419 0.0010701147 0.0016782868
-0.002280555 -0.0030588445 0.0016830121
0 0.0021548418 0.0016867355
0.008723258 -0.0010244393 0.0017133427
-0.0028549384 -0.0030409207 0.0017262893
0.0059759486 -0.00099775195 0.0017330314
0.0058857929 -0.00098614092 0.0017378402
0.0041493662 -0.00097972981 0.0017404957
0.0052287281 -0.00096929306 0.0017448183
3.1022009e-05 0.00096998853 0.0017445302
-0.0010443878 0.0030334739 0.001744269
-0.0018876363 -0.0030291807 0.0017525016
0.0012358901 0.00095490535 0.0017507774
0.0050443881 -0.00092040998 0.0017650647
0.0059885252 -0.00092010369 0.0017651916
0.0028318409 -0.00091790035 0.001766104
0.0066585504 -0.00091681152 0.0017665551
-0.0040000002 0.00049881416 0.0017682775
0.0083451448 0.00091533537 0.0017671664
0.0050815684 0.00089711288 0.0017747139
0.0056789936 0.00090744748 0.0017704334
0 -0.0026482122 0.0017896341
0 -0.0025979269 0.0017958118
0.0054875538 -0.00084431772 0.0017965806
0.00075732108 0.00085067714 0.0017939466
0.0015613029 -0.00081405992 0.0018091126
0.006071175 0.00081654853 0.001808082
0.0027931281 0.00082194724 0.001805846
0.0012419991 0.000809655 0.001810937
0.0010091064 0.00078389433 0.0018216064
-0.0030107189 0.0029771919 0.0018202591
-0.0016465691 -0.0029555019 0.0018485282
0.0071804668 -0.00073907769 0.0018401688
0.0067312978 0.00073384598 0.0018423356
-0.0040000002 0.00094380067 0.0018401464
-0.0040000002 0.001238638 0.0018474122
-0.0024357599 0.0029589161 0.0018440782
0.0060013947 -0.00070771243 0.0018531595
0.0087512564 0.00068664533 0.001861885
-0.0040000002 0.0018935177 0.0018633587
0.00564407 -0.00065807358 0.0018737189
0.0081392471 -0.00065290165 0.001875861
0.0050537791 0.00066619995 0.0018703534
0 0.0026922747 0.0018777881
0.0011415817 -0.00063997897 0.0018812133
0.0012285874 -0.00061883288 0.0018899716
0.0067371856 0.00062321057 0.0018881584
0.0030989763 0.00063491071 0.0018833125
-0.0022344936 -0.0029194623 0.0018954981
0.0051233601 -0.0006048478 0.0018957639
0.0096310247 0.00030486129 0.001899366
0.00322787 0.00060782616 0.0018945303
0.0022676999 0.00061720784 0.0018906447
-0.0038571421 -0.0025882577 0.0019082995
0.0068840287 -0.00058763142 0.0019028946
0.002470966 -0.00055983692 0.0019144064
0.0046374956 -0.00055462401 0.0019165655
0.0068737785 -0.00055889966 0.0019147948
0 0.0021373138 0.0019128133
0 -0.0023723319 0.001925651
0.0027835253 -0.00053641573 0.0019241071
0.0032567568 0.00052782579 0.0019276649
0.0055425479 0.00053224532 0.0019258343
0.0064815236 -0.000485155 0.0019361689
0.0088216765 -0.0004791237 0.0019369624
0.0011686813 -0.00046634299 0.0019386439
0.0028546154 -0.00045880783 0.0019396354
0.0035531286 0.00052078994 0.0019305791
-0.0038492754 0.002575137 0.0019382661
0.0023485858 -0.00043324285 0.001942999
0.0041441238 -0.00042015495 0.0019447209
0.0082682036 -0.00039202414 0.0019484219
0.0052396404 0.00038116684 0.0019498505
0.0050116559 0.00040590152 0.0019465961
0.0038997072 -0.00035979439 0.0019526624
0.0061201267 -0.00034615849 0.0019544563
0.009056895 -0.00032462415 0.0019572896
0.000822348 -0.00031099893 0.0019590824
0.0021875463 0.00033366299 0.0019561003
0.0084803114 0.00033575739 0.0019558249
0.0018377316 0.00036300661 0.0019522399
0.0089074336 -0.00029777401 0.0019608224
0.008578063 -0.00027339242 0.0019640303
0.0022324091 -0.00023793301 0.0019686955
0.0024325496 0.00025760263 0.0019661076
0.0094813528 0.00025495459 0.001966456
0.0027124446 0.00027411125 0.0019639356
0.0030053586 -0.00022181757 0.0019708157
0.0095663005 -0.00022170461 0.0019708308
0.0041720187 -0.00016098631 0.0019788193
0.0041553811 0.00017777926 0.0019766099
0.0060469899 0.00018442854 0.0019757352
0.0093438849 0.00018128126 0.0019761492
0.00094139494 0.00019475665 0.0019743764
0.00092837459 0.0002105509 0.0019722981
0.0094254054 0.00022603731 0.0019702606
-0.00051952555 -0.0028539305 0.0019809071
0.0054290909 -0.00010171186 0.0019866179
0.0018483598 -9.7992386e-05 0.0019871073
0.0073140962 -9.501625e-05 0.001987499
0.0094932122 0.00012184028 0.0019839697
-0.00011890146 0.0028525866 0.0019826582
0.0075271851 -4.5123546e-05 0.0019940631
0.0076992 -4.2887405e-06 0.0019994359
0.009568668 1.7364533e-05 0.0019977156
0.001747383 2.7792321e-05 0.0019963435
0.0075771925 2.2940987e-05 0.0019969819
0.0056613632 4.5790141e-05 0.0019939756
0.0089537771 6.4408232e-05 0.001991526
-0.00026528197 0.0028334339 0.0020076199
0 -0.0005004211 0.0020177681
-0.00027274899 -0.0028041902 0.0020457341
-0.0039496813 -0.0023611679 0.0020535097
0 -0.0023420141 0.0020668365
-0.0037265657 -0.0026201832 0.0020793744
-0.00050188077 -0.0027714614 0.0020883896
-0.0026773729 0.0027523441 0.0021133053
-0.0011823997 -0.0027096979 0.0021688864
-0.0022766225 -0.0027036082 0.0021768233
-0.00090455334 0.002704106 0.0021761742
-0.0040000002 0.0014358959 0.0021818199
-0.0024418179 -0.0026790509 0.0022088285
0 0.00091412303 0.0022351849
0 0.001433349 0.0022333383
0 0.0012006363 0.002268221
-0.0029267927 -0.0026281602 0.0022751554
0 -0.0013395731 0.0022786781
0 -0.00057555531 0.0022794083
0 0.00095016876 0.0022825275
0 -0.0022654131 0.0023152924
-0.0016113867 -0.0025747793 0.0023447264
0 0.0012138704 0.0023481285
-0.0023273579 0.002572166 0.0023481324
-0.00036968882 0.0025626703 0.0023605088
-0.0040000002 -2.453229e-05 0.0023798868
0 -0.00068667938 0.0024036651
-0.0017094918 0.0025206532 0.0024152696
-0.0039845216 0.0019111878 0.0024268518
-0.0040000002 0.00025899275 0.0024418856
0 0.00069967314 0.0024468971
0 0.00044930514 0.0024749795
-0.0026908077 0.0024738309 0.0024757206
-0.00099366379 0.0024644828 0.0024828929
0 -0.00026589015 0.0025121265
-0.0017128251 0.0023277623 0.002587796
-0.0037235452 0.0021087744 0.0026014
-0.00060313474 -0.002291311 0.0026157638
0 0.0014769956 0.0026576126
-0.00019262287 0.0022456278 0.002650816
-0.0018320207 -0.002233078 0.0026604449
-0.0040000002 0.00017164722 0.0027001575
-0.003809385 -0.001775111 0.0027501774
-0.003921126 -0.0015804208 0.0027567395
-0.0022303502 -0.0020977308 0.0027642937
-0.0022284796 -0.0020864443 0.0027729541
-0.0011604147 -0.0020648828 0.0027894976
-0.002350807 0.0020607524 0.0027926671
-0.0010524022 0.0020289472 0.0028170701
-0.0019455431 -0.002022265 0.002822197
-0.0018141469 -0.0020071412 0.0028338011
-0.0040000002 0.001010451 0.0028334465
-0.0032977106 0.0020072192 0.0028337417
-0.0025581692 0.0019737247 0.0028594409
-0.0010344457 -0.0019541967 0.0028744244
-0.0037972878 0.0016004426 0.0028813358
-0.0031856045 0.0019218219 0.0028992649
-0.00064563024 0.0019096424 0.0029086105
-0.0029093935 -0.0019007161 0.0029154592
-0.00066695403 0.0018951378 0.0029197391
-0.0012082703 0.0018741287 0.0029358589
-0.00016900415 -0.0018472493 0.002956483
-0.0011524418 0.0017953649 0.0029962927
0 -0.0016037014 0.0030050098
-0.001892462 -0.0017670704 0.0030180023
0 5.0306302e-05 0.0030321628
0 0.00048889406 0.0030387102
-0.0039390968 -0.00076675008 0.003059973
0 -0.00092947361 0.0030641439
0 -0.00065883633 0.0030671915
-0.00026940944 0.0016480793 0.0030733126
-0.0039470876 -0.00051042764 0.0030857208
-2.7740491e-05 -0.0015672174 0.0031068032
-0.003665413 -0.0013379013 0.0031315892
-0.0027715135 -0.0013455539 0.0031986095
-0.00066432252 -0.0013262959 0.0032065851
-0.0022115172 -0.0012937374 0.0032200702
-0.0027763895 0.0012772625 0.0032268935
-0.00039968095 0.0011989382 0.0032593331
-0.00092313957 0.0011667782 0.0032726526
-0.0037701656 -0.00034233785 0.0032847514
-0.0019123286 0.0011377733 0.0032846658
-0.0032109446 -0.0011216577 0.0032913403
-0.0030467291 0.0010873309 0.0033055572
-0.0023970134 -0.0010570996 0.0033180779
-0.00028194033 0.0010394426 0.0033253913
-0.00046256141 0.001048804 0.0033215138
-0.0036835605 -0.00050996093 0.0033492818
-0.003078338 0.0009759994 0.0033516672
-0.002103714 -0.00093064597 0.0033704513
-0.0036334745 -0.00072277302 0.0033713421
0 0.00024684283 0.0033704473
-0.0017797723 0.00083765073 0.0033896882
-0.0014983445 0.0008469848 0.0033884589
-0.0031871842 0.00085308665 0.0033876551
-0.0024058712 0.00086832431 0.0033856488
-0.0023006708 0.000897708 0.003381779
-0.0019085413 -0.00080312468 0.0033942349
-0.0010878568 0.00080139376 0.0033944631
-2.5552163e-05 -0.0007363882 0.0034030238
-0.003146169 -0.00072731858 0.003404218
-0.00075827725 0.00073045184 0.0034038054
-0.002613968 0.00067465415 0.0034111536
-0.0028860518 -0.0005562249 0.00342675
-0.0029983746 -0.00054382568 0.0034283826
-0.00061449525 0.00053366751 0.0034297206
-0.0020780971 0.0005506805 0.0034274799
-0.0011235278 -0.00048900302 0.0034356024
-0.0029119959 0.00025223079 0.0034667836
-0.00073794072 -0.00022132235 0.0034708539
-0.0006919399 0.00018244318 0.0034759741
-0.0014610195 -0.00010602851 0.003486037
