# .PCD v0.7 - Point Cloud Data file format
VERSION 0.7
FIELDS x y z
SIZE 4 4 4
TYPE F F F
COUNT 1 1 1
WIDTH 1000
HEIGHT 1
VIEWPOINT 0 0 0 1 0 0 0
POINTS 1000
DATA ascii
-0.0022209506 -5.4740522e-05 -0.0027427941
-0.0010060713 -7.8163248e-05 -0.002739711
-0.0023270207 7.9852696e-05 -0.0027394881
-0.0019924534 0.00019849319 -0.0027238708
-0.0021577834 0.00020599111 -0.0027228841
-0.0016113411 0.00020398496 -0.0027231481
-0.00091685535 -0.00026698087 -0.0027148554
-0.001857014 0.00025590931 -0.0027163129
-0.00070190424 0.00036172965 -0.0027023826
-0.001229074 -0.00042043297 -0.002694655
-0.0020443809 0.00040722749 -0.0026963935
-0.0012619444 0.00040981339 -0.0026960531
-0.0026440111 0.00051354204 -0.0026823988
-0.00015690477 -0.00056173204 -0.0026760548
-0.0027394798 0.00030269331 -0.0026706744
-0.0010003221 -0.00064967549 -0.002664478
-0.0027261667 -0.00043562709 -0.0026664855
-0.00037130734 -0.00068877416 -0.0026593313
-0.0026592491 -0.00074875134 -0.002640995
-0.0005612261 -0.00074669329 -0.0026418474
-0.0024646113 -0.00081479398 -0.0026136395
-0.0007380438 0.00082672457 -0.0026086981
-0.0014961435 -0.00095487107 -0.002555619
-0.0010796211 -0.00095619791 -0.0025550695
-0.0025749449 0.00098707911 -0.0025422785
-0.0019807857 -0.0010134216 -0.0025313671
-0.00028093957 -0.0010130038 -0.0025315406
-0.0029113733 -1.1073068e-05 -0.0025371683
-0.00043993563 0.0010213498 -0.0025280835
-0.00075257249 0.0010325258 -0.0025234544
-0.0024863807 0.0010515123 -0.0025155898
-0.0018015994 -0.001088388 -0.0025003161
-0.0028845221 0.00055999815 -0.0024917482
-0.0019666534 -0.001121995 -0.0024863956
-0.0028022276 0.00085856946 -0.0024857889
-6.4620697e-05 -0.0011526832 -0.0024736845
-0.001533768 0.0011420258 -0.002478099
-0.0029259506 -0.00053045904 -0.0024541994
-0.0011492019 0.0011890791 -0.0024586092
-0.001862424 -0.0012501174 -0.0024333268
-0.0026468458 -0.0012930714 -0.002415535
0 0.00080902246 -0.0024048353
-0.0017900815 0.0013415698 -0.0023954469
-0.0021412037 -0.0013563706 -0.0023893162
-0.0026437673 0.0013568554 -0.0023891155
-0.0013747136 0.0014168129 -0.0023495085
-0.0024062544 0.0014233154 -0.0023445173
-0.0022154308 0.0014309254 -0.0023386767
-0.0011290069 0.0014549457 -0.0023202407
-0.0029999998 0.00055528485 -0.0022998175
-0.0008403401 -0.0015582179 -0.0022409775
-0.0028583379 -0.0012975817 -0.0022431354
0 -0.00013257051 -0.0022451531
-0.00059723353 -0.0015843509 -0.0022209201
0 0.00097851595 -0.0022155757
-0.00020456174 -0.0016073361 -0.0022032787
-0.0028224261 0.0014194087 -0.0021945124
-0.00037641058 -0.0016408472 -0.0021775584
0 -0.00083091576 -0.0021608423
-0.00072368857 -0.0016895875 -0.0021401492
0 -0.00096629455 -0.0021471349
0 0.00048688223 -0.0021479903
-0.0029999996 0.00076207833 -0.0021313631
-0.0014557129 0.0016933556 -0.0021372573
-0.0021518914 -0.0017102299 -0.0021243058
-0.001492472 0.0017113878 -0.0021234176
-0.0003892961 0.001734168 -0.0021059334
-0.0021950945 -0.0017875753 -0.0020649421
0 0.0014736408 -0.0020562185
-0.0020689769 -0.0018279222 -0.0020339754
-0.00099008589 0.001820308 -0.0020398193
0 0.00060819561 -0.0020218634
-0.0028098165 0.001658114 -0.0020270618
-0.0013548675 0.0018555131 -0.0020127988
-0.00010001777 0.0018612153 -0.0020084225
-0.0014463575 0.0018706844 -0.0020011545
-0.0026223587 -0.0019243172 -0.0019599909
-0.002478316 0.0019287643 -0.0019565774
-0.0029859629 0.0014976397 -0.0019301053
0 0.00021574349 -0.001904137
-0.003 -0.00015000129 -0.001895269
0 -0.00091964629 -0.001887314
-0.0029999998 0.001135585 -0.0018896618
0 -0.0015432355 -0.0018586033
-0.0029999998 0.001426869 -0.0018283731
-0.0015441619 0.0020330935 -0.001829071
0 -0.00042351527 -0.0017723518
0 0.0011453554 -0.0017654622
0 -0.0015718759 -0.0017429501
-0.00085448119 0.0020939384 -0.0017497957
-0.00037758684 -0.0021107984 -0.0017278292
-0.0029240216 -0.0018513557 -0.0017011083
-0.00044506474 -0.0021453786 -0.0016827743
-0.0027336131 -0.0021052591 -0.0016803136
-0.0013557655 -0.0021518236 -0.0016743771
-0.0016713595 -0.0021787311 -0.0016393192
-0.0029999996 -0.0013793081 -0.001632896
-0.003 0.0016624551 -0.0016217828
-0.0029999998 0.00095842895 -0.0016156669
0 0.0011222794 -0.0015940849
0 -0.00047679662 -0.0015838811
-0.0013606101 -0.002226549 -0.0015770169
0 -0.0020449972 -0.0015766367
-0.0029999998 -0.00046140896 -0.001575107
-0.003 -0.00058069458 -0.0015672025
-0.0029999998 0.0018199568 -0.0015661522
-0.000781574 0.002241153 -0.0015579889
-0.0025673963 -0.0022515319 -0.0015444666
-0.0007758342 -0.0022584735 -0.0015354224
-0.0029054617 0.0020055119 -0.0015304753
-0.0029999998 -0.0011747605 -0.0015058528
0 -0.00012711722 -0.0015003703
-0.0019078085 0.0022809536 -0.0015061327
-0.002182045 -0.0022907215 -0.0014934066
0.0074828211 -7.2688992e-05 -0.0014904317
0.0026582293 -6.4825486e-05 -0.0014914669
0.0066172904 -5.1843126e-05 -0.0014931759
0.0080584111 -2.6820533e-05 -0.0014964696
0.00097202638 -1.2937749e-05 -0.0014982971
0.0036098822 2.6503832e-05 -0.0014965113
0 0.0021222797 -0.0014974083
0.0080523677 -0.0001358639 -0.0014821158
0.0067248871 -0.00011361133 -0.0014850451
0.00039534777 -0.00010181464 -0.0014865978
0.0010053428 -0.00010482932 -0.0014862011
0.0040949746 -0.00010386536 -0.001486328
0.0066071199 -9.5744828e-05 -0.0014873968
0.0075065983 -8.8254761e-05 -0.0014883828
0.0034915088 0.00011477793 -0.0014848916
0.0060510002 0.00011739988 -0.0014845462
0.00057728746 0.000138237 -0.0014818035
-0.0029999998 -0.001569327 -0.0014774712
0.0094292266 -0.00022168114 -0.0014708195
0.0063270661 -0.00019722378 -0.0014740389
0.0044403914 -0.00018625049 -0.0014754833
0.0028840485 0.00018820593 -0.0014752259
0.0084448513 -0.00030303374 -0.0014601108
0.0092343288 -0.00028262538 -0.0014627973
0.00047304211 -0.00027414091 -0.0014639139
0.00063725398 -0.00025120401 -0.0014669333
0.0092958445 -0.00025299189 -0.001466698
0.0021236222 0.00025943987 -0.0014658492
0.0091963932 0.00025010257 -0.0014670782
0.0079805953 0.00027074316 -0.0014643612
0.0039440896 0.00029170088 -0.0014616025
0.0092553757 0.00029743108 -0.0014608483
0 0.0016364687 -0.0014609633
-0.0022362557 0.0023127375 -0.0014647213
-0.003 -0.00074118946 -0.0014533465
0.0064542769 -0.00032323576 -0.0014574515
0.0087116566 -0.00032457683 -0.001457275
0.0041076601 0.00031643384 -0.001458347
0.0022241324 0.00032258042 -0.0014575378
0.0055097351 0.00032558307 -0.0014571425
0.0025521291 0.00033612156 -0.0014557553
0.0050888998 0.0003626926 -0.0014522577
0.0055165342 0.00036036989 -0.0014525634
0.0078710914 0.00036106477 -0.0014524719
0.00095699093 0.00037766009 -0.0014502876
-0.0023030068 -0.0023297546 -0.0014425494
0.0053345193 -0.00040106676 -0.0014435691
0.0080424529 -0.00039243119 -0.001447147
0.0092378817 -0.00039219754 -0.0014472438
0.00069940567 -0.00038522889 -0.0014492911
0.0065359962 -0.00038105043 -0.0014498411
0.00049641484 0.00039399398 -0.0014464995
0.0055868709 0.00039599123 -0.001445672
0.0072792615 0.0004045582 -0.0014421226
-0.0029999998 0.0013702853 -0.0014466188
0.0064758533 -0.00042251928 -0.001434681
0.00060046266 0.00041362393 -0.0014383665
0.0087973988 0.00042267411 -0.001434617
0.0096722497 0.00042080422 -0.0014353916
0 0.00093290163 -0.0014325159
-0.0018467354 0.0023323747 -0.001439136
-0.0012713696 0.0023382222 -0.0014315174
0.0080269771 -0.00044500246 -0.0014253659
0.0055351658 -0.0004399289 -0.0014274679
0.006087509 0.00043748214 -0.0014284817
0.0084740883 -0.00048042485 -0.0014106897
-0.0027754758 -4.6902169e-05 -0.0014163207
-0.0029999998 0.0013455693 -0.0014106034
-0.0018462681 -6.1401741e-05 -0.0014079491
0.0069689811 -0.00051635841 -0.0013958019
-0.0019868535 -8.4042273e-05 -0.0013948774
0.0031585859 0.00052694563 -0.0013914154
0.0087851994 -0.00054093247 -0.0013856204
0.0088257538 -0.00054538599 -0.0013837751
0.0032135127 -0.00053936796 -0.0013862684
0.002240424 0.00055431569 -0.0013800755
0.0097385244 -0.00045960009 -0.0013709936
0 0.0015636301 -0.0013762166
0 0.0023697687 -0.0013720486
0.006231511 -0.00058833376 -0.0013659812
0 0.0012264661 -0.0013544798
0.0044866251 -0.00063475355 -0.0013467487
0.0071592107 -0.00063552143 -0.0013464305
0.0062236958 0.0006343092 -0.0013469328
0.00671966 0.00064921856 -0.0013407555
0.0064924653 -0.00065963814 -0.0013364386
-0.0029999998 0.0017973178 -0.001332954
0 0.0020157213 -0.0013301832
0.0020950076 -0.00068136153 -0.0013274382
0.0020642611 -0.00067733548 -0.0013291063
0.0079623107 -0.00067738141 -0.0013290872
0.0024821982 -0.00071734138 -0.0013125311
0.0057511497 -0.00070082431 -0.0013193744
0.0037958769 0.0007038234 -0.001318132
-0.0017180707 -0.002411287 -0.0013033275
-0.0021102442 0.00024445573 -0.0013022416
0.0007036872 0.00072931987 -0.0013075683
0.0098969843 -1.8101342e-05 -0.0012941326
0.0072667543 0.00075367012 -0.0012961853
0.0014625492 0.00076297019 -0.0012890524
0 -0.0018205781 -0.0012715366
0.005254217 -0.00078738382 -0.0012703276
-0.0020664711 0.00029066869 -0.0012755564
0.0068405783 0.00078223436 -0.0012742771
-0.0025147265 0.0024240955 -0.001272405
0.0088481307 -0.00079168216 -0.001267031
0.0044662007 0.00079941005 -0.0012611037
-0.001790205 0.00034656961 -0.001243277
0.0047833477 0.00081570545 -0.0012486055
0.0078100637 0.00082549668 -0.0012410958
0.0090696933 0.00082312134 -0.0012429178
-0.0029999996 0.00071292679 -0.0012371991
0.003790288 0.00083640759 -0.0012327275
0.0044122739 0.00083111203 -0.001236789
-0.00067232631 -0.0024448182 -0.0012223746
-0.0024599596 -0.00038131719 -0.0012232428
0.0060433284 0.00084999111 -0.0012223092
0.003569982 0.00085473881 -0.0012186678
-0.003 0.0012296733 -0.001217749
0 -0.0011423095 -0.0012081162
-0.0028021082 0.00040867875 -0.0012074453
0.0041006599 -0.0008908076 -0.0011910038
0.0062120212 -0.0008856096 -0.0011949906
0.0026118581 0.00088262395 -0.0011972805
0.0093598654 0.00088606111 -0.0011946443
0.0051398389 -0.00089501793 -0.0011877746
0.0081686052 0.00089992635 -0.0011840101
1.0306974e-05 0.00090060901 -0.0011834864
-0.0014872855 -0.00017331982 -0.0011797199
0.0047591175 -0.0009278378 -0.0011626024
0.0061966144 -0.00092353387 -0.0011659036
0.0099900374 -0.00027753517 -0.0011668964
0.0041450732 0.00092534116 -0.0011645174
-0.0013141222 -0.0024733946 -0.0011533833
0.0097699687 -0.00081455352 -0.0011539584
0.0034204866 0.00093926257 -0.00115384
0.0081666606 -0.00095705246 -0.0011401954
-0.0014867734 -0.00033864164 -0.0011481498
0.0067940238 0.00096928998 -0.0011308095
0.0038838522 -0.00097365025 -0.0011274654
0.0057086176 -0.00097066251 -0.0011297569
-0.0029999996 -0.00068261568 -0.0011244235
0.0098174391 0.00077965611 -0.0011213531
0.0097545926 0.00087617367 -0.0011258703
0.0097482111 0.00088433758 -0.0011275833
-0.003 0.0008960648 -0.0011226418
0.0014749714 0.00097579177 -0.0011258229
0.0094974833 0.00097293657 -0.0011280127
-0.00041807265 -0.0024875489 -0.0011192107
0.0083415499 0.00099465705 -0.0011113536
-0.00075246772 0.0024898669 -0.0011136146
0.0046193213 -0.001005065 -0.0011033709
-0.0014636891 -7.5793665e-05 -0.0011044907
0.0024167926 0.0010073612 -0.0011016099
-0.0029999998 0.0021054912 -0.001104393
-0.0014986312 -0.002495775 -0.001099351
-0.0010886287 0.0024978921 -0.0010942395
0.00032947765 -0.0010232982 -0.0010893865
0.0095117651 0.0010332381 -0.0010817628
-0.0029999998 0.0013954941 -0.0010839005
-0.0019299824 -0.00063161744 -0.0010787076
0.0049972371 -0.0010593128 -0.0010617642
0.0050839358 0.0010586182 -0.0010622968
0.0099346684 0.00067885988 -0.0010522424
-0.0029999996 0.0015387924 -0.0010508209
-0.00072464929 0.0025156767 -0.0010513035
0.0089482758 -0.0010740536 -0.0010432894
0.00049988623 0.0010696765 -0.0010489963
0.0069641192 0.0010756108 -0.0010412592
-0.0021329308 0.0025200078 -0.0010408461
0.0064890003 -0.0010808554 -0.0010344211
-0.0014834076 -0.00058933406 -0.0010308158
0.0030774837 -0.0010885862 -0.0010243418
0.007736566 0.001085302 -0.0010286237
0 0.0021053625 -0.0010231187
-0.0022595299 -0.0025322963 -0.0010111787
0 -0.0019276039 -0.0010065952
-0.0029999998 -0.0016520845 -0.00099522597
-0.0021463805 -0.00077083625 -0.00099833147
0.00078753626 0.0011122461 -0.00099349336
-0.0016065537 -0.0025438678 -0.00098324206
0.0034678678 -0.0011200856 -0.00098327221
-0.0029999998 -0.0014490971 -0.00095320301
0.00060531043 -0.0011381585 -0.00095970841
0.0036024512 -0.0011381863 -0.00095967215
0.004930696 0.0011397708 -0.00095760613
0.00099834648 0.0011453457 -0.00095033739
0.0086441329 0.0011435361 -0.00095269707
0 0.0012045681 -0.00095263781
-0.0029111318 0.002328841 -0.00095535681
-0.0010395184 -0.0025584309 -0.00094808318
0 -0.0014550353 -0.00094135839
0.0097033493 -0.0011348795 -0.00094793102
0.0012826836 0.0011575682 -0.00093440182
0.0051743509 0.0011592148 -0.00093225483
0.0084339762 -0.0011660213 -0.00092338043
0 0.002061096 -0.0009259712
0.0081082964 -0.0011722578 -0.00091524905
-0.0014392012 -0.00044602994 -0.00091311592
0 -0.002413258 -0.00090833369
0.0066545261 -0.0011793831 -0.00090595894
0.0055858428 -0.001196595 -0.00088351767
0.0028579773 -0.0012011878 -0.00087752973
0.0045272922 -0.0012019034 -0.0008765966
-0.00068494549 0.0025874807 -0.00087794842
0.0090769958 -0.0012140095 -0.00086081249
-0.001921104 -0.00099592481 -0.00086837268
-0.0014009787 0.00015152628 -0.00086045323
0.001436009 0.001217286 -0.0008565404
-0.00059466227 0.0025963727 -0.00085648126
0.0021405129 -0.0012275084 -0.00084321242
0.0026258384 -0.0012276231 -0.000843063
0.0044134492 0.001226227 -0.00084488303
0.0095285326 0.0012292146 -0.00084098766
-0.0022790979 0.0025998685 -0.00084804086
-0.0027424702 -0.0010615801 -0.0008304842
-0.0014269312 -0.00050743268 -0.00083190121
0.0014331305 0.0012332791 -0.00083568814
0.0037966652 0.0012317324 -0.00083770481
-0.0029835617 -0.0010748014 -0.00082285277
-0.0018683218 -0.0010632302 -0.00082951854
0 0.0018732377 -0.00082274323
0.0020283011 -0.001252011 -0.00081126543
0.0063575068 -0.0012524463 -0.00081069762
0.0021737395 -0.0012473982 -0.00081727956
0.0084459567 0.0012486546 -0.00081564154
0.002397107 0.0012508865 -0.00081273128
0.0056335744 0.0012554985 -0.00080671825
0.00057195354 -0.0012638436 -0.00079583772
-0.0029999998 0.0011560897 -0.00079971948
0.0055505508 0.0012739006 -0.00078272511
0.0020785069 0.0012795186 -0.00077540043
-0.0023533946 -0.0026339174 -0.00076583779
-0.0026261213 0.0011770836 -0.00076379912
-0.002496839 0.0011826379 -0.00076059229
-0.0029999998 -0.0013928724 -0.00075347628
-0.001635861 -0.0011923392 -0.00075498642
0.0019402582 0.0012950192 -0.00075519027
0 -0.0022333991 -0.00074337062
0.0042026928 -0.0013052989 -0.00073479745
-0.0029999998 -0.0015785671 -0.00072939403
-0.0023230067 0.0012500001 -0.00071826973
-0.0027991515 0.0025499326 -0.00071168586
0.0051092179 -0.0013237317 -0.00069030753
0.0060654888 -0.0013238268 -0.0006900779
0.00084872119 -0.0013245775 -0.00068826618
0.0056609027 0.0013269363 -0.00068257313
0.0088822842 -0.0013293022 -0.00067686249
-0.0019620636 0.0026610591 -0.0006756495
0.0038201788 -0.0013339231 -0.00066570973
-0.0013449445 -5.7266265e-05 -0.000663721
-0.002787539 0.0012500001 -0.00066285708
0.0067910287 0.0013358464 -0.00066106766
0.00037808841 -0.0013367508 -0.00065888435
0.0044504423 -0.0013426442 -0.00064466032
-0.0013677152 0.00039387922 -0.00064283155
-0.002806444 -0.0012500001 -0.00062219653
0.0099999998 0.00067344529 -0.0006286772
-0.0026427242 0.0012500001 -0.00062700774
0.00082273508 0.0013507977 -0.00062498072
0.00074397126 -0.0013601311 -0.00060245366
-0.0013383334 -0.00021828443 -0.00060344499
0.0028776051 0.0013572412 -0.00060942856
0 -0.00182808 -0.00059619453
0.0076685175 -0.0013645164 -0.00059186917
0.0099067427 -0.0011402013 -0.00058102183
-0.0015781086 0.0026726036 -0.00058794965
-0.0027021293 -0.0026717039 -0.00057860819
0 0.0017126582 -0.0005796199
0.0056542247 -0.0013784695 -0.00055819168
0 0.0015761583 -0.00055303494
0.0014072333 -0.0013850612 -0.00054228213
0.0089994054 0.0013843959 -0.00054388784
-8.1269609e-05 0.0026780856 -0.00054630445
0.0055697518 -0.0013922532 -0.00052492361
0.0098863114 -0.0011882014 -0.00051808316
0.010000001 0.00076006335 -0.00051142217
0.0071015237 0.0013969415 -0.00051360758
-0.0014600526 -0.00097016536 -0.00050992571
0.0057166065 -0.0014052496 -0.00049355527
0.007908484 0.0014035949 -0.00049754931
0.0082438514 -0.0014068567 -0.00048967631
-0.0021391755 -0.0012500001 -0.00048546228
0 -0.0019987014 -0.00047499241
0.0099999998 0.00079903431 -0.00047873936
0.00076036452 0.0014138597 -0.00047277389
0.0051892041 -0.0014217887 -0.0004536359
0.0056640715 -0.0014191722 -0.0004599519
0.0020960167 -0.0014260765 -0.00044328708
0.0054943035 -0.001423849 -0.00044866343
0.0031328979 -0.001430003 -0.00043381008
0.0049742921 -0.0014290711 -0.00043605958
-0.0029999998 -0.0012812513 -0.00043091888
0 0.0025069953 -0.0004336033
-0.0013674068 0.0026927982 -0.00043454018
0.0072969869 0.0014320877 -0.00042877838
0.008082414 0.001433045 -0.00042646789
0.0069621196 -0.0014360667 -0.00041917484
0.0099999998 -0.00045517742 -0.00041845764
0.0099999998 0.00063688506 -0.00041814498
-0.0014737694 0.0010704944 -0.00040036242
0.0084122531 0.0014424876 -0.00040367723
-0.0027936273 -0.0026057935 -0.0003842283
0.0018351799 -0.0014490947 -0.00038672096
0.0027791124 0.0014490723 -0.00038689119
0.0029926184 0.0014496868 -0.00038222296
0.0031517039 0.0014493795 -0.00038455715
0.0099999998 0.00049665198 -0.00037336253
0.0062842672 0.0014512588 -0.00037028105
0.0013676665 0.0014517783 -0.00036633399
0.0044163554 0.0014536064 -0.0003524468
0.001183701 -0.0014539604 -0.00034975729
0.0028913026 -0.0014547043 -0.00034410594
0.0073417416 -0.0014543441 -0.00034684216
0.0099999998 -0.00035783692 -0.00034201756
-0.0012782825 -0.00024095023 -0.00034303847
-0.0016663841 0.0012500001 -0.00034970292
-0.003 -0.0017223544 -0.00033394565
0.0030149161 -0.0014552824 -0.00033971379
-0.0013259485 -0.00050285103 -0.00032242265
0.0054070642 0.0014565834 -0.00032983089
0 -0.0020057475 -0.00031476957
0.0041973833 -0.0014585204 -0.00031511631
0.0017066296 0.0014579551 -0.00031941026
-0.0028843209 -0.0012500001 -0.00029438635
-0.0029999998 0.0021274851 -0.00029153342
-0.00097981794 0.0027106544 -0.00029889311
-0.0014009054 -0.0008288825 -0.00027909109
0.0039498257 -0.0014644795 -0.00026984586
0.0060794898 -0.0014652093 -0.00026430114
0 -0.0025648791 -0.00025385577
0.0061987811 -0.0014658256 -0.00025961894
0 -0.0026682937 -0.00024945696
0.0019048373 -0.0014678462 -0.00024426842
0.0051200329 -0.0014677106 -0.0002452998
0.00083291664 -0.0014692968 -0.00023324927
-0.0024303033 -0.0012500001 -0.00023191687
-0.0013079743 -0.00047479023 -0.00023531243
-0.0013311089 0.00056566548 -0.00023963033
0 0.0021659567 -0.0002349928
-0.0020508827 0.0027187627 -0.00023729743
0.0090219108 -0.0014706024 -0.00022333057
0.0073650735 -0.001469897 -0.00022868949
0.0096941534 0.0014699731 -0.00022314081
0.0091295838 0.0014705857 -0.00022345659
0.0027098202 0.001471477 -0.0002166859
-0.00087145268 -0.002725631 -0.0001851227
-0.0025981518 0.0012500001 -0.00018177093
-0.0027614951 -0.0026656133 -0.00017390147
0.0022610996 -0.0014765101 -0.00017844982
0.0099999998 -0.00032798617 -0.00017824264
0.0092085181 0.0014767221 -0.00017683928
0 0.0023653924 -0.00017482966
0.0041520349 -0.0014780898 -0.0001664489
-0.0013170312 -0.00053980103 -0.00016595153
0.0043797111 0.0014796077 -0.00015491835
0.0097897472 -0.0013851188 -0.00014146121
-0.0029999998 -0.0012500029 -0.00014831364
0 -0.0016866592 -0.00013371395
0.00084506383 -0.0014846352 -0.00011672398
0 0.0014915166 -0.00011870189
0.00047207662 0.0014866896 -0.00010111767
-0.002176011 0.0012500001 -9.6303527e-05
-0.0028217512 -0.0026172816 -8.3310748e-05
0 -0.0015045857 -8.5760417e-05
0.0074080955 -0.0014906196 -7.126225e-05
8.0318598e-05 -0.0014895853 -7.9120604e-05
0.0038153601 -0.0014897088 -7.8181365e-05
0.0099999998 0.00092740718 -7.9014542e-05
-0.0019992869 0.0012500001 -6.3850362e-05
-0.001417816 -0.00093630922 -5.272327e-05
-0.0015388191 0.0012500001 -5.2267511e-05
-0.0020595377 -0.0012500001 -3.4427525e-05
-0.00064106646 0.0027453725 -3.5154717e-05
-0.0002112558 -0.002749634 -2.7810497e-06
0.008060066 0.0014997802 -1.6702352e-06
-0.0013912907 0.00084391242 2.5453226e-06
0.0083053187 0.0014996117 2.9505768e-06
-1.5622159e-05 0.0027493588 4.8736197e-06
0.0093682995 -0.0014982955 1.2948982e-05
0.0016558083 0.0014979349 1.5688463e-05
0.00950047 0.0014976512 1.7844808e-05
0.0017698403 -0.0014972563 2.0844178e-05
0.0084872758 -0.0014969342 2.3290469e-05
0.0098748067 -0.0013141716 3.4342553e-05
0.0099999998 0.00105077 3.9726256e-05
0.0092484802 -0.00149383 4.6873127e-05
-0.0026418029 0.0012500001 4.1741372e-05
0.0066349073 0.0014938265 4.6900539e-05
-0.0028777949 0.0025668344 4.0800769e-05
-0.0029426662 -0.0025000426 5.5368793e-05
-0.001692683 0.0012500001 6.3918509e-05
-0.001354591 -0.00069779519 7.1928669e-05
0.0099999998 -7.0773065e-05 7.7522331e-05
-0.0022329798 -0.0027392555 8.162274e-05
0.0074117011 -0.0014883841 8.8245179e-05
0.0099999998 0.00063961413 8.2165825e-05
-0.0016502189 0.0027386034 8.6575572e-05
0.0013170012 0.0014877589 9.2993447e-05
0.0022445163 0.0014864148 0.00010320518
-0.0028731748 -0.0025613667 0.0001173917
0.0020918651 -0.0014842686 0.00011950956
0.0025550907 -0.0014854933 0.00011020608
0.0062985038 -0.001483313 0.00012676886
0.009887157 -0.0012881346 0.00013832135
0.0079568783 0.001481856 0.00013783859
0.0091869375 0.0014824372 0.00013342255
0.0057015647 0.0014806952 0.00014665691
0.0064636925 0.0014806613 0.00014691422
0.00094030582 -0.0014792136 0.00015791313
-0.0029999998 0.0013688247 0.00015438008
0.0021819728 0.0014796429 0.00015465135
0.006787824 0.0014797349 0.00015395215
0.0054603224 -0.0014784592 0.00016364254
-0.0014670577 -0.0011046642 0.00016995623
-0.0026427226 0.0027267714 0.00017645753
0.0049187662 -0.0014753056 0.00018759984
0.0054484676 0.0014759684 0.00018256581
0.0069518923 0.0014757969 0.0001838685
-0.0015518662 -0.0027248589 0.00019098775
0.0091451751 0.0014741113 0.0001966736
0.0034055088 -0.0014726733 0.00020759759
-0.0025458415 0.0012500001 0.00021686933
0 -0.0020033808 0.00022260107
0.0099999998 -0.0003829638 0.00022244394
0.0089712143 0.0014708367 0.00022155023
-0.0022864628 -0.0012500001 0.00023488035
-0.002042233 -0.0012500001 0.00023052373
-0.0014864084 0.0011682466 0.00023559121
0.0030944969 0.0014672569 0.0002487454
0.0090477718 0.0014679143 0.00024375139
0 0.0019396417 0.00024698692
-0.0016235979 0.0027175066 0.00024684012
-0.0017010868 -0.0027161816 0.00025690618
0.0044413963 -0.0014666399 0.00025343223
-0.0023504798 -0.0012500001 0.00025431978
-0.0014998198 0.0012160433 0.00025275795
-0.0028483141 -0.0025666957 0.00026571477
0.0054815616 -0.001464693 0.00026822256
0.0047942167 0.0014646052 0.00026889049
-0.001681812 0.0027152034 0.00026433679
0.0018613497 -0.0014641623 0.00027225493
0.0078120022 -0.0014629372 0.00028156189
-0.0012929369 0.00037579841 0.00028734139
0.0019380179 0.0014620721 0.00028813368
-0.00024809479 0.002712362 0.00028592124
-0.0029178306 -0.0024928546 0.0002985569
0.0027276587 0.0014609161 0.00029691544
0 -0.002105468 0.00030087866
0.002632475 0.0014599516 0.00030424254
0.002292742 -0.0014569844 0.00032678404
0.002886595 -0.001457551 0.00032247874
9.1998365e-05 0.0014572166 0.00032502081
-0.0017087739 0.0027063712 0.00033143102
-0.0015823555 0.0027061629 0.00033301444
0.0011425829 0.0014552141 0.00034023289
0.0090938611 -0.0014531437 0.00035596141
0.0049124793 -0.0014519823 0.00036478485
0.00983564 0.0013072942 0.00036177514
0.0063086287 0.0014517189 0.00036678673
0.0019575423 0.0014508875 0.00037310206
0.003301322 0.0014501708 0.00037854689
-0.00062201341 0.002699438 0.0003841006
0.0035987927 -0.0014479089 0.00039059241
0.0056137796 -0.0014443492 0.00039918395
-0.0028206923 0.0012500001 0.00039088348
-0.0019654429 -0.0026968871 0.00040347781
0.00090614706 -0.0014435553 0.00040110014
0.0092082759 0.0014403793 0.00040876563
-0.00094816368 -0.0026952988 0.00041554385
-0.0013108493 0.00034756106 0.00041314599
0.0047569936 0.0014365719 0.00041795531
0.009902061 0.0012111756 0.00042170868
-0.0028335764 0.0025606225 0.00042388611
0.0020232203 0.0014279957 0.00043865465
0.00054889848 0.0014311573 0.00043102409
-0.0029999998 -0.0014634584 0.00044664767
0.0053481846 -0.0014261737 0.00044305209
0 -0.0014858871 0.00045929494
-0.0022176274 0.0026897972 0.00045733593
0.0022968438 -0.001417948 0.00046290588
0.0099497652 -0.0011400433 0.00046988143
-0.0029614314 0.0012500001 0.00046992645
-0.0027124437 -0.0026753603 0.00047247123
-0.0013152707 0.00029132122 0.00047690771
0 -0.0024989266 0.00048625327
0.0062966477 -0.0014092029 0.00048401352
-0.0014127599 0.00077966013 0.00048937486
0.0001805653 0.0014099824 0.00048213228
-0.00050441566 -0.0026846149 0.00049670646
0.0099999998 0.00045373547 0.0004966312
0.00050315127 0.0014065548 0.0004904049
-0.0029999998 0.001461309 0.00049429591
0.0020674474 -0.0014012798 0.00050313654
0.0071970169 -0.0014009137 0.00050402037
0.0080999341 -0.0013985891 0.00050963112
0.0049791187 0.0014003597 0.00050535775
-0.0023195234 -0.0026816078 0.0005195479
0.0087403664 0.0013961494 0.00051551952
-0.0020137366 -0.0026795513 0.00053517258
0.0018597805 -0.0013887112 0.00053347234
-0.0026027914 -0.0012500001 0.00053438463
0.0019730423 0.0013876508 0.00053603202
0.0086284466 0.0013872569 0.00053698267
0.0017689492 0.0013840878 0.00054463145
0.008021744 0.0013821953 0.00054919929
0.0098672947 0.0011915755 0.00055911503
-4.5791501e-05 -0.0026760364 0.00056187168
-0.0024861884 -0.0012500001 0.00056950893
0.0010578107 0.0013757135 0.00056484406
-0.0019347734 -0.0026738222 0.00057869218
0.0068743839 0.0013698636 0.00057896331
2.8171278e-05 0.00136877 0.00058160268
-0.00056234596 -0.0026716627 0.00059509714
-0.0013757823 -0.00049715146 0.00060123566
0.0030204987 0.0013596211 0.00060368469
0.002829025 -0.0013543279 0.00061646034
0.0061492003 -0.0013560056 0.0006124113
0.0066995365 -0.0013566416 0.00061087584
0.0083567202 0.0013558555 0.00061277323
-0.0020828564 -0.002668181 0.00062154839
0.0075190603 -0.0013510152 0.00062445609
0.001177977 0.0013524328 0.00062103441
0.00076705404 -0.0013454003 0.00063800771
0.0021441227 0.0013478664 0.00063205574
0.0093573602 0.0013453116 0.00063822226
0.0057969615 -0.0013423807 0.00064529601
-0.0013527763 -0.00025341305 0.00064674293
0.0011257458 0.0013442477 0.00064078992
-0.0010579922 0.0026620675 0.00066798687
0.008452395 -0.0013253086 0.00068650144
-0.0013559656 0.00017181221 0.00068977295
0 0.0014150133 0.00068250217
0.0034134495 -0.0013162552 0.0007083533
-0.0014808434 0.0009338939 0.00070225587
0 0.0016078312 0.00070096413
0.0042535374 -0.0013115871 0.00071961991
-0.0029115423 -0.0012500001 0.00071702141
-0.0014999999 0.0010571547 0.00071963709
0.0015248458 0.0013153394 0.00071056338
0.0057117934 -0.0013048007 0.00073599949
-0.0026555236 -0.0012069978 0.00074652437
0.0098932693 -0.0010545081 0.00074338401
0.0010198159 0.0012995431 0.00074868946
0 -0.0016506383 0.00075654458
0.00086459616 -0.0012808227 0.00077370007
-0.0025952065 -0.0011501736 0.00077932776
0.0099999998 5.3843112e-05 0.00077166443
-0.0027505253 0.0011657889 0.00077031355
0.00309293 -0.0012744887 0.00078195846
0.0053566154 -0.0012739516 0.00078265875
0.0080526099 -0.0012727684 0.00078420143
-0.0016814601 -0.0011450991 0.00078225724
-0.0022413307 -0.0011323027 0.00078964431
0.0099999998 0.00046825924 0.00078746857
0.0097190188 -0.0012337925 0.00079345197
0.0024105643 0.0012633352 0.00079650048
-0.00015670278 -0.0026177398 0.00080489495
-0.0029999998 -0.0022425987 0.00080049655
-0.00016538461 -0.0026140828 0.00081372465
0.0058365609 0.0012453377 0.00081996631
-0.0009072611 0.0026145154 0.00081268029
-0.0019614126 -0.0010653617 0.00082828797
-0.0029999998 0.0017259896 0.00082749262
-0.0029999998 0.002239689 0.00082897407
0.0012416654 -0.0012359429 0.0008322153
0.0034986467 -0.0012274109 0.00084333948
-0.001440873 -0.00057250733 0.00084700563
0.0061025638 0.0012280092 0.00084255938
0.0061060898 0.0012198554 0.00085319049
-0.00057015941 -0.002593454 0.00086352724
0.0099905673 -0.00083583983 0.00086188101
-0.0029999998 -0.0012045051 0.00087681023
0.0062989267 -0.0012044962 0.00087321608
0.0064690094 0.001204102 0.00087373011
-0.0029999998 0.0018747591 0.00087665347
0.004463919 -0.001193634 0.00088737835
0.0060408725 -0.0011944502 0.00088631408
0.0059602754 0.0011937838 0.00088718307
0.0058878437 -0.0011858413 0.00089753873
-0.0019692676 -0.0009510736 0.00089426426
0.0075880904 0.0011860541 0.0008972612
0 -0.0015718654 0.00090766494
-0.00174172 -0.00093393412 0.00090415863
-0.0020785211 0.00092766684 0.00090777664
-0.00049562863 0.0025747505 0.00090868247
-0.0028810631 -0.00089575211 0.00092622451
0.0099999998 -0.0006781515 0.00092562707
-0.0029999998 0.0021684514 0.0009250695
-0.0013877365 0.0025668447 0.00092776975
0.0092129493 0.0011559875 0.0009364626
0.0051219258 -0.0011449419 0.00095086393
0.0089791901 -0.0011453888 0.00095028139
-0.0029887764 0.0022474523 0.00095066417
0.00013286284 -0.0011327177 0.00096680218
0.0018070519 0.0011252819 0.00097649719
0.0034952955 0.0011233736 0.0009789851
0.0040525962 0.0011272191 0.00097397139
0.0073196176 -0.0011217729 0.0009810722
0.0045490875 0.0011180299 0.00098595233
-0.0020053438 -0.0025371024 0.00099957583
0.003505552 0.0011073439 0.00099988491
-0.0029999998 -0.0014911348 0.0010042782
0 -0.0014160336 0.0010181703
0 0.00202278 0.0010113223
0 -0.0019418603 0.0010263505
0.0041697435 -0.0010864943 0.0010270692
0.00014338995 0.0010871844 0.0010261697
-0.0015071767 0.0025245296 0.0010299298
3.0223544e-05 -0.001079036 0.0010367932
0.0005147311 0.0010789094 0.0010369587
0.000271853 0.0010810865 0.0010341201
0.0099825766 -0.00059203646 0.0010542689
-0.0014531518 0.00014971197 0.0010554262
-0.0029881513 0.00067154929 0.0010556742
-0.0027090213 0.00067770976 0.001052108
0 0.0023817231 0.0010538421
0.0061642453 -0.0010528555 0.0010667167
-0.0021899433 -0.00065222423 0.001066805
0.0099999998 -0.00041788715 0.001062123
-0.0026852915 0.0025118559 0.0010605275
0.0068809702 -0.00104089 0.0010758941
0.0018871012 -0.0010394871 0.0010769699
0.0084789367 0.001036985 0.0010788892
0.0062603964 0.0010432471 0.0010740863
0.0078961374 0.0010401957 0.0010764265
0.0032740766 -0.0010299571 0.0010842794
-0.0016459719 -0.00061019679 0.0010910517
-0.0025125723 -0.00059770962 0.0010982902
0.0055793384 0.0010133267 0.0010970345
0.0016312966 -0.0010009561 0.0011065224
-0.001488052 0.00044624461 0.0011086946
0.0038622213 0.001003227 0.0011047807
-0.0011289424 -0.0024879938 0.001118137
-0.00018229234 -0.0024898201 0.0011137278
0.0043613683 -0.00099003606 0.0011148978
0.0048623323 -0.00099143409 0.0011138255
0.00051761302 -0.00098546897 0.0011184007
0.0099999998 -6.6491375e-05 0.0011165251
0.0070079737 0.00098495104 0.0011187978
0.0011276687 -0.00097615796 0.0011255421
0.0093844589 -0.00097385142 0.0011273111
0 0.0010305492 0.0011258291
0.00044888523 0.00096649531 0.0011329531
-0.0029999996 -0.0017368662 0.0011496282
0.0034943717 -0.00095339114 0.0011430036
0.00081269443 -0.00093949953 0.0011536583
0.0097552687 0.00083714229 0.0011549974
0.00072809274 -0.00091194687 0.0011747906
0.0045088422 -0.00091663806 0.0011711925
0.0058008675 0.00090598437 0.0011793636
0.0092739454 0.000907204 0.0011784282
0.0030890438 -0.00090371456 0.0011811046
0.0031392984 -0.00090186123 0.0011825259
0.0073490278 -0.00090295187 0.0011816896
0.0014791556 -0.00089716009 0.0011861317
-0.0017088038 0.00045586188 0.0011801671
0.0024867391 0.0009047201 0.0011803333
-0.0029541273 0.0021859915 0.0011888709
-0.0024379273 0.0024607009 0.0011840296
-0.0015138269 0.0024618299 0.0011813035
0.0049279691 -0.00088050717 0.0011989041
0.0046219523 0.00088184216 0.0011978803
-0.0028539663 -0.00041714526 0.0012025522
-0.0020833246 0.00041721249 0.0012024877
-0.0018460744 0.00041833642 0.0012018359
0.00094159314 0.0008765278 0.0012019561
0.0013017219 0.00087591627 0.0012024253
0.0016545169 0.0008713571 0.0012059219
0.0089883162 0.00087500823 0.0012031216
-0.0021582698 0.00039656917 0.0012144088
0 0.0018627846 0.0012108564
-0.003 0.002016292 0.0012141956
-0.0010396489 0.002447329 0.001216313
0.0030285132 -0.00084603333 0.0012253447
-0.003 -0.00057923293 0.0012236834
0.0079435157 0.0008410117 0.0012291961
-0.0020699333 0.0024440309 0.0012242756
0.0067221234 -0.00083247869 0.001235741
0.009619792 -0.00083818461 0.0012313646
0.0071125454 0.00082798436 0.0012391878
0 0.0024281335 0.0012350632
0 -0.00089492515 0.0012469913
0.008892715 -0.00080310239 0.0012582719
0.0090784626 0.0008016724 0.0012593685
0.00058861438 -0.00080030825 0.001260415
0.0026254167 -0.00079295266 0.0012660564
0.0029947404 -0.00079757062 0.0012625145
0.0082262717 0.00079922006 0.0012612494
-0.0015438681 0.002426368 0.0012669188
0.0048734332 -0.00078005262 0.0012759503
0.0066021634 0.0007772597 0.0012780926
-0.0029999998 -0.00098233006 0.0012899633
-0.0017661093 -0.00027860774 0.0012825208
0.0069690766 0.00077033055 0.001283407
-0.0022995288 -0.0024138563 0.0012971243
-0.0012463768 -0.0024135623 0.0012978347
0.0028779733 -0.00075210957 0.0012973822
-0.0017537754 -0.00024887972 0.001299687
0.0011156066 0.00075063569 0.0012985123
0 0.0013845196 0.0012906037
0.0007566993 -0.00073229807 0.0013063343
0.0057912888 -0.00073794945 0.0013039928
-0.0029999998 0.0013540552 0.0013039504
-0.0022898621 -0.0024079913 0.0013112844
0.0075367945 -0.00071460381 0.0013136654
0.00057432073 0.0006866022 0.001325267
0.0010591518 0.00069694925 0.00132098
0.0033074871 0.00069494179 0.0013218116
0.0097521264 -0.00052289694 0.001330186
0.006207312 -0.00064732094 0.0013415419
0.0096879508 0.00063853094 0.0013451837
0.0065438384 0.00064555765 0.0013422724
0.008305585 -0.00061329297 0.0013556402
-0.0020004807 -0.0001569654 0.0013527621
-0.0029999996 0.001602163 0.001351024
-0.0027660681 -0.0023084646 0.0013627108
0.00058507436 0.00059892767 0.0013615921
0.0057035033 -0.0005641015 0.0013760211
0.0095444871 0.00057767285 0.0013703982
-0.00054058735 -0.0023750642 0.0013835154
0.0013578408 -0.00053655764 0.001387433
0.0026910983 -0.00053322449 0.0013888141
0.0093172016 0.00054640812 0.0013833516
0.0078907916 0.00055262091 0.0013807777
0 0.0015933269 0.0013834479
0.00094256265 -0.00052379648 0.0013927202
0.0057013882 -0.00052331522 0.0013929196
-0.0022065993 -7.6352306e-05 0.0013993111
0.0029718694 0.00051431166 0.0013966497
0.0084480103 -0.00050453452 0.0014007007
0.0025202248 0.00049650524 0.0014040273
-0.0029999996 0.00057080132 0.0014079381
-0.0017184576 0.0023599181 0.0014032498
-0.0018492765 -5.1871753e-05 0.0014134472
0.0064045833 0.00046630195 0.0014165411
0.0076838792 0.00046131702 0.0014186064
0.00027920926 0.00048006876 0.0014108373
-0.0010389808 -0.0023411796 0.0014276637
0.0056612412 -0.00044614266 0.0014248935
-0.0025150501 -3.4869827e-05 0.001423265
0.0057371496 0.00043797234 0.0014282785
0.0055377013 -0.00042230176 0.0014347711
0.0096899476 -0.00042169075 0.0014350243
0.0020125832 -0.00041397676 0.0014382204
0.0097521534 2.6204269e-05 0.0014378953
0.0033456823 0.00041702006 0.0014369596
0 0.0011101014 0.0014325918
0 -0.0010962656 0.0014426264
0.00033178588 -0.00038124667 0.0014498153
0.0097071305 -0.00031779186 0.0014445346
-0.0021294262 0.0023277379 0.0014451772
0.0038916722 -0.00037213421 0.0014510148
0.0043365094 -0.00033186519 0.0014563156
0.0082555562 -0.00032101775 0.0014577435
0.0087701483 0.00035404382 0.001453396
0.0038778663 0.00037797203 0.0014502464
0.0045409049 0.00037264111 0.0014509481
0.0024491167 -0.00027902867 0.0014632707
0.0073263007 -0.00024453664 0.0014678109
0.0014900294 -0.00023949509 0.0014684746
0.001627113 0.00024072842 0.0014683122
0.0068646707 0.00026913409 0.0014645731
0.0055284239 0.0002866007 0.0014622739
0.00050450675 0.00029218307 0.0014615392
0.0052969423 0.00029618025 0.0014610129
0.0090416241 0.00029366885 0.0014613435
0.0019529114 -0.00021836303 0.0014712563
0.0039346442 -0.00019603096 0.0014741959
0.00094295497 0.00015721074 0.0014793059
0.0026176034 -0.00014867277 0.0014804297
0.0091095017 -0.00014830391 0.0014804783
0.0049449238 -0.00013655239 0.0014820253
0.0073675411 -7.9990015e-05 0.0014894708
0.0048621828 9.9232806e-05 0.0014869379
0.0066632438 9.9653444e-05 0.0014868825
0.0082454029 9.8049386e-05 0.0014870935
0.0047670729 0.00010058118 0.0014867602
0.0083632274 0.0001066382 0.0014859629
0 0.0020378227 0.0014899432
0.0054764329 -5.400295e-05 0.0014928915
0.0053615603 -4.971978e-05 0.0014934553
0.0064968639 -1.2033787e-05 0.0014984161
0.00035522619 3.9419174e-07 0.0014999482
0.00051990966 3.5135658e-06 0.0014995375
0.0034013635 3.7388461e-05 0.0014950786
0.0089880675 3.9311017e-05 0.0014948255
0 0.0011438758 0.0014930974
-0.0026960177 -0.0022718539 0.0015179891
-0.0021519628 -0.0022411868 0.0015579452
-0.0029999998 -0.0013958386 0.0015615167
-0.0029956889 -0.0018492106 0.0015872126
0 0.00056392222 0.0016210185
-0.0029999998 -0.0014834056 0.0016380246
-0.00025130154 0.0021677688 0.001653602
-0.0029999998 0.00028580168 0.0016690674
-0.0023001889 0.0021616567 0.0016615652
0 -0.00041126754 0.0016737198
0 -0.0015312443 0.0017180906
-0.0018460398 -0.0021061345 0.0017339059
-0.0029999996 0.0003673296 0.0017511375
0 0.00062414439 0.0017513651
-0.00046505619 -0.0020828096 0.0017642956
-0.0029999998 -0.0014451566 0.001797179
-0.00019126138 -0.0020217802 0.0018438112
-0.0029900915 -0.0015765544 0.0018643839
-0.0019932608 0.0020042807 0.0018666114
0 3.3122124e-05 0.0019000767
0 0.0010854503 0.0019391108
-0.00016616053 0.0019489479 0.0019387052
-0.0012133033 -0.0019318121 0.0019542382
-0.00048932247 -0.0019033129 0.0019761119
-0.00018027023 -0.001889303 0.0019868647
-0.0029999998 -0.00058030873 0.001982674
-0.00086519402 0.0018917678 0.001984973
-0.00052277255 -0.0018705901 0.0020012271
-0.0029999998 0.00092771975 0.0020216384
0 0.0015794429 0.002030419
-0.0014232687 0.0018221149 0.0020384328
0 -0.0010667254 0.002055381
-0.0027453529 0.0017237064 0.0020572881
-0.0020783686 -0.0017889722 0.0020638702
0 -0.00056021701 0.0020608248
-0.0029999998 0.00093353004 0.0020903777
-0.0029999998 0.00087832485 0.0021099129
-0.00071699591 0.0017328773 0.0021069236
-0.0029999998 0.00091668224 0.0021284134
-4.5636218e-05 -0.0016862196 0.0021427344
-0.0014189533 -0.0016667715 0.0021576611
0 -0.0014325095 0.0021688852
-0.0004758976 0.0016532352 0.0021680505
0 0.0015482026 0.0021730929
-0.003 0.0010189591 0.002182612
0 -0.0012424114 0.0021999096
-0.00043423485 -0.0016096869 0.0022014743
-0.0021886993 0.0015709783 0.0022311837
-0.0015502579 0.0015353296 0.0022585446
-0.0022195093 0.001545343 0.002250859
-0.0027533742 0.0014144758 0.002284602
-0.00014880147 -0.001464869 0.0023126244
-0.0029999998 0.00056019105 0.0023154228
-0.0018624666 0.0014639259 0.002313348
-0.0014600778 -0.0014441131 0.0023285546
-0.0025684545 0.0014516974 0.0023227332
0 0.0010588446 0.0023314543
-0.00023717106 -0.0014240441 0.002343958
-0.0028216406 -0.0011403169 0.0023482586
-0.00027520562 0.0014263786 0.0023421664
0 0.00074803783 0.002354878
-0.0026341954 0.0013919304 0.0023686055
-0.0026435701 -0.0013084976 0.0024091455
-0.0026063535 -0.0013077025 0.0024094749
-0.00092399475 -0.0012119577 0.0024491327
-0.0016546485 0.0011736726 0.0024649908
-0.0021106564 -0.0011472211 0.0024759469
-0.0006113014 0.0011528473 0.0024736165
-0.0024948125 -0.0011304028 0.0024829134
-0.00058566476 -0.0011199298 0.0024872513
-0.00130654 -0.0010742609 0.0025061676
-0.0013817125 -0.0010318721 0.0025237252
-0.0017867833 0.00098851766 0.0025416825
-0.00038239191 -0.00094068702 0.0025614945
-0.0020010278 0.00092607515 0.0025675464
-0.0017576491 -0.00089277764 0.0025813386
0 0.00058059645 0.0026025649
-0.0010406682 0.00081906893 0.002611869
-0.001709157 0.00079371367 0.0026223713
-0.00263673 -0.00076935341 0.0026324615
-0.002209896 0.00074668648 0.0026418502
-0.00025787976 0.00068474241 0.0026598619
-0.00048043777 0.00062332809 0.0026679465
-0.0015670407 -0.00057414785 0.0026744206
-0.0011531027 -0.00055103202 0.0026774635
-0.0026126108 0.00057151978 0.0026747664
-0.0018421875 0.00051001878 0.0026828623
-0.0013236433 0.00039264356 0.0026983134
-0.0024485677 -0.0003729001 0.0027009123
0 -0.00015165788 0.0027063217
-0.0014643871 0.00029638977 0.0027109839
-0.0017490906 -0.00019997866 0.0027236755
-0.00091726083 -0.00018108146 0.002726163
-0.0020744971 0.00010473767 0.0027362127
-0.00035673328 -6.748685e-05 0.0027411163
-3.7197769e-05 -6.7064582e-05 0.0027411717
-4.3032753e-05 -5.2347907e-05 0.0027431091
-0.0020677331 1.6435541e-05 0.0027478368
