# .PCD v0.7 - Point Cloud Data file format
VERSION 0.7
FIELDS x y z
SIZE 4 4 4
TYPE F F F
COUNT 1 1 1
WIDTH 1000
HEIGHT 1
VIEWPOINT 0 0 0 1 0 0 0
POINTS 1000
DATA ascii
-0.00064106652 -3.5154841e-05 -0.0027453725
-1.5622161e-05 4.8734996e-06 -0.0027493588
-0.0016502189 8.6575463e-05 -0.0027386034
-0.0026427228 0.00017645741 -0.0027267714
-0.00097981805 -0.00029889322 -0.0027106544
-0.0020508827 -0.00023729756 -0.0027187627
-0.0016235982 0.00024684001 -0.0027175066
-0.0016818121 0.00026433662 -0.0027152034
-0.00024809482 0.00028592115 -0.002712362
-0.001708774 0.0003314309 -0.0027063712
-0.0015823556 0.00033301435 -0.0027061629
-0.0013674069 -0.0004345403 -0.0026927982
-0.00062201341 0.00038410048 -0.002699438
-0.0022176276 0.00045733582 -0.0026897972
-0.0015781086 -0.00058794982 -0.0026726036
-8.1269616e-05 -0.00054630451 -0.0026780856
-0.0019620638 -0.00067564962 -0.0026610591
-0.0010579923 0.00066798681 -0.0026620675
-0.0009072611 0.00081268011 -0.0026145154
-0.00059466233 -0.00085648143 -0.0025963727
-0.0022790981 -0.00084804103 -0.0025998685
-0.00068494555 -0.00087794865 -0.0025874807
-0.00049562863 0.00090868241 -0.0025747505
-0.0028777951 4.080066e-05 -0.0025668344
-0.0028335769 0.00042388603 -0.0025606225
-0.0013877366 0.00092776958 -0.0025668447
-0.0027991515 -0.00071168598 -0.0025499326
-0.002132931 -0.0010408462 -0.0025200078
-0.0015071768 0.0010299297 -0.0025245296
-0.00072464935 -0.0010513035 -0.0025156767
-0.0026852917 0.0010605273 -0.0025118559
0 -0.00043360345 -0.0025069953
-0.0010886287 -0.0010942398 -0.0024978921
-0.00075246772 -0.0011136148 -0.0024898669
-0.0024379275 0.0011840295 -0.0024607009
-0.001513827 0.0011813033 -0.0024618299
-0.0010396489 0.0012163129 -0.002447329
-0.0020699336 0.0012242754 -0.0024440309
-0.0025147267 -0.001272405 -0.0024240955
0 0.0012350632 -0.0024281335
-0.0015438681 0.0012669186 -0.002426368
0 0.001053842 -0.0023817231
0 -0.0013720487 -0.0023697687
0 -0.00017482977 -0.0023653924
-0.0017184578 0.0014032497 -0.0023599181
-0.0018467355 -0.0014391361 -0.0023323747
-0.0012713698 -0.0014315174 -0.0023382222
-0.0029111321 -0.00095535687 -0.002328841
-0.0021294267 0.0014451771 -0.0023277379
-0.0022362559 -0.0014647214 -0.0023127375
-0.0019078087 -0.0015061327 -0.0022809536
-0.00078157405 -0.0015579892 -0.002241153
-0.0029887767 0.00095066411 -0.0022474523
-0.003 0.00082897395 -0.002239689
-0.0029541275 0.0011888708 -0.0021859915
0 -0.0002349929 -0.0021659567
-0.003 0.00092506938 -0.0021684514
-0.00025130156 0.0016536019 -0.0021677688
-0.0023001891 0.0016615652 -0.002161657
0 -0.0014974084 -0.0021222797
-0.003 -0.00029153351 -0.0021274851
-0.003 -0.0011043932 -0.0021054912
0 -0.0010231187 -0.0021053625
-0.00085448124 -0.0017497959 -0.0020939384
0 -0.0009259712 -0.002061096
-0.0015441619 -0.0018290711 -0.0020330935
0 0.0014899431 -0.0020378227
0 0.0010113221 -0.00202278
0 -0.0013301834 -0.0020157213
-0.0030000005 0.0012141955 -0.002016292
-0.0029054617 -0.0015304756 -0.0020055119
-0.0019932608 0.0018666113 -0.0020042807
-0.00016616055 0.0019387051 -0.001948948
0 0.00024698683 -0.0019396417
-0.0024783162 -0.0019565774 -0.0019287642
-0.00086519413 0.001984973 -0.001891768
-0.0014463577 -0.0020011545 -0.0018706844
0 -0.00082274323 -0.0018732377
-0.003 0.00087665336 -0.0018747591
-0.00010001778 -0.0020084225 -0.0018612153
0 0.0012108563 -0.0018627846
-0.0013548676 -0.0020127988 -0.001855513
-0.000990086 -0.0020398193 -0.0018203078
-0.0014232689 0.0020384328 -0.001822115
-0.003 -0.0015661523 -0.0018199568
-0.003 -0.0013329542 -0.0017973178
-0.00038929612 -0.0021059334 -0.0017341678
-0.00071699597 0.0021069236 -0.0017328773
-0.003 0.00082749256 -0.0017259896
-0.0027453529 0.0020572881 -0.0017237066
-0.0014924721 -0.0021234176 -0.0017113874
0 -0.00057962001 -0.0017126582
-0.0014557131 -0.0021372573 -0.0016933554
-0.003 -0.0016217829 -0.0016624551
-0.0028098167 -0.0020270618 -0.0016581139
-0.00047589763 0.0021680505 -0.0016532353
0 -0.0014609634 -0.0016364686
0 0.00070096407 -0.0016078312
-0.003 0.0013510238 -0.001602163
0 0.0013834479 -0.001593327
0 -0.00055303506 -0.0015761583
0 0.002030419 -0.0015794432
-0.0021886993 0.0022311837 -0.0015709783
0 -0.0013762168 -0.0015636301
0 0.0021730929 -0.0015482028
-0.0022195093 0.002250859 -0.0015453433
-0.003 -0.0010508209 -0.0015387924
-0.001550258 0.0022585446 -0.0015353299
-0.0029859631 -0.0019301053 -0.0014976396
0 -0.00011870197 -0.0014915166
0.008060067 -1.6703007e-06 -0.0014997802
0.0083053196 2.9505113e-06 -0.0014996117
0.0016558084 1.5688398e-05 -0.0014979349
0.0095004709 1.7844741e-05 -0.0014976512
0.0066349083 4.6900477e-05 -0.0014938265
0.00047207667 -0.00010111774 -0.0014866896
0.0013170013 9.2993389e-05 -0.0014877589
0.0022445165 0.00010320512 -0.0014864148
0.0079568792 0.00013783854 -0.001481856
0.0091869375 0.00013342249 -0.0014824372
0.0057015652 0.00014665685 -0.0014806952
0.006463693 0.00014691416 -0.0014806613
0 -0.0020562185 -0.0014736408
0.0091295838 -0.00022345665 -0.0014705857
0.0027098204 -0.00021668596 -0.001471477
0.009208519 -0.00017683934 -0.0014767221
0.0043797116 -0.00015491842 -0.0014796077
0.0021819731 0.00015465129 -0.0014796429
0.0067878249 0.00015395206 -0.0014797349
0.005448468 0.00018256574 -0.0014759684
0.0069518927 0.00018386843 -0.0014757969
0.009145176 0.00019667354 -0.0014741113
0.0089712152 0.00022155017 -0.0014708367
0.0096941544 -0.00022314089 -0.0014699731
0.0030944971 0.00024874535 -0.0014672569
0.0090477737 0.00024375133 -0.0014679143
0.0047942172 0.00026889041 -0.0014646052
0.001938018 0.00028813365 -0.0014620721
0.002727659 0.00029691539 -0.0014609161
-0.003 0.00049429591 -0.001461309
-0.0018624668 0.002313348 -0.001463926
-0.001129007 -0.0023202407 -0.0014549457
0.0062842676 -0.00037028108 -0.0014512588
0.0013676666 -0.00036633405 -0.0014517783
0.0044163559 -0.00035244686 -0.0014536064
0.0054070647 -0.00032983095 -0.0014565834
0.0017066298 -0.00031941032 -0.0014579551
0.0026324752 0.00030424251 -0.0014599516
9.1998372e-05 0.00032502075 -0.0014572166
0.001142583 0.00034023283 -0.0014552141
0.0063086292 0.00036678667 -0.0014517189
0.0019575423 0.00037310203 -0.0014508875
0.0033013225 0.00037854686 -0.0014501708
-0.0025684545 0.0023227332 -0.0014516977
0.008412254 -0.00040367732 -0.0014424876
0.0027791127 -0.00038689125 -0.0014490723
0.0029926188 -0.00038222302 -0.0014496868
0.0031517043 -0.00038455721 -0.0014493795
0.0092082759 0.00040876554 -0.0014403793
-0.0022154311 -0.0023386767 -0.0014309253
0.0072969878 -0.00042877844 -0.0014320877
0.008082415 -0.00042646792 -0.001433045
0.0047569941 0.00041795519 -0.0014365719
0.00054889853 0.00043102406 -0.0014311573
-0.0024062549 -0.0023445175 -0.0014233153
-0.003 -0.0018283731 -0.001426869
0.0020232205 0.00043865462 -0.0014279957
-0.00027520562 0.0023421664 -0.0014263787
-0.0013747137 -0.0023495085 -0.0014168128
-0.0028224264 -0.0021945124 -0.0014194086
0.00076036464 -0.00047277391 -0.0014138597
0 0.00068250205 -0.0014150133
-0.0027533744 0.002284602 -0.0014144758
0.0079084849 -0.00049754936 -0.0014035949
0.00018056533 0.00048213219 -0.0014099824
0.00050315127 0.00049040484 -0.0014065548
0.0049791192 0.00050535769 -0.0014003597
-0.003 -0.0010839006 -0.0013954941
0.0071015242 -0.00051360764 -0.0013969415
0.0087403683 0.00051551952 -0.0013961494
-0.0026341956 0.0023686055 -0.0013919305
0.0089994054 -0.0005438879 -0.0013843959
0.0019730425 0.00053603196 -0.0013876508
0.0086284466 0.00053698261 -0.0013872569
0.0017689493 0.00054463133 -0.0013840878
0.0080217458 0.00054919923 -0.0013821953
0 0.0012906037 -0.0013845196
-0.003 -0.0014466188 -0.0013702853
0.0010578108 0.00056484406 -0.0013757135
-0.003 0.00015438003 -0.0013688247
0.0068743844 0.0005789632 -0.0013698636
2.8171282e-05 0.00058160262 -0.00136877
-0.0026437675 -0.0023891155 -0.0013568553
0.00082273514 -0.00062498072 -0.0013507977
0.0028776054 -0.00060942868 -0.0013572412
0.0030204989 0.00060368457 -0.0013596211
0.0083567211 0.00061277312 -0.0013558555
0.0011779771 0.00062103441 -0.0013524328
-0.003 0.0013039503 -0.0013540552
-0.0017900816 -0.0023954469 -0.0013415697
-0.003 -0.0014106034 -0.0013455693
0.002144123 0.00063205569 -0.0013478664
0.0093573611 0.00063822226 -0.0013453116
0.0011257459 0.00064078992 -0.0013442477
0.0067910291 -0.00066106778 -0.0013358464
0.0056609032 -0.00068257324 -0.0013269363
0.0015248461 0.00071056333 -0.0013153394
0.0098356418 0.00036177508 -0.0013072942
0.0019402584 -0.00075519027 -0.0012950192
0.0010198163 0.0007486894 -0.0012995431
0.0055505512 -0.00078272517 -0.0012739006
0.0020785071 -0.00077540043 -0.0012795186
0.0024105646 0.00079650042 -0.0012633352
0.0023971072 -0.00081273128 -0.0012508865
0.0056335749 -0.00080671825 -0.0012554985
0.0084459577 -0.00081564154 -0.0012486546
-0.002323007 -0.00071826979 -0.0012500001
-0.0027875395 -0.00066285714 -0.0012500001
-0.0026427247 -0.0006270078 -0.0012500001
-0.0016663842 -0.00034970298 -0.0012500001
-0.0025981518 -0.00018177099 -0.0012500001
-0.0021760112 -9.6303585e-05 -0.0012500001
-0.0019992869 -6.3850406e-05 -0.0012500001
-0.0015388192 -5.2267573e-05 -0.0012500001
-0.0026418029 4.1741314e-05 -0.0012500001
-0.001692683 6.3918458e-05 -0.0012500001
-0.0025458417 0.00021686927 -0.0012500001
-0.0028206927 0.00039088342 -0.0012500001
-0.0029614314 0.00046992634 -0.0012500001
0.0058365613 0.00081996626 -0.0012453375
0.0014331306 -0.00083568814 -0.0012332791
0.0037966655 -0.00083770481 -0.0012317324
0 -0.0013544798 -0.001226466
-0.003 -0.001217749 -0.0012296733
0.0044134497 -0.00084488303 -0.001226227
0.0095285336 -0.0008409876 -0.0012292146
0.0061025643 0.00084255927 -0.0012280091
0.0014360091 -0.0008565404 -0.0012172858
-0.0014998199 0.00025275789 -0.0012160433
0.0099020619 0.00042170862 -0.0012111756
0.0061060903 0.00085319031 -0.0012198553
0 -0.00095263781 -0.0012045681
0.0064690099 0.00087373005 -0.0012041018
0.0098672956 0.00055911497 -0.0011915755
0.0059602759 0.00088718295 -0.0011937838
-0.001149202 -0.0024586092 -0.0011890789
-0.0024968395 -0.00076059235 -0.0011826379
0.0075880913 0.00089726108 -0.0011860541
-0.0026261215 -0.00076379918 -0.0011770836
-0.0016546486 0.0024649908 -0.0011736727
-0.0014864084 0.00023559116 -0.0011682466
-0.0027505253 0.00077031355 -0.0011657889
0.0012826837 -0.00093440176 -0.0011575682
0.0051743514 -0.00093225477 -0.0011592145
-0.003 -0.00079971954 -0.0011560897
0.0092129502 0.00093646254 -0.0011559874
-0.0006113014 0.0024736165 -0.0011528474
-0.0015337683 -0.002478099 -0.0011420257
0 -0.0017654622 -0.0011453554
0.0009983466 -0.00095033733 -0.0011453457
0.0086441329 -0.00095269707 -0.0011435359
0 0.0014930974 -0.0011438759
-0.003 -0.0018896618 -0.0011355849
0.0049306965 -0.00095760607 -0.0011397708
0 -0.0015940849 -0.0011222794
0.0018070521 0.00097649707 -0.0011252818
0.003495296 0.00097898499 -0.0011233735
0.0040525962 0.00097397127 -0.0011272191
0.00078753632 -0.00099349336 -0.001112246
0.004549088 0.00098595233 -0.0011180299
0 0.0014325918 -0.0011101014
0.0035055524 0.0009998848 -0.0011073439
0.0077365665 -0.0010286235 -0.0010853019
0.00014338996 0.0010261696 -0.0010871843
0.00027185303 0.00103412 -0.0010810862
0 0.0019391108 -0.0010854504
0.0069641201 -0.0010412592 -0.0010756106
-0.0014737695 -0.00040036245 -0.0010704944
0.00051473116 0.0010369585 -0.0010789093
0.00049988629 -0.0010489962 -0.0010696764
-0.0024863812 -0.0025155898 -0.0010515122
0.0050839363 -0.0010622967 -0.0010586181
0.010000001 3.9726212e-05 -0.00105077
-0.0015 0.00071963703 -0.0010571547
0 0.0023314543 -0.0010588447
0.0062603969 0.0010740861 -0.0010432471
0.0078961374 0.0010764264 -0.0010401956
-0.00075257255 -0.0025234544 -0.0010325256
0.009511766 -0.0010817627 -0.001033238
0.0084789377 0.0010788889 -0.0010369848
0 0.0011258289 -0.0010305492
-0.00043993565 -0.0025280835 -0.0010213497
0.0055793393 0.0010970344 -0.0010133266
-0.003 0.002182612 -0.0010189593
0.0024167926 -0.0011016098 -0.0010073611
0.0038622217 0.0011047806 -0.001003227
0.0083415508 -0.0011113535 -0.00099465693
-0.0025749451 -0.0025422785 -0.00098707888
0.0070079742 0.0011187978 -0.00098495092
-0.0017867835 0.0025416825 -0.00098851777
0 -0.0022155759 -0.00097851595
0.0014749715 -0.0011258229 -0.00097579166
0.0094974851 -0.0011280127 -0.00097293645
0.0067940247 -0.0011308095 -0.00096928992
0.00044888526 0.001132953 -0.00096649525
-0.003 -0.0016156669 -0.00095842878
0 -0.0014325159 -0.00093290163
0.0034204868 -0.0011538399 -0.00093926251
-0.0014808436 0.00070225587 -0.00093389396
-0.003 0.0020903777 -0.00093353022
0.0041450737 -0.0011645172 -0.0009253411
0.010000001 -7.9014579e-05 -0.00092740718
-0.0020785213 0.00090777664 -0.0009276669
-0.003 0.0020216384 -0.00092771975
-0.0020010278 0.0025675464 -0.00092607527
-0.003 0.0021284134 -0.00091668236
1.0306975e-05 -0.0011834864 -0.00090060895
0.0058008679 0.0011793635 -0.00090598431
0.0092739472 0.0011784282 -0.00090720394
0.0024867393 0.0011803332 -0.00090472016
0.0081686061 -0.0011840099 -0.00089992624
-0.003 -0.001122642 -0.00089606474
0.0026118583 -0.0011972805 -0.00088262389
0.0093598664 -0.0011946443 -0.00088606105
0.0097482121 -0.0011275833 -0.00088433758
0.0046219528 0.0011978801 -0.00088184205
0.0097545935 -0.0011258702 -0.00087617355
0.0009415932 0.001201956 -0.0008765278
0.001301722 0.0012024252 -0.00087591627
0.0016545171 0.0012059219 -0.0008713571
0.0089883162 0.0012031215 -0.00087500823
-0.003 0.0021099129 -0.00087832497
-0.0028022276 -0.0024857889 -0.00085856934
0.0035699822 -0.0012186678 -0.0008547387
0.0060433289 -0.0012223092 -0.00084999099
-0.0013912909 2.5452857e-06 -0.00084391242
0.0079435157 0.0012291961 -0.0008410117
0.0037902882 -0.0012327273 -0.00083640747
0.0044122743 -0.001236789 -0.00083111197
0.0097552696 0.0011549974 -0.00083714229
-0.00073804392 -0.0026086981 -0.00082672446
0.0078100651 -0.0012410958 -0.00082549657
0.0090696942 -0.0012429177 -0.00082312129
0.0071125464 0.0012391878 -0.00082798436
0.0047833482 -0.0012486055 -0.0008157054
-0.0010406683 0.002611869 -0.0008190691
0 -0.0024048353 -0.00080902234
0.0090784635 0.0012593685 -0.00080167246
0.0044662012 -0.0012611037 -0.00079941005
0.010000001 -0.00047873938 -0.00079903426
0.0082262727 0.0012612494 -0.00079922011
-0.0017091571 0.0026223713 -0.00079371384
0.0068405792 -0.0012742771 -0.00078223424
0.0098174401 -0.0011213531 -0.00077965599
-0.0014127601 0.0004893748 -0.00077966013
0.0066021639 0.0012780926 -0.00077725976
0.006969077 0.001283407 -0.0007703306
-0.003 -0.0021313631 -0.00076207821
0.0014625493 -0.0012890524 -0.00076297013
0.010000001 -0.00051142217 -0.0007600633
0.0072667557 -0.0012961853 -0.00075367006
0.0011156067 0.0012985123 -0.00075063569
0 0.002354878 -0.00074803794
-0.0022098962 0.0026418502 -0.00074668659
0.00070368726 -0.0013075683 -0.00072931981
-0.003 -0.0012371991 -0.00071292667
0.0037958773 -0.001318132 -0.00070382335
0.001059152 0.00132098 -0.00069694931
0.0033074873 0.0013218116 -0.00069494179
0.00057432079 0.001325267 -0.00068660226
-0.00025787979 0.0026598619 -0.00068474252
0.0099346694 -0.0010522424 -0.00067885977
0.010000001 -0.0006286772 -0.00067344523
-0.0029881515 0.001055674 -0.00067154929
-0.0027090216 0.001052108 -0.00067770976
0.0067196605 -0.0013407555 -0.00064921856
0.0065438389 0.0013422724 -0.00064555771
0.0062236972 -0.0013469328 -0.00063430908
0.010000001 -0.00041814503 -0.000636885
0.010000001 8.2165803e-05 -0.00063961413
0.0096879508 0.0013451837 -0.000638531
0 0.001751365 -0.00062414451
-0.00048043777 0.0026679465 -0.00062332815
0 -0.0020218634 -0.00060819555
0.00058507442 0.0013615921 -0.00059892773
0 0.0026025649 -0.00058059668
0.009544489 0.0013703982 -0.00057767291
-0.003 0.0014079381 -0.00057080138
-0.0026126113 0.0026747664 -0.00057151989
-0.0013311091 -0.00023963036 -0.00056566548
0 0.0016210185 -0.00056392228
-0.003 0.0023154228 -0.00056019117
-0.0028845221 -0.0024917482 -0.00055999804
-0.003 -0.0022998175 -0.00055528473
0.0022404243 -0.0013800755 -0.00055431563
0.0078907926 0.0013807777 -0.00055262097
0.0093172025 0.0013833516 -0.00054640818
0.0031585859 -0.0013914154 -0.00052694563
-0.0026440113 -0.0026823988 -0.00051354186
0.0029718697 0.0013966497 -0.00051431172
-0.0018421876 0.0026828623 -0.00051001896
0.010000001 -0.00037336256 -0.00049665192
0.002520225 0.0014040273 -0.00049650535
0 -0.0021479903 -0.00048688205
0.00027920929 0.0014108373 -0.00048006888
0.010000001 0.00078746857 -0.0004682593
0.0064045833 0.0014165411 -0.00046630198
0.0076838797 0.0014186064 -0.0004613171
0.010000001 0.00049663114 -0.0004537355
-0.0017088039 0.0011801671 -0.00045586197
-0.001488052 0.0011086946 -0.00044624461
0.0060875094 -0.0014284817 -0.00043748209
0.0057371501 0.0014282785 -0.0004379724
0.0087973997 -0.001434617 -0.00042267406
0.0096722506 -0.0014353916 -0.00042080416
0.00060046272 -0.0014383665 -0.0004136239
-0.0020833246 0.0012024877 -0.00041721255
-0.0018460746 0.0012018359 -0.00041833648
0.0033456828 0.0014369596 -0.00041702006
-0.0020443811 -0.0026963935 -0.00040722734
-0.0012619448 -0.0026960531 -0.00040981331
0.0072792619 -0.0014421226 -0.00040455814
-0.0028021082 -0.0012074453 -0.00040867872
0.00049641484 -0.0014464995 -0.00039399389
0.0055868714 -0.001445672 -0.00039599114
-0.0013677154 -0.00064283155 -0.00039387916
-0.00215827 0.0012144088 -0.00039656923
-0.0013236434 0.0026983134 -0.00039264368
0.00095699105 -0.0014502876 -0.00037766006
-0.001292937 0.00028734136 -0.00037579844
0.0038778668 0.0014502464 -0.00037797209
0.0045409054 0.0014509481 -0.00037264117
-0.0007019043 -0.0027023826 -0.0003617295
0.0050889002 -0.0014522577 -0.00036269255
0.0055165347 -0.0014525634 -0.00036036983
0.0078710923 -0.0014524719 -0.00036106474
-0.003 0.0017511375 -0.00036732969
0.0087701492 0.001453396 -0.00035404388
-0.0017902051 -0.001243277 -0.00034656958
-0.0013108494 0.00041314593 -0.00034756109
0.0025521296 -0.0014557553 -0.00033612151
0.0022241327 -0.0014575378 -0.0003225804
0.0055097356 -0.0014571425 -0.00032558307
0.0041076606 -0.001458347 -0.00031643378
-0.0027394802 -0.0026706744 -0.0003026932
0.0039440901 -0.0014616025 -0.00029170082
0.0092553766 -0.0014608483 -0.00029743102
-0.0020664714 -0.0012755564 -0.00029066863
-0.0013152707 0.00047690771 -0.00029132122
0.00050450675 0.0014615392 -0.00029218313
0.0052969428 0.0014610129 -0.00029618031
0.0090416251 0.0014613435 -0.00029366894
-0.0014643872 0.0027109839 -0.00029638989
0.0055284249 0.0014622739 -0.00028660079
-0.003 0.0016690674 -0.00028580183
0.0079805963 -0.0014643612 -0.0002707431
0.0068646711 0.0014645731 -0.00026913415
-0.0018570143 -0.0027163129 -0.00025590922
0.0021236222 -0.0014658492 -0.00025943981
0.0091963941 -0.0014670782 -0.00025010254
-0.0021102445 -0.0013022416 -0.00024445564
0.0016271131 0.0014683122 -0.00024072848
0 -0.001904137 -0.00021574338
-0.0021577834 -0.0027228841 -0.00020599097
-0.0016113413 -0.0027231481 -0.00020398485
-0.0019924536 -0.0027238708 -0.00019849307
0.002884049 -0.0014752259 -0.00018820587
-0.0013559656 0.00068977295 -0.00017181225
-0.0014009787 -0.00086045323 -0.00015152626
0.00094295508 0.0014793059 -0.0001572108
-0.0014531519 0.0010554262 -0.00014971202
0.00057728752 -0.0014818035 -0.00013823695
0.0034915097 -0.0014848916 -0.00011477787
0.0060510007 -0.0014845462 -0.00011739982
0.0047670738 0.0014867602 -0.00010058125
0.0083632274 0.0014859629 -0.00010663827
-0.0020744971 0.0027362127 -0.0001047378
0.0048621837 0.0014869379 -9.9232871e-05
0.0066632451 0.0014868825 -9.9653509e-05
0.0082454039 0.0014870935 -9.8049451e-05
-0.002327021 -0.0027394881 -7.985258e-05
0.010000001 0.00077166443 -5.3843141e-05
0.003401364 0.0014950786 -3.7388523e-05
0.0089880675 0.0014948255 -3.9311082e-05
0 0.0019000766 -3.3122244e-05
0.0036098827 -0.0014965113 -2.6503769e-05
0.0097521562 0.0014378953 -2.6204332e-05
-0.0020677333 0.0027478368 -1.6435661e-05
0.00035522628 0.0014999482 -3.9425734e-07
0.00051990972 0.0014995375 -3.5136313e-06
-0.0029113737 -0.0025371683 1.107318e-05
0.00097202649 -0.0014982971 1.2937814e-05
0.0098969853 -0.0012941326 1.81014e-05
0.0064968644 0.0014984161 1.2033722e-05
0.008058412 -0.0014964696 2.6820599e-05
-0.0025150506 0.001423265 3.4869761e-05
-0.0027754761 -0.0014163207 4.6902227e-05
0.0053615612 0.0014934553 4.9719714e-05
-0.0022209508 -0.0027427941 5.4740649e-05
0.0066172914 -0.0014931759 5.1843195e-05
-0.0013449446 -0.000663721 5.7266294e-05
-0.0018492766 0.0014134472 5.1871688e-05
0.0054764333 0.0014928915 5.4002889e-05
-4.303276e-05 0.0027431091 5.234779e-05
0.0026582296 -0.0014914669 6.4825552e-05
-0.0018462683 -0.0014079491 6.1401799e-05
0.010000001 0.0011165251 6.6491346e-05
-0.0003567333 0.0027411163 6.7486719e-05
-3.7197773e-05 0.0027411717 6.7064459e-05
-0.0010060715 -0.002739711 7.8163372e-05
0.0074828225 -0.0014904317 7.268905e-05
-0.0014636891 -0.0011044907 7.5793716e-05
0.010000001 7.7522331e-05 7.0773065e-05
-0.0022065993 0.0013993111 7.6352248e-05
0.0073675415 0.0014894708 7.998995e-05
0.0075065992 -0.0014883828 8.8254819e-05
-0.0019868538 -0.0013948774 8.4042331e-05
0.0066071204 -0.0014873968 9.5744886e-05
0.0003953478 -0.0014865978 0.00010181469
0.0010053429 -0.0014862011 0.00010482938
0.0040949751 -0.001486328 0.00010386543
0.0067248875 -0.0014850451 0.0001136114
0 -0.0015003703 0.00012711728
0 -0.0022451531 0.00013257063
0.0080523686 -0.0014821158 0.00013586396
0.0049449243 0.0014820253 0.00013655232
0.0026176036 0.0014804297 0.00014867271
0.0091095027 0.0014804783 0.00014830384
-0.003 -0.001895269 0.00015000142
-0.0020004809 0.0013527621 0.00015696534
0 0.0027063217 0.00015165779
-0.0014872856 -0.0011797199 0.00017331987
0.0044403914 -0.0014754833 0.00018625055
-0.00091726094 0.002726163 0.00018108136
0.0063270666 -0.0014740389 0.00019722384
0.0039346442 0.0014741959 0.00019603089
-0.0017490907 0.0027236755 0.00019997855
-0.0013383335 -0.00060344499 0.00021828448
0.0019529115 0.0014712563 0.00021836297
0.0094292276 -0.0014708195 0.0002216812
0.0014900295 0.0014684746 0.00023949504
-0.0012782827 -0.00034303847 0.00024095023
-0.0017537754 0.001299687 0.00024887966
0.0073263012 0.0014678109 0.00024453658
0.00063725404 -0.0014669333 0.00025120407
0.0092958454 -0.001466698 0.00025299194
-0.0013527765 0.00064674293 0.00025341302
-0.00091685541 -0.0027148554 0.00026698102
0.00047304216 -0.0014639139 0.00027414097
0.0099900374 -0.0011668964 0.00027753523
-0.0017661093 0.0012825208 0.00027860768
0.0024491169 0.0014632707 0.00027902858
0.0092343297 -0.0014627973 0.00028262546
0.0084448522 -0.0014601108 0.00030303374
0.0097071314 0.0014445346 0.00031779183
0.0064542773 -0.0014574515 0.00032323581
0.0087116575 -0.001457275 0.00032457689
0.010000001 -0.00017824261 0.00032798617
0.0082555562 0.0014577435 0.00032101769
-0.0014867736 -0.0011481498 0.00033864169
0.0043365099 0.0014563156 0.00033186513
0.010000001 -0.00034201756 0.00035783692
0.0038916725 0.0014510148 0.00037213412
-0.0024485679 0.0027009123 0.00037289999
0.00069940579 -0.0014492911 0.00038522895
0.0065359967 -0.0014498411 0.00038105046
-0.0024599601 -0.0012232427 0.00038131722
0.010000001 0.00022244397 0.0003829638
0.00033178591 0.0014498153 0.00038124662
0.0080424538 -0.001447147 0.00039243125
0.0092378827 -0.0014472438 0.0003921976
0.0053345198 -0.0014435691 0.00040106682
0.010000001 0.001062123 0.00041788709
-0.0028539668 0.0012025522 0.00041714523
0.0020125832 0.0014382204 0.0004139767
0 0.00167372 0.00041126745
-0.0012290742 -0.002694655 0.00042043309
0 -0.0017723517 0.00042351533
0.0064758542 -0.001434681 0.00042251931
0.0055377022 0.0014347711 0.0004223017
0.0096899485 0.0014350243 0.00042169073
-0.0027261674 -0.0026664855 0.00043562721
0.0055351662 -0.0014274679 0.00043992896
0.008026978 -0.0014253659 0.00044500252
-0.0014392013 -0.00091311592 0.00044602997
0.0056612417 0.0014248935 0.0004461426
0.0097385263 -0.0013709936 0.00045960015
0.010000001 -0.00041845761 0.00045517742
-0.003 -0.0015751069 0.00046140904
0 -0.0015838811 0.0004767967
-0.0013079745 -0.0002353124 0.00047479023
0.0084740892 -0.0014106897 0.0004804249
-0.0013757823 0.00060123566 0.0004971514
-0.0014269312 -0.00083190121 0.00050743279
-0.0013259487 -0.00032242257 0.00050285103
0.0084480112 0.0014007007 0.00050453452
0.0069689821 -0.0013958019 0.00051635841
0.0097521273 0.001330186 0.00052289682
0.00094256276 0.0013927202 0.00052379648
0.0057013887 0.0013929196 0.00052331516
-0.0029259508 -0.0024541994 0.00053045922
0.0032135129 -0.0013862684 0.00053936802
-0.0013170314 -0.0001659515 0.00053980103
0.001357841 0.001387433 0.00053655758
0.0026910985 0.0013888141 0.00053322443
0.0087852003 -0.0013856204 0.00054093258
0.0088257547 -0.0013837751 0.00054538605
-0.0011531027 0.0026774635 0.0005510319
-0.00015690479 -0.0026760548 0.00056173216
0.0057035037 0.0013760211 0.0005641015
0 0.0020608248 0.00056021695
-0.0014408731 0.00084700563 0.00057250727
-0.003 0.0012236834 0.00057923293
-0.0015670409 0.0026744206 0.00057414774
-0.003 -0.0015672026 0.0005806947
0.0062315119 -0.0013659812 0.00058833376
-0.0014834077 -0.0010308158 0.00058933411
-0.003 0.001982674 0.00058030861
0.0099825775 0.0010542689 0.00059203641
-0.0025125728 0.0010982902 0.00059770956
-0.0016459721 0.0010910517 0.00061019673
0.0083055859 0.0013556402 0.00061329291
0.0044866255 -0.0013467487 0.00063475361
0.0071592117 -0.0013464305 0.00063552149
-0.0019299826 -0.0010787076 0.00063161744
-0.0010003222 -0.002664478 0.00064967561
0.0062073125 0.0013415419 0.00064732088
0.0064924662 -0.0013364386 0.0006596382
-0.0021899436 0.001066805 0.00065222417
0.0020642614 -0.0013291063 0.00067733554
0.0079623116 -0.0013290872 0.00067738147
0.010000001 0.00092562713 0.00067815138
-0.00037130737 -0.0026593313 0.00068877428
0.0020950076 -0.0013274382 0.00068136159
-0.003 -0.0011244233 0.00068261573
-0.0013545911 7.1928691e-05 0.00069779519
0.0057511502 -0.0013193744 0.00070082443
0.0024821984 -0.0013125311 0.00071734149
0.007536795 0.0013136654 0.00071460375
0.00075669936 0.0013063343 0.00073229801
0.0057912893 0.0013039928 0.00073794939
-0.0026592494 -0.002640995 0.00074875145
-0.0005612261 -0.0026418474 0.0007466934
-0.003 -0.0014533462 0.00074118952
0.0028779735 0.0012973822 0.00075210951
-0.0026367302 0.0026324615 0.00076935336
-0.0021463805 -0.00099833147 0.00077083625
0.0052542174 -0.0012703275 0.00078738382
0.0048734336 0.0012759503 0.00078005256
0.0088481316 -0.001267031 0.00079168211
0.002625417 0.0012660564 0.0007929526
0.0029947406 0.0012625145 0.00079757057
0.0088927159 0.0012582719 0.00080310227
0.00058861444 0.0012604148 0.00080030813
-0.0024646115 -0.0026136395 0.0008147941
0.0097699696 -0.0011539584 0.00081455352
-0.0014009057 -0.00027909107 0.0008288825
0 -0.0021608423 0.00083091587
0.0099905683 0.00086188107 0.00083583978
0.0067221243 0.0012357408 0.00083247857
0.0096197939 0.0012313646 0.00083818455
0.0030285134 0.0012253447 0.00084603328
0.0062120217 -0.0011949905 0.0008856096
0.0049279695 0.0011989041 0.00088050717
0.0041006603 -0.0011910038 0.00089080754
0.0051398394 -0.0011877745 0.00089501793
-0.0028810634 0.00092622463 0.00089575211
0.0014791557 0.0011861315 0.00089715997
0 0.0012469915 0.00089492515
-0.0017576495 0.0025813386 0.00089277746
0.0030890442 0.0011811045 0.00090371445
0.0031392986 0.0011825259 0.00090186112
0.0073490287 0.0011816894 0.00090295175
0 -0.0018873139 0.00091964641
0.0007280928 0.0011747904 0.00091194676
0.0045088427 0.0011711924 0.00091663795
0.0047591184 -0.0011626024 0.0009278378
0.0061966148 -0.0011659035 0.00092353387
-0.0014178163 -5.2723222e-05 0.00093630922
-0.0017417201 0.00090415863 0.00093393412
0.00081269449 0.0011536581 0.00093949941
-0.00038239197 0.0025614945 0.00094068696
-0.0014961436 -0.002555619 0.00095487118
-0.0010796211 -0.0025550695 0.00095619803
0.0081666606 -0.0011401954 0.0009570524
-0.0019692676 0.00089426432 0.0009510736
0.0034943719 0.0011430036 0.00095339102
0 -0.0021471349 0.00096629461
0.0038838522 -0.0011274653 0.00097365014
0.0057086186 -0.0011297569 0.00097066251
-0.0014600528 -0.00050992565 0.00097016536
0.0011276688 0.001125542 0.0009761579
0.0093844598 0.001127311 0.00097385136
0.00051761308 0.0011184006 0.00098546885
-0.003 0.0012899633 0.00098232995
-0.0019211042 -0.00086837262 0.00099592493
0.0043613687 0.0011148978 0.00099003594
0.0048623327 0.0011138254 0.00099143398
0.0046193213 -0.0011033709 0.0010050649
0.0016312967 0.0011065224 0.0010009561
-0.001980786 -0.0025313671 0.0010134218
-0.00028093957 -0.0025315406 0.0010130039
0.00032947768 -0.0010893864 0.0010232981
0.0032740769 0.0010842793 0.001029957
0.0018871014 0.0010769699 0.0010394871
-0.0013817126 0.0025237252 0.001031872
0.0068809707 0.0010758938 0.0010408899
0.0049972376 -0.0010617641 0.0010593127
0.0098932702 0.00074338407 0.001054508
0.0061642458 0.0010667165 0.0010528554
-0.0027424705 -0.00083048415 0.0010615801
-0.0018683219 -0.00082951848 0.0010632303
-0.0019614126 0.00082828815 0.0010653617
0 0.002055381 0.0010667251
0.0089482768 -0.0010432893 0.0010740536
-0.0029835619 -0.00082285271 0.0010748014
3.0223548e-05 0.0010367931 0.0010790359
-0.0013065402 0.0025061676 0.0010742608
-0.0018015995 -0.0025003161 0.001088388
0.0064890012 -0.001034421 0.0010808553
0.003077484 -0.0010243417 0.0010885861
0.0041697449 0.0010270691 0.0010864942
0 0.0014426265 0.0010962656
-0.0014670579 0.00016995629 0.0011046642
-0.00058566482 0.0024872513 0.0011199297
-0.0019666536 -0.0024863956 0.0011219953
0.0034678681 -0.0009832721 0.0011200854
0.007319618 0.00098107208 0.0011217728
0.00060531049 -0.00095970836 0.0011381585
0.0036024514 -0.00095967203 0.0011381863
0.0097033503 -0.00094793091 0.0011348793
-0.0022413309 0.00078964437 0.0011323027
0.00013286286 0.00096680212 0.0011327177
-0.0024948127 0.0024829134 0.0011304027
0 -0.0012081161 0.0011423096
0.0099067437 -0.00058102171 0.0011402013
0.0099497661 0.00046988155 0.0011400433
-0.0016814602 0.0007822573 0.0011450991
0.0051219268 0.00095086388 0.0011449419
0.0089791911 0.00095028133 0.0011453888
-0.0028216408 0.0023482586 0.0011403168
-0.0021106566 0.0024759469 0.001147221
-6.4620705e-05 -0.0024736845 0.0011526833
-0.0025952065 0.00077932782 0.0011501736
0.0084339771 -0.00092338031 0.0011660212
-0.003 -0.0015058528 0.0011747606
0.0081082974 -0.00091524899 0.0011722577
0.006654527 -0.00090595888 0.0011793831
0.0098863123 -0.00051808311 0.0011882014
0.0058878441 0.00089753867 0.0011858412
0.0055858432 -0.00088351767 0.001196595
-0.0016358611 -0.00075498637 0.0011923392
0.0044639194 0.00088737829 0.0011936339
0.006040873 0.00088631408 0.0011944502
0.0028579775 -0.00087752967 0.0012011878
0.0045272922 -0.0008765966 0.0012019033
-0.0026555238 0.00074652437 0.0012069978
-0.003 0.00087681023 0.0012045051
0.0062989271 0.00087321608 0.0012044962
0.0090769967 -0.00086081243 0.0012140094
-0.00092399481 0.0024491327 0.0012119575
0.0021405132 -0.00084321236 0.0012275084
0.0026258386 -0.00084306294 0.001227623
0.0034986469 0.00084333948 0.0012274107
0.0097190198 0.00079345203 0.0012337925
0.0012416656 0.00083221524 0.0012359429
0.0021737397 -0.00081727951 0.0012473982
0 0.0021999099 0.0012424112
-0.0018624241 -0.0024333268 0.0012501176
0.0020283014 -0.00081126532 0.001252011
0.0063575078 -0.00081069756 0.0012524463
-0.0028064442 -0.00062219647 0.0012500001
-0.0021391758 -0.00048546222 0.0012500001
-0.0028843214 -0.00029438626 0.0012500001
-0.0024303035 -0.00023191681 0.0012500001
-0.003 -0.00014831359 0.0012500029
-0.0020595379 -3.4427452e-05 0.0012500001
-0.0022864628 0.00023488041 0.0012500001
-0.0020422332 0.00023052377 0.0012500001
-0.0023504801 0.00025431986 0.0012500001
-0.0026027916 0.00053438463 0.0012500001
-0.0024861884 0.00056950899 0.0012500001
-0.0029115425 0.00071702141 0.0012500001
0.0005719536 -0.00079583767 0.0012638436
0.0030929302 0.00078195852 0.0012744887
0.0053566159 0.00078265875 0.0012739516
0.0080526108 0.00078420149 0.0012727682
-0.003 -0.00043091882 0.0012812513
0.0098871579 0.00013832141 0.0012881346
0.00086459628 0.00077370013 0.0012808227
-0.002646846 -0.002415535 0.0012930715
-0.0028583384 -0.0022431354 0.0012975817
0.0042026932 -0.00073479739 0.0013052989
0.0057117939 0.00073599961 0.0013048007
-0.0026435703 0.0024091455 0.0013084975
-0.0026063535 0.0024094749 0.0013077023
0.0098748086 3.4342607e-05 0.0013141716
0.00341345 0.0007083533 0.0013162552
0.0042535379 0.00071961997 0.0013115871
0.0051092184 -0.00069030747 0.0013237317
0.0060654893 -0.00069007784 0.0013238268
0.00084872125 -0.00068826613 0.0013245775
0.0088822851 -0.00067686243 0.0013293022
0.0084523959 0.00068650156 0.0013253086
0.003820179 -0.00066570967 0.0013339231
0.00037808844 -0.00065888435 0.0013367508
0.0044504427 -0.00064466026 0.0013426442
0.00076705409 0.00063800783 0.0013454003
0.005796962 0.00064529607 0.0013423807
-0.002141204 -0.0023893162 0.0013563707
0.0028290253 0.0006164604 0.0013543279
0.0061492007 0.00061241136 0.0013560056
0.0066995374 0.0006108759 0.0013566416
0.0075190617 0.00062445615 0.0013510152
0.00074397132 -0.0006024536 0.0013601311
0.007668518 -0.00059186912 0.0013645164
-0.003 -0.0016328959 0.0013793082
0.0056542251 -0.00055819168 0.0013784695
0.0014072334 -0.00054228207 0.0013850612
0.009789749 -0.00014146115 0.0013851188
0.0018597806 0.0005334724 0.0013887112
-0.003 -0.00075347617 0.0013928724
0.0055697518 -0.00052492361 0.0013922532
0.008099935 0.00050963118 0.0013985891
-0.003 0.0015615168 0.0013958386
0.0057166074 -0.00049355521 0.0014052496
0.0082438523 -0.00048967625 0.0014068567
0.0062966482 0.00048401358 0.0014092029
0.0020674479 0.00050313654 0.0014012798
0.0071970178 0.00050402049 0.0014009137
0.0056640715 -0.00045995184 0.0014191722
0.002296844 0.00046290591 0.001417948
0 0.0010181703 0.0014160336
0.0051892046 -0.00045363585 0.0014217887
0.0020960169 -0.00044328705 0.0014260765
0.005494304 -0.0004486634 0.001423849
0.0049742926 -0.00043605949 0.0014290711
0.0053481855 0.00044305218 0.0014261737
-0.0002371711 0.002343958 0.0014240439
0.0031328979 -0.00043381006 0.001430003
0.0069621201 -0.00041917479 0.0014360667
0 0.0021688852 0.0014325094
-0.003 -0.00095320289 0.0014490971
0.00183518 -0.00038672087 0.0014490947
0.0035987932 0.00039059247 0.0014479089
0.0056137801 0.00039918401 0.0014443492
0.00090614718 0.00040110017 0.0014435553
-0.003 0.0017971791 0.0014451566
-0.0014600779 0.0023285546 0.0014441129
0 -0.00094135827 0.0014550353
0.0011837011 -0.00034975723 0.0014539604
0.0028913028 -0.00034410588 0.0014547043
0.0073417425 -0.00034684208 0.0014543441
0.0030149166 -0.00033971373 0.0014552824
0.0041973838 -0.00031511625 0.0014585204
0.0022927423 0.00032678407 0.0014569844
0.002886595 0.00032247879 0.001457551
0.009093863 0.00035596147 0.0014531437
0.0049124798 0.00036478491 0.0014519823
0.0039498261 -0.0002698458 0.0014644795
0.0060794903 -0.00026430111 0.0014652093
0.006198782 -0.00025961886 0.0014658256
0.0019048374 -0.00024426836 0.0014678462
0.0051200334 -0.00024529971 0.0014677106
0.0008329167 -0.0002332492 0.0014692968
0.007365074 -0.00022868943 0.001469897
0.0044413968 0.00025343231 0.0014666399
0.0054815621 0.00026822265 0.001464693
0.0018613499 0.00027225498 0.0014641623
0.0078120027 0.00028156198 0.0014629372
-0.003 0.0004466477 0.0014634584
-0.00014880148 0.0023126246 0.0014648689
0.0090219118 -0.0002233305 0.0014706024
0.0022610999 -0.00017844976 0.0014765101
0.0041520353 -0.00016644882 0.0014780898
0.00094030594 0.00015791318 0.0014792136
0.0054603228 0.00016364259 0.0014784592
0.0049187667 0.0001875999 0.0014753056
0.0034055091 0.00020759764 0.0014726733
0.00084506389 -0.00011672392 0.0014846352
8.0318605e-05 -7.9120546e-05 0.0014895853
0.0038153608 -7.8181307e-05 0.0014897088
0.0074117021 8.8245244e-05 0.0014883841
0.0020918651 0.00011950963 0.0014842686
0.0025550909 0.00011020616 0.0014854933
0.0062985043 0.00012676894 0.001483313
0 0.00045929506 0.0014858871
-0.003 0.0016380246 0.0014834055
0.0074080965 -7.1262191e-05 0.0014906196
0.0093683004 1.2949047e-05 0.0014982955
0.0017698404 2.0844243e-05 0.0014972563
0.0084872767 2.3290535e-05 0.0014969342
0.0092484811 4.6873192e-05 0.00149383
-0.003 0.0010042783 0.0014911348
0 -8.5760352e-05 0.0015045857
0 0.0017180906 0.0015312441
0 -0.0018586033 0.0015432356
-0.00084034016 -0.0022409775 0.001558218
-0.003 -0.001477471 0.0015693272
0 -0.0017429498 0.0015718759
-0.003 -0.00072939391 0.0015785671
0 0.000907665 0.0015718654
-0.0029900917 0.001864384 0.0015765543
-0.00059723359 -0.0022209201 0.0015843512
-0.00020456176 -0.0022032785 0.0016073361
-0.00043423488 0.0022014743 0.0016096866
-0.00037641061 -0.0021775581 0.0016408473
-0.003 -0.00099522586 0.0016520845
0 0.00075654464 0.0016506383
-0.0014189534 0.0021576611 0.0016667714
-0.00072368869 -0.0021401492 0.0016895877
0 -0.00013371388 0.0016866592
-4.5636221e-05 0.0021427344 0.0016862194
-0.0021518914 -0.0021243058 0.00171023
-0.003 -0.00033394553 0.0017223544
-0.003 0.0011496283 0.0017368662
-0.0021950947 -0.0020649421 0.0017875753
-0.0020783688 0.0020638702 0.0017889719
-0.0020689771 -0.0020339752 0.0018279224
0 -0.0012715366 0.0018205781
0 -0.00059619447 0.00182808
-0.0029956892 0.0015872127 0.0018492106
-0.0029240218 -0.0017011082 0.0018513559
-0.00052277261 0.0020012273 0.00187059
-0.00018027025 0.001986865 0.0018893027
-0.00048932253 0.0019761119 0.0019033127
-0.002622359 -0.0019599909 0.0019243173
0 -0.0010065952 0.0019276039
-0.0012133034 0.0019542382 0.001931812
0 0.0010263505 0.0019418603
0 -0.0004749923 0.0019987014
0 -0.00031476948 0.0020057475
0 0.00022260114 0.0020033808
-0.00019126141 0.0018438112 0.00202178
0 -0.0015766363 0.0020449972
-0.00046505622 0.0017642959 0.0020828096
-0.0027336131 -0.0016803135 0.0021052591
0 0.00030087875 0.002105468
-0.0018460399 0.0017339059 0.0021061343
-0.00037758687 -0.0017278291 0.0021107984
-0.00044506477 -0.0016827742 0.0021453786
-0.0013557656 -0.001674377 0.0021518236
-0.0016713598 -0.0016393192 0.0021787314
-0.0013606102 -0.0015770168 0.0022265492
0 -0.0007433705 0.0022333991
-0.003 0.00080049667 0.0022425987
-0.0021519631 0.0015579455 0.0022411868
-0.0025673965 -0.0015444665 0.0022515319
-0.00077583425 -0.0015354223 0.0022584735
-0.0026960177 0.0015179892 0.0022718539
-0.002182045 -0.0014934065 0.0022907215
-0.0027660681 0.0013627112 0.0023084646
-0.0023030071 -0.0014425494 0.0023297546
-0.0010389809 0.0014276638 0.0023411796
-0.00054058741 0.0013835157 0.0023750642
-0.0022898621 0.0013112845 0.0024079913
-0.0017180708 -0.0013033274 0.002411287
0 -0.00090833358 0.0024132582
-0.002299529 0.0012971244 0.0024138563
-0.0012463768 0.0012978349 0.0024135623
-0.00067232631 -0.0012223745 0.0024448182
-0.0013141223 -0.0011533831 0.0024733946
-0.00041807274 -0.0011192106 0.0024875489
-0.0011289425 0.0011181372 0.0024879938
-0.00018229235 0.001113728 0.0024898201
-0.0014986313 -0.0010993509 0.002495775
-0.0029178306 0.00029855702 0.0024928546
0 0.00048625338 0.0024989266
-0.0029426664 5.5368906e-05 0.0025000426
-0.0022595301 -0.0010111786 0.0025322963
-0.002005344 0.00099957583 0.0025371024
-0.0016065538 -0.00098324195 0.0025438678
-0.0010395185 -0.00094808306 0.0025584309
0 -0.00025385566 0.0025648791
-0.0028731748 0.00011739181 0.0025613667
-0.0028483144 0.00026571489 0.0025666957
-0.00057015946 0.00086352736 0.002593454
-0.0027936273 -0.00038422819 0.0026057935
-0.0028217516 -8.3310631e-05 0.0026172816
-0.00015670279 0.00080489507 0.0026177398
-0.00016538464 0.00081372482 0.0026140828
-0.0023533949 -0.00076583767 0.0026339174
0 -0.00024945685 0.0026682937
-0.0027614953 -0.00017390135 0.0026656133
-0.0020828564 0.0006215485 0.002668181
-0.0027021295 -0.00057860813 0.0026717039
-0.0027124439 0.00047247132 0.0026753603
-0.0020137369 0.0005351727 0.0026795513
-4.5791505e-05 0.00056187174 0.0026760364
-0.0019347736 0.00057869236 0.0026738222
-0.00056234602 0.0005950972 0.0026716627
-0.00050441572 0.00049670652 0.0026846149
-0.0023195236 0.00051954802 0.0026816078
-0.0019654429 0.00040347793 0.0026968871
-0.00094816368 0.000415544 0.0026952988
-0.001701087 0.00025690632 0.0027161816
-0.00087145274 -0.00018512257 0.002725631
-0.0015518663 0.00019098786 0.0027248589
-0.00223298 8.1622857e-05 0.0027392555
-0.00021125581 -2.7809294e-06 0.002749634
