# .PCD v0.7 - Point Cloud Data file format
VERSION 0.7
FIELDS x y z
SIZE 4 4 4
TYPE F F F
COUNT 1 1 1
WIDTH 999
HEIGHT 1
VIEWPOINT 0 0 0 1 0 0 0
POINTS 999
DATA ascii
-0.0024713296 -6.791731e-05 -0.0014910599
-0.00059261062 -4.3060194e-05 -0.001494332
0.0022928379 -4.9866343e-05 -0.0014934359
-0.0011157811 -2.5467325e-05 -0.0014966478
-0.0017461682 -1.5825686e-05 -0.0014979168
0.0019894671 -1.00464e-05 -0.0014986775
-0.00033718211 -9.2255613e-07 -0.0014998787
0.0024699506 2.6578996e-06 -0.0014996502
-0.0014722567 1.7951174e-05 -0.0014976371
5.7560326e-05 1.2562992e-05 -0.0014983464
0.00053452182 1.7568602e-05 -0.0014976874
0.0022612659 1.0114419e-05 -0.0014986687
-0.0015702817 2.1466429e-05 -0.0014971744
0.00044036569 3.7587182e-05 -0.0014950522
0.00086129393 4.6900477e-05 -0.0014938265
-0.0024915126 6.3296568e-05 -0.0014916683
0.0006559394 6.829128e-05 -0.0014910107
-0.0010973269 7.2686591e-05 -0.001490432
4.0132523e-05 7.4074014e-05 -0.0014902495
0.00064055197 -0.00014521301 -0.0014808852
-0.0021110128 -0.00013951358 -0.0014816354
0.00031182196 -0.00012921545 -0.001482991
-0.0021441791 -0.00010558011 -0.0014861021
-0.0022861187 -9.074511e-05 -0.001488055
0.0011344927 -9.0361747e-05 -0.0014881055
0.001014016 -8.1531922e-05 -0.0014892678
-0.0019878885 9.2993389e-05 -0.0014877589
-0.002564356 0.00012255638 -0.0014838676
0.002228599 0.00013342249 -0.0014824372
0.0003612354 0.00014665685 -0.0014806952
0.00073954801 -0.00022620581 -0.001470224
0.001293637 -0.00020532627 -0.0014729722
-0.00045866086 -0.00019484488 -0.001474352
-0.0011238323 -0.00018881372 -0.0014751459
0.0024096649 -0.00016819933 -0.0014778594
0.0020227854 0.00015593509 -0.0014794738
-0.00046398951 0.00019262455 -0.0014746443
0.0022062238 0.00019667354 -0.0014741113
0.0013035458 0.00020947994 -0.0014724255
-0.00076100579 0.00021789162 -0.0014713183
0.0018860796 0.0002275076 -0.0014700525
0.0019305112 -0.00029922745 -0.0014606119
0.0022560151 -0.00025242663 -0.0014667723
-0.0011517615 -0.00023737137 -0.0014687541
-0.00089332188 -0.00023836047 -0.001468624
-0.0024070232 0.00023123123 -0.0014695624
-4.2546872e-05 0.00023726483 -0.0014687682
0.0011779956 0.00023343734 -0.001469272
-0.0010355571 0.00024874535 -0.0014672569
0.0011936805 0.00024180723 -0.0014681702
0.0016313577 0.00024568374 -0.00146766
0.0024591379 0.00026218951 -0.0014654872
-0.0016551653 0.00028813365 -0.0014620721
0.0017276303 -0.00032048594 -0.0014578135
0.00033945002 -0.00031585313 -0.0014584232
-0.00015896857 0.00031230383 -0.0014588905
0.0015712075 0.00031884559 -0.0014580294
-0.0026442099 0.00032502075 -0.0014572166
0.00046493227 0.00036430525 -0.0014520454
-0.0012822028 0.00037244539 -0.0014509738
0.00094493933 -0.00040759947 -0.0014408627
0.00083124865 -0.00039972103 -0.0014441267
-0.0012958411 0.0003799648 -0.0014499841
-0.0015577992 0.00038799125 -0.0014489276
0.00028681112 0.00038835758 -0.0014488348
-0.0010522297 -0.00042894526 -0.0014320186
5.4496886e-05 -0.00042410524 -0.001434024
-0.0026071388 0.00042970694 -0.0014317029
0.0001980325 0.00043243391 -0.0014305732
-0.0018014796 -0.00044519946 -0.0014252842
0.0012076853 0.00044234394 -0.0014264673
-0.0011697052 -0.00047150781 -0.0014143842
-0.0016408571 -0.00046975102 -0.0014151119
-0.002170366 0.0004589732 -0.0014195775
-0.0023759974 0.00046610489 -0.0014166227
-0.0026305323 0.00047031214 -0.0014148796
-0.0027228654 0.00041754733 -0.0014052322
0.0018052136 0.00049786555 -0.0014034638
0.0020343568 0.00049716036 -0.001403756
-0.00091791427 -0.00051180512 -0.0013976884
0.0012568993 -0.00051396596 -0.0013967931
0.0025076985 -0.00049790414 -0.0013951858
-0.0027893994 -9.1255846e-05 -0.0013920773
0.002596993 0.0001728169 -0.0013802588
-0.00087561976 0.00053557934 -0.0013878382
0.00011853684 0.00054793945 -0.0013827172
-0.0010568841 -0.00057231326 -0.0013726187
0.0025831584 0.00033180849 -0.0013731638
-0.0020362847 0.00055685459 -0.0013790237
-0.00034756615 0.00056078733 -0.0013773943
0.00064442138 0.0005632898 -0.0013763574
0.00071112072 0.00056625844 -0.0013751274
-0.0022527024 -0.00059427292 -0.0013635204
0.00018756617 0.00060546392 -0.0013588839
0.00080163265 0.0006186227 -0.001353432
-0.0010842134 -0.00064404786 -0.001342898
0.0019318835 -0.00064787071 -0.0013413141
0.0017214146 -0.00063951197 -0.0013447772
0.0010523424 0.0006287357 -0.0013492421
0.0012927223 0.00064977538 -0.0013405249
-0.00092787313 -0.0006735627 -0.0013306695
0.0025492932 0.00053876126 -0.0013336207
-0.0026458197 0.00065822079 -0.0013370258
-0.0020246205 0.00065371487 -0.0013388927
0.0013526628 0.0006654773 -0.0013340194
0.00042976544 -0.00068395346 -0.0013263643
0.0022642829 -0.00067695143 -0.0013292653
0.0026672599 -8.4145155e-05 -0.0013216531
0.0011411204 0.00067888253 -0.0013284653
0.002242767 0.00067701307 -0.0013292399
0.0018109754 -0.00072042213 -0.0013112548
7.3189723e-05 -0.00071189267 -0.0013147886
-0.00053470512 0.00070141169 -0.0013191311
-0.00016608145 0.00072110363 -0.0013109724
0.0015472242 -0.00074395596 -0.0013015042
-0.0028752915 -7.6786731e-05 -0.0013080915
-0.0028703576 0.00013693995 -0.0013051165
-0.0022670873 -0.00075858494 -0.0012924157
-0.0017101894 0.00075431855 -0.0012956879
0.00069580809 0.0007558706 -0.0012944974
-0.0022300426 -0.0007660226 -0.0012867111
2.4597408e-05 0.00077202072 -0.0012821107
0.00075188739 0.00077471894 -0.0012800413
-0.00031384939 -0.00078199944 -0.0012744573
-0.0011481676 -0.0007752424 -0.0012796397
0.0017114942 0.00078119891 -0.0012750712
-0.00028209563 -0.00079027133 -0.0012681128
-0.00010611287 -0.0007985484 -0.0012617646
0.00010486244 -0.00079111318 -0.0012674672
0.0014884989 -0.0007960276 -0.0012636979
0.0018355122 -0.00079593534 -0.0012637688
0.0023076138 -0.00079543743 -0.0012641507
-0.002919304 -4.1440104e-05 -0.0012687362
0.0010603904 0.0007905502 -0.0012678988
-0.0010489029 0.00080738892 -0.0012549841
0.00059555139 -0.00081775512 -0.0012470334
-0.00059249497 0.00082168053 -0.0012440226
0.0023356583 0.00082194904 -0.0012438168
-0.00049629557 0.00083415443 -0.0012344554
-0.0012264904 -0.00084404636 -0.0012268687
-0.0029697411 -8.3869409e-06 -0.0012226542
-0.0021887363 0.0008455338 -0.0012257278
-0.0014703465 0.00084327726 -0.0012274587
-0.00054984761 0.00084382924 -0.0012270351
-0.00058255991 -0.00086373335 -0.0012117692
0.0017511819 -0.00086475018 -0.0012109892
-0.0015895586 -0.00085937628 -0.001215111
0.0027805769 1.4238661e-05 -0.0012175492
-0.00076814368 -0.00087563874 -0.0012026379
-0.00037079764 -0.00087717833 -0.0012014571
0.0015367931 -0.00087679282 -0.0012017527
-0.0028839987 -0.0004927392 -0.001201176
0.0026302477 0.00064688688 -0.0012019449
-0.00064208033 -0.00089163007 -0.001190373
-0.00030009117 -0.00088701607 -0.0011939119
0.0025987087 -0.00072986557 -0.0011910987
0.0027209097 -0.00043216997 -0.001193597
-0.0029032198 0.00046459553 -0.0011922007
-0.0026587006 -0.00089982955 -0.0011840842
5.3974512e-05 -0.00089982955 -0.0011840842
0.0027789017 -0.00025765123 -0.0011871643
-0.00079922512 0.000901094 -0.0011831144
0.000628768 0.00090210419 -0.0011823396
0.0022257934 -0.00091585045 -0.0011717963
0.0016714905 -0.00090804067 -0.0011777864
-0.0014427881 0.00092250062 -0.0011666958
-0.0017664201 -0.00094312435 -0.0011508779
-0.0011655365 -0.0009343453 -0.0011576113
0.00022567464 -0.00093533267 -0.001156854
-0.0029191989 0.00052079727 -0.0011517829
-0.0016583062 -0.00095324306 -0.0011431171
-0.0022666801 0.00094673579 -0.001148108
-0.00067590078 0.00095291843 -0.001143366
0.0028241489 -0.00028639141 -0.0011381313
0.00058758381 0.00095843693 -0.0011391335
0.0013626409 -0.00097321684 -0.0011277976
-0.0029231969 -0.0005718788 -0.0011263348
-0.003 5.4577307e-05 -0.0011266986
0.0027817569 0.000437404 -0.0011261423
0.00036124684 0.00097045716 -0.0011299143
-0.002691925 0.00098236848 -0.0011207786
-0.0016551195 -0.00099447346 -0.0011114943
0.0026766304 -0.0006981467 -0.0011180622
-0.0025632319 0.00098642241 -0.0011176693
-0.0020284287 0.00098985608 -0.0011150357
0.0014651549 0.00098713546 -0.0011171225
0.0016045505 0.00099391816 -0.0011119202
0.0019877038 -0.00099797547 -0.0011088082
0.002894111 -1.2603647e-05 -0.0011042284
-0.003 -3.8493799e-06 -0.0011055918
-0.00036937761 0.00099650677 -0.0011099348
0.0017894008 0.0009982005 -0.0011086358
0.00032833446 -0.0010170845 -0.0010941521
-0.0011241774 0.0010185769 -0.0010930075
0.0013924446 0.0010105291 -0.0010991801
-0.0021284753 -0.0010343409 -0.0010809168
-0.0017614223 -0.0010301891 -0.0010841013
-0.001236316 0.0010283504 -0.0010855114
-0.00080770045 0.0010251572 -0.0010879606
-0.0003605269 0.0010248652 -0.0010881845
0.0012380386 -0.0010455721 -0.0010723027
-0.0018019143 -0.0010365749 -0.0010792034
-0.00014428711 -0.0010378885 -0.001078196
0.00064527267 0.0010436596 -0.0010737695
0.0024330863 0.0010433818 -0.0010739827
0.002249744 -0.0010656631 -0.0010542291
-0.0026527352 0.0010634164 -0.0010571579
0.0009119563 0.0010620615 -0.0010589249
-0.00077834481 -0.0010717374 -0.0010463094
-0.00091651158 0.0010716437 -0.0010464315
0.0015250341 -0.0010827293 -0.0010319778
-0.00044412506 -0.0010795539 -0.001036118
0.0029058163 0.00032981057 -0.0010375662
-0.0029110829 0.00075290399 -0.0010249375
0.00081100134 0.001095438 -0.001015408
-0.0012738591 -0.0011019944 -0.0010068595
0.0017164079 -0.0011066025 -0.0010008516
0.002925961 0.00036207616 -0.0010025832
-0.003 -0.00055269687 -0.00099339965
-0.003 -0.00031699648 -0.00099126541
-0.0022542116 0.0011146055 -0.00099041697
-0.00036138089 0.0011115201 -0.00099443982
0.00094018632 0.0011216427 -0.00098124193
-0.001492956 0.001125577 -0.00097611221
0.0026433493 -0.00095827592 -0.00096012681
-0.00024239886 0.0011377219 -0.00096027728
0.00048796364 -0.0011410087 -0.00095599197
-0.0028857924 -0.00089056569 -0.00095085183
0.003 -0.00011500155 -0.0009586463
0.003 -9.4733296e-05 -0.00095194316
0.002793431 0.00071623473 -0.00095825881
-0.0016095163 0.0011436699 -0.0009525225
0.0023403806 0.0011433876 -0.00095289049
0.0025683832 0.0010638563 -0.00094518095
-0.0017742907 0.0011487589 -0.00094588712
-0.0015676843 -0.0011636307 -0.00092649698
0.00018794752 -0.0011616553 -0.00092907267
0.0027278 -0.00087098446 -0.00092154735
0.0015107932 0.0011631112 -0.00092717452
-0.0018472758 -0.001171927 -0.00091568026
-0.0012459129 -0.0011759427 -0.00091044453
0.00075349264 0.0011712949 -0.0009165043
0.00098113029 0.0011737542 -0.00091329782
0.0020387361 0.0011723903 -0.00091507612
0.0024944781 -0.001176467 -0.00090976071
0.00046991065 0.0011822422 -0.00090223108
-0.0019389322 -0.0011975723 -0.00088224339
-0.00014483882 0.0011972418 -0.0008826743
0.0011433135 -0.0012041534 -0.00087366282
-0.003 -0.00042289021 -0.00087974162
-0.0016364006 0.001206574 -0.0008705068
-0.0015362027 0.0012043157 -0.00087345135
0.00010713733 -0.0012083913 -0.00086813758
0.0020437404 0.0012091306 -0.00086717348
0.00046927205 -0.0012201512 -0.00085280469
0.003 -0.0003269889 -0.00085019291
0.0013830189 0.0012208619 -0.00085187797
-6.2781095e-05 -0.0012286861 -0.00084167684
0.00058730569 -0.0012287949 -0.00084153481
0.0011006412 -0.0012266282 -0.00084435986
-0.003 0.00066388893 -0.00084608281
-0.0021545663 0.0012290683 -0.00084117835
0.00013602948 -0.0012313803 -0.00083816401
0.002557718 -0.0011642614 -0.00083163736
-0.0013933197 -0.0012421571 -0.00082411303
0.0026098471 -0.0011050061 -0.00082396349
-0.0020623738 0.0012430155 -0.00082299375
-0.0013757063 0.0012406743 -0.00082604622
0.0021591242 0.0012405531 -0.00082620431
-0.00012298215 0.0012480366 -0.00081644708
0.0014458561 0.0012486011 -0.00081571104
-0.0011649866 -0.0012535882 -0.00080920878
0.002894338 0.00075630395 -0.00080140459
-0.0028960567 0.0010032295 -0.0008055541
-0.00028584863 0.0012552376 -0.00080705812
-0.00018741107 -0.0012615129 -0.00079887657
-0.0020791544 0.0012662819 -0.00079265871
0.0017097526 -0.0012701373 -0.00078763196
0.00048935675 0.0012811319 -0.00077329687
-0.0025107041 -0.0012867965 -0.0007659113
-0.0014712439 -0.0012836647 -0.00076999451
-0.00073784293 -0.0012859572 -0.00076700572
0.00066740101 -0.0012899477 -0.00076180272
-0.0028959198 -0.0010360676 -0.00076310209
-0.0011118111 0.0012863023 -0.0007665556
0.00027918804 -0.0012970832 -0.00075249939
0.0020409601 -0.0012945323 -0.00075582508
-0.0029429791 0.00027892686 -0.00075000012
-0.00044142941 0.0012913952 -0.00075991551
0.0021350505 -0.0013002481 -0.00074698788
-0.002030574 -0.00035487209 -0.00075000001
-0.0028151399 -0.00029777639 -0.00075000001
-0.0022129484 -0.00026900505 -0.00075000001
-0.0028268364 -0.00018919734 -0.00075000001
-0.0028185889 -0.00014601252 -0.00075000001
-0.0025977828 -9.9066201e-06 -0.00075000001
-0.0018710976 0.00010152855 -0.00075000001
-0.0028727523 0.00011119976 -0.00075000001
-0.0018345645 0.000335524 -0.00075000001
-0.00261009 0.00041730335 -0.00075000001
-0.0021679006 0.00041482112 -0.00075000001
-0.0021119895 0.00041595713 -0.00075000001
-0.0018064281 0.00043827659 -0.00074086053
-0.003 0.00071076362 -0.00074819621
0.0022047895 0.0013000172 -0.00074754492
-0.0014000204 -0.0013057775 -0.00073364191
-0.0012468208 -0.0013032319 -0.00073978596
-0.0010328013 -0.0013047243 -0.00073618407
-0.0019031458 0.00044354802 -0.00073172979
-0.0021274011 0.001306241 -0.00073252333
0.00050836103 -0.0013076405 -0.00072914548
-0.0026821154 -0.0013125085 -0.0007173958
-0.0027150819 -0.00045438533 -0.00071295857
-0.0018000001 0.00045428969 -0.00071061862
-0.0026746874 0.0013142275 -0.00071324699
-0.00076151348 -0.0013194185 -0.00070071797
-0.0023994159 0.0013167429 -0.00070717605
-0.0019453807 0.00047152824 -0.00068326516
0.0026652527 -0.0011490165 -0.00067633437
0.0028518864 -0.00091406598 -0.00067858462
-0.003 0.00057833007 -0.00067297404
0.00011547363 -0.0013331788 -0.0006675059
-0.003 -0.0008869344 -0.00066106528
-0.00023833229 0.0013344418 -0.00066445745
-0.0025967585 0.0013379179 -0.00065606786
-0.0028004285 0.00049647916 -0.00064004771
-0.003 0.00093746471 -0.00064105826
-0.0024239263 0.0013413454 -0.00064779515
0.00036428298 0.0013441733 -0.00064096943
0.001546649 0.0013435005 -0.00064259348
0.003 -0.0006702423 -0.00063217198
-2.5830628e-05 0.0013475404 -0.00063284242
-0.0028745381 -0.0011583839 -0.00062051479
0.0015448557 0.0013493699 -0.00062842708
0.0019893392 0.0013517507 -0.00062268059
-0.003 -0.00098748796 -0.00061882008
-0.003 -0.00063582481 -0.00060039235
0.003 0.00018605532 -0.00060957659
-0.0017457475 0.0013638122 -0.00059356872
0.003 -0.00014949622 -0.00058050069
0.0016043219 0.0013657048 -0.00058900088
-0.003 -0.00070126686 -0.00057276408
-0.0028099001 0.000532837 -0.00057707232
-0.0021746848 0.00053537497 -0.00057267619
-0.0021267554 0.0013721866 -0.000573356
-0.0007236604 0.0013713726 -0.00057532085
0.001210842 -0.0013751776 -0.00056613697
0.0026090785 -0.001259347 -0.00056315679
-0.0017047792 0.00011828602 -0.0005694672
0.0015219145 0.0013760451 -0.00056404329
-0.0026784069 0.0013791299 -0.00055659749
0.0018165386 -0.001385155 -0.00054205564
0.0019372569 -0.0013853038 -0.0005416965
-0.003 -0.0010108189 -0.00054061384
-0.0025171877 0.0005516074 -0.00054456008
0.0014314817 0.0013839982 -0.00054484763
0.0020921819 0.0013826763 -0.0005480384
0.0010116672 -0.0013884592 -0.00053408032
0.0026252628 -0.0012535772 -0.00053515914
-0.0020884967 -0.00055722566 -0.00053482858
0.003 9.2192488e-05 -0.00053576549
-0.0010752031 0.001388279 -0.00053451542
0.00015749944 -0.0013911997 -0.00052746636
-0.0023928401 0.00056128297 -0.00052780093
-0.0029214786 0.00056886417 -0.00051466958
0.00063281198 -0.0014020987 -0.00050116016
-0.0016709693 0.00014642146 -0.00050432706
0.003 0.00063986884 -0.00050465134
-0.0029036922 0.0011757312 -0.00050314964
-0.0015447404 0.0014000336 -0.00050614442
0.0012747024 -0.0014045786 -0.00049517507
-0.0020734183 0.00058012432 -0.00049516594
-0.0029108783 0.0011719579 -0.0004936367
-0.0020903577 0.0014036522 -0.00049741025
-0.00041187421 0.0014051198 -0.00049386872
0.0023199066 0.0014025886 -0.00049997785
0.0010517369 -0.0014096182 -0.00048301127
-0.0016826665 0.00024909049 -0.0004835579
-0.00047124937 -0.0014125012 -0.00047605301
-0.0028758661 0.0012179572 -0.00047328914
-0.0010339742 0.0014126601 -0.00047566919
0.00050021615 0.0014130328 -0.00047476974
0.00099702994 -0.0014187971 -0.00046085706
0.0027984024 -0.0010981921 -0.00046170905
-0.003 -0.00082426576 -0.00046041491
-0.0016414342 -0.0001335438 -0.00045476531
-0.0016657277 0.00024114129 -0.00045536697
-0.002698805 0.0006026295 -0.00045618453
-0.00046965887 0.0014244708 -0.00044716246
0.00046627765 -0.0014297683 -0.00043437674
0.0019173723 -0.0014281927 -0.00043817921
-0.0025645252 -0.00061482179 -0.00043506618
-0.0023222433 0.00061735132 -0.00043068483
0.0015086163 0.0014343502 -0.00042331775
0.002505088 0.0014337435 -0.00041160319
0.0021229847 -0.0014403319 -0.00040888027
-0.0012469512 -0.0014457916 -0.00039570249
0.003 6.8588408e-05 -0.00039376933
0.0029534628 0.00095982663 -0.00039404782
6.5665197e-05 0.0014480834 -0.00039017099
9.149644e-05 0.0014446116 -0.00039855074
-0.0027581626 0.00064110308 -0.00038954438
-0.00031066503 0.0014493037 -0.00038513358
-0.0017138892 -0.0014512097 -0.00037065428
-0.0015859111 -9.711116e-06 -0.00037789534
-0.0011123096 -0.0014515206 -0.00036829224
3.2987133e-05 -0.0014522577 -0.00036269255
0.00026210147 -0.0014525634 -0.00036036983
0.001523606 -0.0014524719 -0.00036106474
-0.0016687136 0.0003750321 -0.00036232063
0.0022242218 0.0014528049 -0.00035853649
0.002354349 0.0014532715 -0.00035499004
0.0026116585 -0.0013433781 -0.00034154407
0.0024231758 0.0014545792 -0.00034505638
-0.0023922639 -0.00067202334 -0.00033598731
0.0025927096 0.0013634148 -0.00033329942
-0.0015018735 -0.0014575378 -0.0003225804
0.00025845852 -0.0014571425 -0.00032558307
-0.0020398377 -0.0014579297 -0.00031960261
-0.00049273309 -0.001458347 -0.00031643378
-0.0018051632 -0.00068691355 -0.00031019596
0.003 1.3290794e-05 -0.00031894911
-0.0017856059 0.00064616953 -0.00031843031
0.00062182517 0.0014589021 -0.00031221524
0.0025779449 -0.0013814527 -0.00030845223
-0.0029479347 -0.0012047515 -0.00030981295
-0.003 -0.0010078617 -0.00030501015
-0.003 -0.00084036821 -0.00030498576
0.003 0.00046588248 -0.00030235792
-0.002127972 -0.00069767621 -0.00029155411
0.003 0.00077574502 -0.00029679944
6.2728883e-05 0.0014611937 -0.00029480745
0.00062732055 0.0014623394 -0.00028610232
0.0015318333 0.0014627487 -0.0002829938
-0.002774985 0.0013820124 -0.00027723052
0.00032873466 0.0014631641 -0.00027983804
-0.0023975498 0.0007155725 -0.0002605558
-0.002815604 0.0013424421 -0.00026922597
-0.001555724 -0.0014658492 -0.00025943981
-0.003 0.00090872671 -0.00025727597
-0.0010221701 -0.0014681019 -0.00024232721
-0.0029175698 -0.001243207 -0.00024838335
-0.0015626379 -0.00023140764 -0.00024588776
-0.0016822451 0.00048428774 -0.00024543577
-0.002947645 0.0012137522 -0.00024365121
-0.0023380858 0.00072806841 -0.00023891171
-0.0024360353 0.001469333 -0.00023297315
0.0023057014 0.0014728756 -0.00020606139
-0.0011483091 -0.0014752259 -0.00018820587
-0.001619618 0.00039278207 -0.00018531732
-0.0015654825 0.0014757803 -0.00018399341
-0.0029638805 -0.00076532637 -0.00017437716
-0.00069334521 0.0014774379 -0.00017140142
-0.0018025606 -0.00077440817 -0.00015864639
-0.0018629649 0.00077413069 -0.00015912707
-0.0009659105 0.0014796506 -0.00015459285
-0.0008203527 0.0014801282 -0.00015096439
-0.0011140065 -0.0014809702 -0.00014456661
-0.002384206 -0.0014818035 -0.00013823695
-0.0023583949 -0.0014815944 -0.00013982608
0.0022201235 -0.0014828591 -0.00013021802
-0.0021744336 0.0014831034 -0.00012836287
-0.00077146862 0.0014830285 -0.00012892991
-0.0029732496 -0.0012051718 -0.00011444427
-0.00076957932 0.0014847771 -0.00011564693
-0.003 -0.0011536337 -0.00010736052
-0.003 -0.0011321929 -0.00010337322
-0.0024318527 0.00080258184 -0.0001098467
-0.002010979 0.0014861713 -0.00010505504
0.0014952141 -0.0014871219 -9.7833698e-05
0.0021970465 -0.0014872634 -9.6759853e-05
-0.0029975444 0.00081660989 -8.5548781e-05
-0.00062706275 0.0014884931 -8.7418324e-05
0.00038713124 -0.0014896758 -7.8432509e-05
0.00053868728 -0.0014919628 -6.1057144e-05
-0.0022986184 -0.00082832994 -6.5248401e-05
-0.00099552167 -0.0014932585 -5.1214429e-05
-0.003 0.0010188124 -5.3584619e-05
-0.0026958298 0.0014904316 -5.4990389e-05
0.0012084885 0.0014923522 -5.8099271e-05
-0.0015826222 0.00036729875 -4.6862708e-05
-0.0025120266 0.00084700505 -3.2901164e-05
0.0020374574 0.0014967376 -2.4785733e-05
0.003 0.00084785075 -1.1511058e-05
-0.0029638726 0.001229396 -1.758272e-06
0.0013196795 0.001499689 -2.3638224e-06
-0.00022317759 -0.0014998238 1.3395818e-06
-0.0016221408 0.00044093907 7.5110197e-06
-0.003 0.00090851285 1.3902921e-06
-0.0028399811 0.0013510624 1.8644399e-05
-0.002488476 -0.00084956113 2.847384e-05
0.003 -0.00033516507 2.3552202e-05
0.0026320843 0.0013650769 2.1548074e-05
-0.0026464935 0.0014972594 2.0821059e-05
0.0018304716 0.001497312 2.0420652e-05
0.0016389096 -0.0014953874 3.5041561e-05
-0.0026852717 -0.00084834016 3.0588628e-05
-0.0027719317 0.0014171215 3.3751694e-05
-0.0022234805 -0.00083753443 4.9305261e-05
0.0012355597 0.0014936887 4.794772e-05
0.00012459538 -0.0014930546 5.2763913e-05
0.003 -0.00097190181 5.2319432e-05
0.00014826587 0.0014917348 6.2789302e-05
0.00052706478 0.0014914228 6.5161745e-05
0.0023628336 -0.0014903058 7.3646916e-05
-0.00072356738 -0.0014897436 7.7917408e-05
0.0024370987 -0.0014897371 7.7966717e-05
-0.0029600069 -0.00082258042 7.5207085e-05
0.003 0.00045691361 7.5633194e-05
-0.0016416793 0.00046603711 7.3814168e-05
-0.0016662625 0.00050850876 7.463793e-05
-0.0029192104 -0.0012627355 8.7693654e-05
-0.0022112585 -0.00081905292 8.1317026e-05
-0.0019708618 -0.00081842142 8.2410923e-05
-0.0014984336 0.00021029593 8.2078936e-05
0.0003186315 -0.0014872375 9.6955395e-05
-0.0015177708 -0.00023580431 0.00010727294
-0.001015517 0.0014867714 0.00010049665
-0.0024231998 0.0014847016 0.00011622109
0.00030759457 -0.0014838313 0.00012283187
0.0017505124 -0.0014837228 0.00012365577
-0.0016589572 -0.00048890972 0.00012730024
-0.0021903864 0.00078524003 0.00013988449
-0.002193301 0.0014820696 0.00013621598
-0.00052653137 0.0014827166 0.00013130027
0.0025396801 -0.0014415911 0.00014228019
0.003 0.00052498316 0.00014816187
-0.0025916507 0.0007831484 0.00014350745
0.0026582128 0.0013221957 0.00014875566
0.0021065217 -0.0014791529 0.00015837209
0.003 -2.7759374e-06 0.00015026151
0.003 0.00018494741 0.0001559925
-0.003 0.0011569411 0.00015767498
0.00092341163 0.0014802158 0.00015029832
-0.0015052691 -0.00017498607 0.00016198331
-0.00061584997 0.0014782113 0.00016552664
0.001481991 -0.0014771667 0.00017346279
0.0027208906 -0.0012559016 0.0001763078
-0.0019244557 -0.00076262862 0.00017904968
0.003 0.0009190003 0.00017962472
-0.0017720722 -0.00067710405 0.00018296536
0.0028258888 0.0011494257 0.00018736716
0.003 0.00036413842 0.00019447131
-0.0013659218 0.0014743686 0.0001947181
-0.00026061299 0.0014740144 0.0001974106
-0.002799612 -0.00074725924 0.00020567104
0.0023147138 0.0014734828 0.00020144881
0.00070856832 -0.0014711006 0.00021954437
0.0029736932 -0.0009984005 0.00021181365
-0.0013977654 -0.0014703479 0.00022526435
0.00079422403 -0.0014704717 0.00022432282
-0.0016392029 -0.0014699206 0.00022850976
-0.00078434387 -0.0014699122 0.00022857316
-0.00026913133 -0.0014690221 0.00023533446
-0.0021586253 0.00073172618 0.00023257587
-0.003 0.0010250675 0.00023930939
-0.0010226615 -0.0014676561 0.0002457129
0.003 0.00068450265 0.00024087704
0.002120055 -0.001467001 0.00025069015
0.0026556423 -0.0013103874 0.00025806829
0.0019361792 0.0014660171 0.00025816439
-0.0025952726 0.00071199395 0.00026675421
-0.0021882916 0.0014646234 0.00026875216
-0.0017223052 -0.0014629805 0.00028123221
0.0018294727 -0.0014619257 0.00028924563
-0.003 -0.0010992218 0.00029856295
-0.0014797159 -0.0014593602 0.0003087348
-0.0018585599 -0.00069198071 0.00030141926
-0.0026114341 0.00069059862 0.00030381299
-0.0027980802 0.0013556451 0.00030206662
0.00014445031 0.0014599641 0.00030414879
0.00017535103 -0.0014580763 0.00031848918
0.0024392628 -0.0014576038 0.00032207984
-0.0015611014 5.7582092e-05 0.00032860867
-0.001810604 0.00067743659 0.0003266111
0.00026847186 0.0014574828 0.00032299865
-0.0013817542 0.0014565338 0.00033020749
-0.0012668495 0.0014559128 0.00033492604
0.00074480893 -0.0014547672 0.00034362866
0.003 -0.00077550852 0.0003418132
-0.0025680137 -0.00066552521 0.00034724278
-0.0024242641 -0.00066765171 0.00034355946
-0.0021675802 0.0014526187 0.00035994928
-0.0015603779 -0.0014526098 0.00036001732
-0.0028275268 0.0013136023 0.0003675686
0.0012353242 0.0014523366 0.00036209411
-0.002544156 -0.0014507109 0.0003744424
0.0025617681 -0.0013862816 0.0003793372
0.003 -0.0008603087 0.0003799636
-0.003 -0.00081408414 0.0003701908
0.003 0.00046852964 0.00037431406
0.0020052954 0.0014492713 0.00038537834
-0.0017303913 -0.00048644611 0.00039111564
-0.0016239359 0.00018781224 0.00039977391
0.00090708781 0.0014466686 0.00039358553
-0.0011480679 -0.0014415382 0.00040596892
-0.0026882256 0.0014435591 0.00040109103
-0.003 -0.0010673559 0.00041670891
-0.0023069344 -0.00062515517 0.00041716779
0.003 0.00072066754 0.00041164496
-0.0023663307 0.00061829295 0.00042905397
-0.0021552562 0.00061879854 0.00042817809
-0.0024960809 0.0014345829 0.00042275595
0.0023234754 -0.0014308551 0.00043175332
-0.003 -0.00071307953 0.00043495942
-0.00031677558 0.0014300171 0.00043377621
-0.0020774892 -0.0014268595 0.0004413971
-0.0025254053 0.0014242098 0.0004477927
-0.0016137044 -0.001420144 0.00045760602
0.0027160826 -0.0011902865 0.00045266355
-0.0028734731 0.00060414791 0.0004535545
-0.0020479837 0.001422227 0.00045257868
0.0023716157 0.0014229582 0.00045081356
-0.0016553069 -0.00015951181 0.000469797
0.003 0.00085244351 0.00046846841
0.00031458325 -0.0014109362 0.00047982988
-0.0013478827 0.0014140208 0.00047238506
-0.0028444731 -0.0012454458 0.00048826853
0.0026158136 -0.001281784 0.00049155561
-0.0029440452 -0.000578532 0.00049792381
-0.0017023131 -0.00029008364 0.00050309993
-0.0028442713 0.00057575689 0.0005027306
-0.0019027212 0.00057363289 0.00050640968
-0.0028397427 -0.00057041144 0.00051198935
-0.0027040346 -0.00057086581 0.00051120244
-0.00028306825 -0.0013917914 0.00052603782
-0.00020220548 -0.0013918694 0.00052584987
-0.0026488057 -0.0005656053 0.00052031426
-0.0028897896 0.0011832026 0.00052105024
0.0018462887 0.0013934256 0.00052209344
0.0029659416 -0.00088164199 0.00053508469
-0.0022686152 0.00055838126 0.00053282693
-0.0013602944 0.0013843402 0.00054402242
-0.00074287411 -0.0013800103 0.00055447296
-0.002571201 -0.0013778 0.00055980764
-0.003 -0.00073227531 0.00055521802
-0.0019669959 0.0013795281 0.00055563689
-0.0008512279 -0.0013745392 0.0005676783
0.00076748093 -0.0013752835 0.00056588202
0.0024768109 -0.0013756079 0.00056509872
-0.003 0.00064610317 0.00056558923
-0.00036484256 0.0013754134 0.00056556822
-0.00064529281 -0.0013709953 0.00057623151
-0.0027753045 -0.00053174898 0.00057895674
-0.00025377894 -0.0013689653 0.00058113137
0.0003029833 -0.0013669339 0.00058603421
-0.0017822371 -0.00041370667 0.000581339
-0.0004598712 0.0013692876 0.0005803536
0.0017463282 0.0013660598 0.00058814423
-0.0021116014 -0.0013641138 0.00059284101
-7.0917966e-05 0.0013598453 0.00060314348
-0.0025465549 0.00051337742 0.00061077811
-0.0014903335 0.0013557842 0.00061294559
-0.00039654109 0.0013562663 0.00061178178
-0.0029170925 -0.00050603796 0.00062349089
0.0016775046 0.0013517285 0.00062273408
0.003 -0.00046814969 0.00063315965
0.003 0.00042147315 0.00063769886
0.003 0.00050490786 0.00063105841
-0.0012212468 0.0013466246 0.00063505321
-0.0012305451 -0.0013420733 0.00064603821
0.00099497929 -0.0013438385 0.00064177741
0.0015700328 -0.0013435915 0.00064237381
-0.0018927004 0.00049618504 0.00064055721
-0.0017595233 0.00016903483 0.00065759599
-0.001699612 0.0013378051 0.00065633957
-0.0014773232 0.0013375639 0.00065692217
-0.0024678833 0.000484299 0.00066114502
0.0025354191 0.00129483 0.00066832372
0.00020720101 -0.0013286474 0.00067844329
-0.0023628462 0.00047917553 0.0006700193
-0.00037717947 0.0013298875 0.00067544996
-0.0028488284 -0.0011530583 0.00068726559
0.0027492582 -0.0010338497 0.00068961619
-0.0025800189 -0.00046965395 0.00068651169
0.00028835621 0.0013198528 0.0006996697
-0.00031505921 -0.0013170362 0.00070646778
0.0010449205 -0.0013170619 0.0007064059
0.003 -0.0004683529 0.00070595922
-0.0029961106 0.00045923647 0.00070455583
0.00029259981 0.0013181989 0.00070366153
-0.0019966713 -0.00045492902 0.00071201671
-0.003 0.00051879167 0.0007126545
-0.00042672039 -0.0013105887 0.00072202971
0.00027914322 -0.0013084944 0.00072708464
-0.0020764933 0.00045013189 0.00072032597
-0.0019967642 -0.0013060373 0.00073301507
0.0026175259 -0.0011643365 0.00073409884
-0.0023147413 -0.00043890244 0.00073977647
-0.00081984192 0.0013036468 0.00073878467
0.0017720846 -0.0012963887 0.00075340486
-0.0019844237 -0.00040647722 0.00075000001
-0.0020745369 -0.00034156337 0.00075000001
-0.0025272521 -0.00023318247 0.00075000001
-0.0025352302 -7.0902199e-05 0.00075000001
-0.0028603768 -3.3236163e-05 0.00075000001
-0.0021087362 -3.4917117e-05 0.00075000001
-0.0019684471 -3.5650817e-05 0.00075000001
-0.0027041428 6.3982639e-05 0.00075000001
-0.0019822838 0.00025985244 0.00075000001
-0.0019779874 0.0002537079 0.00075000001
0.0016083468 -0.0012890152 0.00076301862
0.0025075465 -0.001280386 0.00076197437
-0.0030000005 0.00037560792 0.00076398352
0.0019945966 0.0012845829 0.00076879736
0.0023917574 -0.0012806798 0.00077388616
0.0007831211 -0.0012788447 0.0007762789
0.0024284495 0.001276548 0.00077927363
0.0024172259 0.0012814747 0.00077284977
-0.0010446722 -0.0012711141 0.00078635832
0.003 0.00049804285 0.00078591221
-0.0018218152 0.0012701721 0.0007875865
-0.001291063 0.0012720858 0.00078509131
-0.0024986309 -0.0012633307 0.00079650641
0.0023062197 0.001267515 0.00079105078
-6.7118053e-05 0.001260599 0.00080006837
-0.003 0.00056012598 0.00081483833
-0.003 -0.00051042513 0.00082765083
-0.0022817014 0.0012409138 0.00082573399
-0.0012354973 -0.0012244734 0.00084716943
0.0026358049 -0.001055568 0.00084612955
0.003 0.00013913878 0.00084111432
-0.001159229 0.001225697 0.00084557396
-0.00020954038 0.001224449 0.00084720092
-0.0023691922 -0.0012215417 0.0008509917
-0.0025265827 -0.0012178528 0.00085580128
0.0029265494 -0.00062990678 0.00085812702
0.0020568541 0.0012180434 0.00085555296
-0.0011092034 -0.0012132056 0.00086186029
-0.00045551517 -0.0012104723 0.00086542417
-0.0016471861 0.0012129655 0.00086217368
-0.001005864 0.0012133654 0.00086165208
-0.0012047578 -0.0011947966 0.00088586233
0.001825184 -0.0011936789 0.00088731974
-0.0014182472 -0.0011904257 0.00089156133
0.0016506938 -0.0011874423 0.00089545111
-0.003 0.00016448274 0.0008957269
-0.0018951851 0.0011886139 0.00089392334
-0.0013813336 0.0011879237 0.0008948234
0.0011924817 0.001189391 0.00089291029
-0.003 0.00020523001 0.00090601272
-0.001715482 0.0011812274 0.00090355438
0.0029339548 -0.00054529344 0.00091378391
0.00029923499 -0.001163105 0.00092718244
-0.00060845318 0.0011662331 0.00092310406
0.0015786408 0.0011669276 0.00092219858
-0.0011622775 -0.0011585124 0.00093317044
-0.00026790632 -0.0011577968 0.00093410345
0.0029822185 -0.00037615385 0.00093637581
0.0029580155 0.00043540646 0.00093780673
0.0016213451 0.0011555929 0.00093697698
0.00045872878 -0.0011459523 0.00094954652
0.00092532195 -0.0011492608 0.00094523281
0.002169695 -0.0011456907 0.00094988762
-0.0029952885 0.0007178277 0.0009465777
-0.0023443212 -0.0011380449 0.00095985638
0.00059469341 0.0011446266 0.00095127505
-0.001286651 -0.0011320771 0.00096763711
0.003 4.6546869e-05 0.00097935204
0.0028737234 0.00056359661 0.00097500422
-0.0018639828 0.0011250083 0.00097685365
-0.0024383881 -0.0011157106 0.00098897633
-0.0023361687 0.0011154257 0.00098934746
0.00076716836 0.0011205476 0.00098266941
-0.0015288723 -0.0011123018 0.00099342049
0.0020887377 -0.0011133214 0.00099209137
-0.0016067942 -0.0011076892 0.00099943473
-0.003 -0.00043287012 0.00099298707
-0.0024625156 0.0011123542 0.00099335227
0.0002819857 0.0011145228 0.00099052489
-0.002223104 -0.0011042687 0.0010038943
0.00071267108 -0.0011072537 0.0010000024
-0.0027992879 0.00096618885 0.0010009832
-0.0005142318 0.0011067839 0.001000615
0.0029215005 -0.00033951743 0.0010167059
0.0026461671 0.00086805678 0.0010258191
0.0025926325 0.00095217617 0.0010281921
5.3517822e-05 0.0010898116 0.0010227438
0.002674144 -0.00081291253 0.0010331566
0.00051092135 0.0010828912 0.0010317666
0.0010196532 0.0010838998 0.0010304516
0.0012906882 0.0010804776 0.0010349136
0.0020402386 -0.0010747606 0.0010423675
-0.0027776954 -0.00094083877 0.0010473991
0.0027378926 0.00069411873 0.0010446159
-0.0025157388 0.0010731248 0.0010445003
-0.0010144429 0.0010739951 0.0010433656
-0.0027189536 -0.0010234757 0.0010574368
-0.003 -0.00012411081 0.0010628597
-0.0029629918 -0.00059868832 0.0010725275
-0.0024393939 0.001036446 0.0010793024
0.0027910892 -0.00052449474 0.001080035
-0.0025717993 0.0010264562 0.001086964
0.0005535665 0.0010304886 0.0010838716
0.0010433476 -0.0010142353 0.0010963373
0.00037038419 0.0010171778 0.0010940805
-0.0027554412 0.00090253615 0.0011046268
-0.00074971572 -0.00099587243 0.0011104214
-0.0027999049 -0.00081709307 0.0011145507
0.0028553016 0.00021637503 0.0011162033
-0.0029998249 0.00039768848 0.001116227
0.002129986 0.00099619187 0.0011101763
0.00011558021 -0.00098310912 0.0011202105
0.0017460447 -0.00097348541 0.0011275916
0.0020553696 -0.00097315275 0.0011278469
0.00041823063 0.00097444386 0.0011268567
0.00064821856 0.00097252312 0.0011283297
-0.0017978952 -0.00096616545 0.001133206
-0.00023737301 -0.0009650244 0.001134081
-0.00074289087 -0.00094545318 0.0011490919
0.00045325747 -0.00094483129 0.0011495687
-0.0025442925 -0.00094107841 0.0011524472
0.00098766678 -0.00093323103 0.0011584659
0.0025942109 -0.00078565744 0.001153936
-0.0029759961 -0.00036065833 0.0011571314
-0.0010174296 -0.00092814985 0.0011623631
-0.0023629104 -0.00091974717 0.0011688076
0.0026086327 -0.0007520892 0.0011616624
0.0026600615 0.00065487484 0.0011666388
-0.0017000895 0.0009198623 0.0011687194
0.0015606941 -0.00091632653 0.0011714313
-0.0017351225 -0.00090595888 0.0011793831
0.0018129956 -0.00090943807 0.0011767145
0.0028239309 4.4685654e-05 0.0011701868
0.0021014013 -0.00090055325 0.0011835289
0.00024831714 -0.0008977619 0.0011856699
0.0021127285 0.00090105738 0.0011831423
0.00018914486 -0.00087913783 0.0011999542
0.0016682564 0.00087924354 0.001199873
0.0020104838 0.00088320329 0.001196836
-0.0017289183 -0.00087582733 0.0012024932
-0.0018893295 -0.00086983381 0.0012070902
0.0025267533 0.00083489215 0.0012004619
-0.00088087085 0.00086747447 0.0012088998
-0.0025205184 0.00087507529 0.00120307
0.00056047441 0.0008779568 0.0012008601
-0.00016576154 -0.00085382443 0.001219369
-0.0018096179 -0.00084193388 0.0012284889
0.002297431 -0.0008403653 0.0012296919
-0.0022988182 0.0008409787 0.0012292214
0.0014973612 0.00084990356 0.0012223761
0.0020452796 -0.00083021837 0.0012374745
-0.0029338356 0.00018860791 0.0012348242
-0.0014002681 -0.000821503 0.0012441588
0.0017092477 -0.00081718242 0.0012474726
0.0025896709 0.00064711529 0.00124539
-0.0021854001 0.0008191276 0.0012459807
-0.00041041424 0.00082432583 0.0012419939
0.002714491 -0.00025867167 0.0012514547
-0.00069167645 -0.00080068671 0.0012601245
0.0014101312 -0.00078988529 0.001268409
-0.001559887 0.00078889326 0.0012691699
-0.00073112152 0.00079448597 0.0012648803
0.0006112408 -0.00078357768 0.0012732467
0.001182473 -0.00078706071 0.0012705753
0.0025077956 -0.0007614955 0.0012804426
-0.0025849564 0.00077466189 0.0012800851
-0.0025133693 0.00077075185 0.0012830838
-0.0022871457 -0.00074858649 0.0012995858
0.00027545824 -0.00074984127 0.0012990659
-0.0028668223 -0.00024788792 0.0012940377
-0.00015774978 0.00075905008 0.001292059
0.0020192545 0.00075011386 0.0012989128
0.0022047709 0.00076156971 0.0012901264
-0.00082113 -0.00073940004 0.0013033919
-0.00075721723 -0.00073058379 0.0013070444
-0.0011866274 0.0007269319 0.0013085577
0.0014889451 0.00072529819 0.0013092345
0.0021903729 0.00073886669 0.0013036128
-0.00080262678 0.00074086525 0.0013027848
-0.00024316765 -0.00071248226 0.0013145442
-0.0014334955 -0.00070076837 0.0013193976
0.00086912094 -0.00070856413 0.0013161676
0.0026380087 0.00035768255 0.0013134293
0.00074584334 0.00071420084 0.0013138324
-0.0017585558 -0.00068230013 0.0013270493
-0.0020782638 -0.00067686243 0.0013293022
0.0024569677 -0.00067925797 0.0013283098
0.0016259979 0.00068043009 0.0013278241
0.0020472389 -0.00067275524 0.0013310038
0.0012885673 -0.00066807924 0.0013329413
-0.0010172448 -0.0006559043 0.0013379856
-5.6662444e-05 0.00065381237 0.0013388522
0.0018958275 0.00065155351 0.0013397882
-0.00010509885 0.00066934212 0.0013324181
0.00016330338 0.00066771405 0.0013330926
0.0015830811 0.00066915498 0.0013324955
0.0022226779 0.00066239579 0.0013352961
0.00038379623 -0.00064592867 0.0013421187
-0.0025279252 0.00064886751 0.0013409011
0.00025116207 -0.00061297673 0.0013557712
-0.0021158045 0.00060330151 0.0013597799
0.00057367998 0.00060470711 0.0013591974
0.0020645815 0.00060886587 0.0013574744
-0.0016366313 0.00062513381 0.0013507343
0.00062781549 0.00062504224 0.0013507722
-0.0015085193 -0.00059186912 0.0013645164
0.0014794427 -0.00059343956 0.0013638658
-0.0019242858 -0.00058349891 0.0013679843
-0.0028185965 5.3404176e-05 0.001367874
8.4291103e-05 0.00058224448 0.0013685041
0.002053747 -0.00056370097 0.0013761871
-0.0021042919 -0.00055819168 0.0013784695
0.0026121598 0.00013470465 0.0013701088
0.0017075107 0.00055956305 0.0013779015
0.00081805361 0.00056503742 0.0013756333
0.00084497855 0.00056719553 0.0013747392
0.0021099087 0.00057678163 0.0013707676
0.00088469399 -0.00054591766 0.001383555
0.00095092278 -0.00053721044 0.0013871624
0.0012255234 -0.00053595047 0.0013876845
0.0025821978 0.00025790822 0.0013838531
-0.00014026505 0.00054017128 0.0013859357
-0.0023682346 0.00055226433 0.0013809254
-0.0016719998 -0.00052492361 0.0013922532
-0.00062398531 0.00052735029 0.0013912477
-0.0011015221 0.00048424359 0.0014091075
0.0010259533 0.00049363903 0.001405215
0.00087740924 0.00050002756 0.001402568
0.00016658325 -0.00047659219 0.0014122778
0.0018658069 -0.00046820889 0.0014157511
-0.00068882201 -0.00045995184 0.0014191722
0.0015167631 -0.00045807479 0.0014199497
0.0025474287 -0.0002593415 0.0014184335
-0.00055410259 0.00047714575 0.0014120482
-0.0006177373 -0.0004486634 0.001423849
0.0010933767 0.0004382169 0.0014281772
0.00089550368 0.00044359436 0.0014259493
0.0021846374 0.00044678221 0.0014246284
-0.0022644629 0.00045003588 0.0014232803
-0.0016696971 -0.00043381006 0.001430003
-0.00021558214 -0.00043054586 0.0014313556
-0.00011104644 0.00042319522 0.001434401
0.0014060799 -0.00038161626 0.0014497667
0.0025055248 -0.00036995375 0.0014457774
-0.0027453899 -4.9879542e-05 0.0014415446
0.00095806416 0.00039065644 0.0014478824
0.0024990055 -0.00037517663 0.0014506144
-0.0017009585 -0.00035430281 0.0014533621
0.0021653306 -0.00033989386 0.0014552587
0.00036600127 -0.00032193697 0.0014576225
-0.0016475585 -0.00031358583 0.0014587217
-0.00049794355 -0.00031633204 0.0014583602
0.0016485027 -0.00030734716 0.0014595429
0.0019283057 0.00032248659 0.0014575501
-0.00030848684 0.00034108921 0.0014551013
0.0016804503 0.00034833525 0.0014541475
-0.00084779842 0.00035959377 0.0014526657
0.0020437972 0.00035476923 0.0014533006
-0.001026636 0.0003753785 0.0014505878
0.0024580592 -0.00029681981 0.0014609287
0.0019008685 -0.00027089281 0.0014643415
0.00029430725 -0.00025022592 0.001467062
0.00033842993 -0.00025187514 0.0014668448
0.0023770256 -0.00025223909 0.001466797
0.0024384628 -0.00024527888 0.0014677132
0.00083812868 -0.00022963704 0.0014697722
3.382075e-05 0.00023579318 0.0014689619
0.0022591006 0.00023424943 0.0014691652
-0.0013624819 0.00029313209 0.0014614142
0.00035979727 0.00029065902 0.0014617398
-6.7568661e-05 -0.00022552771 0.0014703132
0.0024212629 -0.00021867205 0.0014712155
-0.0012710121 -0.00020542156 0.0014729598
-0.0017401251 -0.00016278679 0.0014785718
0.0013452501 -0.00016855115 0.0014778131
0.00020365519 0.00017876862 0.0014764682
-0.0025777933 0.00018309485 0.0014758987
-0.00033813491 0.00018261862 0.0014759615
-0.000229383 0.00018931396 0.00147508
0.0019540943 0.00021451883 0.0014717622
0.0021784182 0.00021788424 0.0014713192
-0.00097080355 -0.00014486902 0.0014809305
0.0024530352 -0.00014011103 0.0014815567
0.0019084013 -0.00013638199 0.0014820476
0.0015288075 -0.00011002257 0.0014855175
0.00025039222 -0.000105613 0.0014860979
0.0016850462 -0.00010416056 0.0014862891
0.0012112759 -9.8669429e-05 0.0014870119
2.6110591e-05 -8.3773884e-05 0.0014889726
0.0018414984 -8.8731569e-05 0.0014883202
-0.0023178968 9.8429045e-05 0.0014870436
-0.0014977807 0.00010601583 0.001486045
-0.0020194845 0.00012554393 0.0014834743
0.0019657996 0.000123864 0.0014836956
0.0015917813 0.00013723325 0.0014819356
0.00093978614 0.00014011191 0.0014815567
-0.0014664073 -7.0877606e-05 0.0014906701
0.0019460971 -7.4542331e-05 0.0014901878
-0.0020979561 -6.7147143e-05 0.0014911612
0.0010972734 -5.4704054e-05 0.0014927993
-0.00022849433 -3.8184997e-05 0.0014949738
-7.7083321e-05 -3.7656861e-05 0.0014950432
-0.002293888 1.2103762e-06 0.0014998408
-0.0011239523 5.3208191e-06 0.0014992995
0.0021038419 3.4624885e-05 0.0014954422
0.00082812802 4.2019772e-05 0.0014944689
0.0011257328 4.9725546e-05 0.0014934546
-0.0021901331 6.3544154e-05 0.0014916355
