# .PCD v0.7 - Point Cloud Data file format
VERSION 0.7
FIELDS x y z
SIZE 4 4 4
TYPE F F F
COUNT 1 1 1
WIDTH 999
HEIGHT 1
VIEWPOINT 0 0 0 1 0 0 0
POINTS 999
DATA ascii
0.0023628334 -7.3646857e-05 -0.0014903058
0.00012459535 -5.2763848e-05 -0.0014930546
0.0016389097 -3.5041496e-05 -0.0014953874
-0.00022317759 -1.3395162e-06 -0.0014998238
-0.00099552167 5.1214494e-05 -0.0014932585
0.00053868728 6.105721e-05 -0.0014919628
0.00030759463 -0.00012283181 -0.0014838313
0.001750512 -0.0001236557 -0.0014837228
0.00031863144 -9.6955329e-05 -0.0014872375
-0.00072356744 -7.791735e-05 -0.0014897436
0.0024370984 -7.7966659e-05 -0.0014897371
0.000387131 7.8432589e-05 -0.0014896758
0.0014952138 9.7833756e-05 -0.0014871219
0.0021970463 9.6759919e-05 -0.0014872634
-0.0023842056 0.000138237 -0.0014818035
-0.0023583947 0.00013982614 -0.0014815944
0.0022201233 0.00013021808 -0.0014828591
-0.0011140065 0.00014456669 -0.0014809702
-0.0013977652 -0.00022526429 -0.0014703479
0.00079422403 -0.00022432275 -0.0014704717
0.00070856826 -0.00021954431 -0.0014711006
0.0014819908 -0.00017346273 -0.0014771667
0.0021065217 -0.000158372 -0.0014791529
-0.001148309 0.00018820593 -0.0014752259
-0.0017223052 -0.00028123212 -0.0014629805
0.0018294726 -0.00028924557 -0.0014619257
0.0021200548 -0.00025069009 -0.001467001
-0.0010226612 -0.00024571281 -0.0014676561
-0.00026913133 -0.0002353344 -0.0014690221
-0.0016392027 -0.0002285097 -0.0014699206
-0.00078434387 -0.00022857309 -0.0014699122
-0.0010221699 0.00024232727 -0.0014681019
-0.0015557237 0.00025943987 -0.0014658492
-0.0025441558 -0.00037444234 -0.0014507109
-0.0015603774 -0.00036001723 -0.0014526098
0.00074480887 -0.00034362861 -0.0014547672
0.0024392628 -0.00032207978 -0.0014576038
0.00017535103 -0.0003184891 -0.0014580763
-0.0014797157 -0.00030873471 -0.0014593602
-0.0020398374 0.00031960267 -0.0014579297
-0.00049273303 0.00031643384 -0.001458347
-0.0015018734 0.00032258042 -0.0014575378
0.00025845849 0.00032558307 -0.0014571425
-0.0011123094 0.00036829227 -0.0014515206
3.2987151e-05 0.0003626926 -0.0014522577
0.00026210136 0.00036036989 -0.0014525634
0.001523606 0.00036106477 -0.0014524719
-0.0017138892 0.00037065434 -0.0014512097
-0.0011480678 -0.00040596887 -0.0014415382
0.0025396801 -0.00014228011 -0.0014415911
-0.0012469513 0.00039570258 -0.0014457916
0.0021229847 0.00040888033 -0.0014403319
0.002323475 -0.00043175332 -0.0014308551
-0.0016137043 -0.00045760593 -0.001420144
-0.0020774892 -0.00044139702 -0.0014268595
0.0004662775 0.00043437679 -0.0014297683
0.0019173722 0.00043817927 -0.0014281927
0.0003145833 -0.00047982979 -0.0014109362
0.00099702994 0.00046085712 -0.0014187971
-0.00047124943 0.00047605307 -0.0014125012
0.0010517366 0.00048301133 -0.0014096182
0.0012747021 0.00049517513 -0.0014045786
0.00063281192 0.00050116022 -0.0014020987
-0.00028306825 -0.00052603777 -0.0013917914
-0.00020220537 -0.00052584981 -0.0013918694
0.00015749932 0.00052746641 -0.0013911997
-0.00074287405 -0.00055447291 -0.0013800103
0.0025617676 -0.00037933714 -0.0013862816
0.0025779447 0.00030845226 -0.0013814527
0.0010116672 0.00053408038 -0.0013884592
0.0018165385 0.00054205564 -0.001385155
0.0019372567 0.00054169656 -0.0013853038
-0.00064529257 -0.00057623145 -0.0013709953
-0.00085122779 -0.00056767825 -0.0013745392
0.00076748087 -0.0005658819 -0.0013752835
0.0024768107 -0.00056509866 -0.0013756079
-0.002571201 -0.00055980758 -0.0013778
0.0012108419 0.00056613702 -0.0013751776
-0.0021116014 -0.00059284095 -0.0013641138
-0.00025377882 -0.00058113137 -0.0013689653
0.0003029833 -0.00058603421 -0.0013669339
-0.001230545 -0.00064603821 -0.0013420733
0.00099497905 -0.00064177741 -0.0013438385
0.0015700327 -0.00064237369 -0.0013435915
0.0026116583 0.0003415441 -0.0013433781
0.00011547363 0.00066750601 -0.0013331788
0.00020720101 -0.00067844323 -0.0013286474
-0.00042672039 -0.00072202965 -0.0013105887
-0.00031505921 -0.00070646778 -0.0013170362
0.0010449206 -0.00070640579 -0.0013170619
0.0026556421 -0.00025806823 -0.0013103874
-0.0007615136 0.00070071808 -0.0013194185
-0.0026821152 0.00071739592 -0.0013125085
-0.001996764 -0.00073301507 -0.0013060373
0.00027914322 -0.00072708452 -0.0013084944
0.00050836091 0.00072914554 -0.0013076405
-0.0014000204 0.00073364197 -0.0013057775
-0.0012468207 0.00073978602 -0.0013032319
-0.0010328012 0.00073618407 -0.0013047243
0.0021350505 0.00074698793 -0.0013002481
0.0017720844 -0.00075340481 -0.0012963887
0.00027918804 0.00075249939 -0.0012970832
0.0020409599 0.00075582508 -0.0012945323
0.0023917572 -0.00077388616 -0.0012806798
0.0016083467 -0.00076301856 -0.0012890152
0.0025075462 -0.00076197443 -0.001280386
0.0026158134 -0.00049155555 -0.001281784
-0.0025107039 0.00076591136 -0.0012867965
-0.0014712437 0.00076999463 -0.0012836647
-0.00073784281 0.00076700584 -0.0012859572
0.00066740095 0.00076180283 -0.0012899477
-0.0010446721 -0.00078635832 -0.0012711141
0.00078312098 -0.0007762789 -0.0012788448
0.0017097524 0.00078763202 -0.0012701373
-0.0024986307 -0.00079650636 -0.0012633307
-0.0029192101 -8.7693596e-05 -0.0012627355
-0.00018741107 0.00079887669 -0.0012615129
0.0027208901 -0.00017630775 -0.0012559016
0.0026252626 0.0005351592 -0.0012535772
0.0026090781 0.00056315685 -0.001259347
-0.0011649866 0.00080920884 -0.0012535882
-0.0028444729 -0.00048826844 -0.0012454458
-0.0029175694 0.00024838341 -0.001243207
-0.0013933197 0.00082411314 -0.0012421571
0.00013602948 0.00083816412 -0.0012313803
-0.002369192 -0.0008509917 -0.0012215418
-0.0012354971 -0.00084716937 -0.0012244734
-6.2781335e-05 0.0008416769 -0.0012286861
0.00058730558 0.00084153487 -0.001228795
0.0011006411 0.00084435986 -0.0012266282
0.00046927179 0.00085280481 -0.0012201512
-0.0011092032 -0.00086186029 -0.0012132056
-0.00045551517 -0.00086542417 -0.0012104723
-0.0025265825 -0.00085580128 -0.0012178529
-0.0029732492 0.00011444432 -0.0012051718
-0.0029479347 0.00030981304 -0.0012047515
0.00010713733 0.00086813763 -0.0012083913
0.0011433135 0.000873663 -0.0012041535
-0.0014182468 -0.00089156133 -0.0011904257
-0.0012047578 -0.00088586233 -0.0011947968
0.0018251837 -0.00088731974 -0.0011936789
0.0027160824 -0.00045266352 -0.0011902865
-0.001938932 0.00088224345 -0.0011975724
0.0016506937 -0.00089545111 -0.0011874423
0.0024944779 0.00090976083 -0.0011764672
-0.0018472756 0.00091568031 -0.0011719271
-0.0012459127 0.00091044459 -0.0011759427
0.00029923499 -0.0009271825 -0.001163105
0.0026175256 -0.00073409878 -0.0011643365
0.0025577177 0.00083163742 -0.0011642615
-0.0015676842 0.00092649704 -0.0011636307
0.00018794752 0.00092907279 -0.0011616554
-0.0011622773 -0.00093317049 -0.0011585125
-0.00026790632 -0.00093410356 -0.0011577969
-0.0028488282 -0.00068726548 -0.0011530583
-0.0029999998 0.00010736057 -0.0011536337
-0.0028745376 0.00062051491 -0.0011583839
0.00045872873 -0.00094954652 -0.0011459524
0.00092532183 -0.00094523281 -0.0011492609
0.002169695 -0.00094988768 -0.0011456907
0.0026652524 0.00067633443 -0.0011490164
0.00048796347 0.00095599209 -0.0011410089
-0.0012866508 -0.00096763723 -0.0011320773
-0.002344321 -0.00095985644 -0.0011380449
-0.003 0.00010337326 -0.0011321929
-0.0015288723 -0.0009934206 -0.0011123018
0.0020887374 -0.00099209161 -0.0011133215
-0.0024383881 -0.00098897645 -0.0011157106
-0.0022231035 -0.0010038944 -0.0011042687
0.00071267097 -0.0010000026 -0.0011072537
-0.0016067942 -0.00099943473 -0.0011076892
0.0026098469 0.00082396355 -0.0011050061
-0.0012738589 0.0010068596 -0.0011019945
0.0017164078 0.0010008517 -0.0011066026
-0.0029999998 -0.0002985629 -0.0010992218
0.002798402 0.0004617091 -0.0010981921
0.0015250338 0.0010319779 -0.0010827294
0.0020402379 -0.0010423677 -0.0010747607
-0.00044412506 0.0010361183 -0.0010795541
-0.00077834475 0.0010463095 -0.0010717375
-0.0029999998 -0.00041670885 -0.0010673559
0.0022497438 0.0010542292 -0.0010656632
0.0026358047 -0.00084612949 -0.001055568
0.0012380384 0.0010723029 -0.0010455722
0.0027492582 -0.00068961614 -0.0010338497
-0.0028959198 0.00076310214 -0.0010360677
-0.0018019141 0.0010792036 -0.0010365751
-0.00014428711 0.0010781961 -0.0010378886
-0.0021284751 0.0010809171 -0.0010343411
-0.0017614223 0.0010841014 -0.0010301892
-0.0027189534 -0.0010574368 -0.0010234758
0.0010433476 -0.0010963375 -0.0010142354
-0.0029999998 0.0005406139 -0.0010108189
0.00032833457 0.0010941522 -0.0010170847
-0.0029999998 0.00030501015 -0.0010078617
-0.0007497156 -0.0011104214 -0.00099587254
0.0029736927 -0.0002118136 -0.0009984005
0.0019877036 0.0011088083 -0.00099797559
-0.0016551194 0.0011114944 -0.00099447358
0.00011558021 -0.0011202106 -0.00098310923
-0.003 0.00061882014 -0.00098748796
0.0017460445 -0.0011275917 -0.00097348558
0.0020553696 -0.001127847 -0.00097315281
0.0029999998 -5.2319392e-05 -0.00097190181
0.0013626408 0.0011277976 -0.00097321684
-0.0017978951 -0.001133206 -0.00096616551
-0.00023737301 -0.0011340812 -0.00096502452
0.0026433493 0.00096012687 -0.00095827598
-0.001658306 0.0011431172 -0.00095324311
-0.0025442922 -0.0011524473 -0.00094107859
-0.00074289081 -0.0011490919 -0.00094545336
0.00045325735 -0.0011495688 -0.00094483141
-0.002777695 -0.0010473992 -0.000940839
-0.00176642 0.001150878 -0.00094312447
0.00098766678 -0.0011584659 -0.00093323109
-0.0011655365 0.0011576113 -0.0009343453
0.00022567464 0.001156854 -0.00093533279
-0.0010174296 -0.0011623631 -0.00092814997
0.001560694 -0.0011714314 -0.00091632665
-0.0023629102 -0.0011688079 -0.00091974728
0.0028518864 0.00067858462 -0.00091406598
0.0022257934 0.0011717965 -0.00091585045
0.0021014011 -0.0011835292 -0.00090055331
-0.0017351223 -0.0011793831 -0.00090595894
0.0018129954 -0.0011767147 -0.00090943818
0.0016714904 0.0011777864 -0.00090804067
0.00024831714 -0.0011856699 -0.00089776196
-0.0028857922 0.00095085183 -0.00089056563
-0.0026587003 0.0011840842 -0.00089982949
5.3974392e-05 0.0011840842 -0.00089982949
-0.00064208033 0.001190373 -0.00089163007
0.0029659411 -0.00053508463 -0.00088164199
-0.0029999998 0.00066106539 -0.00088693434
-0.00030009117 0.0011939119 -0.00088701613
-0.0017289181 -0.0012024933 -0.00087582745
0.00018914486 -0.0011999542 -0.00087913789
0.0027277998 0.00092154741 -0.00087098451
-0.00076814351 0.0012026379 -0.00087563874
-0.00037079764 0.0012014571 -0.00087717833
0.0015367928 0.0012017528 -0.00087679282
-0.0018893293 -0.0012070902 -0.00086983386
0.0029999998 -0.00037996355 -0.0008603087
-0.00058255985 0.0012117692 -0.00086373335
0.0017511817 0.0012109893 -0.00086475018
-0.00016576142 -0.0012193691 -0.00085382455
-0.0015895586 0.001215111 -0.00085937622
-0.0018096179 -0.0012284889 -0.00084193388
0.0022974308 -0.0012296919 -0.00084036536
-0.0026852714 -3.0588591e-05 -0.00084834016
-0.0024884755 -2.8473803e-05 -0.00084956113
-0.0029999998 0.00030498585 -0.00084036821
-0.0012264902 0.0012268687 -0.0008440463
0.0020452794 -0.0012374745 -0.00083021843
-0.0022234803 -4.9305228e-05 -0.00083753443
-0.0014002678 -0.0012441589 -0.00082150305
-0.0029600067 -7.5207048e-05 -0.00082258042
-0.0022986182 6.5248445e-05 -0.00082832994
-0.0029999998 0.00046041494 -0.00082426576
0.0017092475 -0.0012474727 -0.00081718247
-0.0027999044 -0.0011145506 -0.00081709318
0.0026741438 -0.0010331566 -0.00081291265
-0.003 -0.00037019074 -0.00081408414
-0.0022112583 -8.131699e-05 -0.00081905298
-0.0019708616 -8.2410887e-05 -0.00081842142
0.00059555133 0.0012470334 -0.00081775506
-0.0006916764 -0.0012601245 -0.00080068677
-0.00028209566 0.0012681128 -0.00079027127
-0.00010611281 0.0012617646 -0.0007985484
0.00010486241 0.0012674672 -0.00079111318
0.0014884986 0.0012636979 -0.00079602754
0.001835512 0.0012637688 -0.00079593534
0.0023076136 0.0012641507 -0.00079543743
0.0006112408 -0.0012732468 -0.00078357779
0.0011824731 -0.0012705753 -0.00078706077
0.001410131 -0.001268409 -0.00078988529
0.0025942109 -0.001153936 -0.0007856575
-0.00031384942 0.0012744573 -0.00078199938
0.0029999998 -0.00034181317 -0.00077550852
-0.0018025604 0.00015864642 -0.00077440817
-0.0011481675 0.0012796397 -0.0007752424
0.0025077956 -0.0012804426 -0.00076149555
-0.0019244556 -0.00017904965 -0.00076262862
-0.0029638803 0.00017437719 -0.00076532637
-0.0022300424 0.0012867111 -0.00076602254
0.0026086327 -0.0011616624 -0.00075208925
-0.0022670871 0.0012924157 -0.00075858494
-0.0022871455 -0.0012995858 -0.00074858655
0.00027545824 -0.0012990659 -0.00074984133
-0.0027996118 -0.00020567101 -0.00074725924
0.0015472241 0.0013015042 -0.00074395596
-0.00082112994 -0.0013033919 -0.00073940016
-0.00075721706 -0.0013070444 -0.00073058397
-0.0029999998 -0.00055521796 -0.00073227537
0.0025987087 0.0011910987 -0.00072986557
0.0018109753 0.0013112548 -0.00072042207
-0.00024316765 -0.0013145442 -0.00071248238
-0.0029999998 -0.00043495937 -0.00071307953
7.3189811e-05 0.0013147886 -0.00071189262
-0.0014334955 -0.0013193976 -0.00070076849
0.00086912076 -0.0013161676 -0.00070856418
-0.0029999998 0.00057276408 -0.00070126681
-0.0018585597 -0.00030141926 -0.00069198071
-0.0021279717 0.00029155414 -0.00069767621
0.0026766304 0.0011180623 -0.00069814664
-0.0017585555 -0.0013270493 -0.00068230013
-0.0018051632 0.00031019599 -0.00068691355
0.00042976538 0.0013263643 -0.0006839534
0.0020472384 -0.0013310038 -0.0006727553
-0.0020782636 -0.0013293022 -0.00067686249
0.0024569675 -0.0013283098 -0.00067925802
-0.001772072 -0.00018296533 -0.00067710405
-0.0023922636 0.00033598734 -0.00067202334
0.0029999996 0.0006321721 -0.00067024224
0.0022642824 0.0013292653 -0.00067695137
-0.00092787296 0.0013306695 -0.00067356264
0.0012885673 -0.0013329413 -0.0006680793
-0.0025680137 -0.00034724275 -0.00066552521
-0.0024242641 -0.00034355943 -0.00066765171
-0.0010172446 -0.0013379856 -0.00065590441
0.00038379634 -0.0013421187 -0.00064592873
-0.0010842133 0.001342898 -0.00064404786
0.0019318833 0.0013413141 -0.00064787059
-0.0029999998 0.00060039235 -0.00063582481
0.0017214145 0.0013447772 -0.00063951185
0.0029265492 -0.00085812708 -0.00062990689
-0.0023069344 -0.00041716779 -0.00062515517
0.00025116207 -0.0013557712 -0.00061297684
-0.0025645252 0.00043506621 -0.00061482179
-0.0015085192 -0.0013645164 -0.00059186917
0.0014794425 -0.0013638658 -0.00059343962
-0.0029629916 -0.0010725275 -0.00059868838
-0.0022527021 0.0013635204 -0.00059427292
-0.0019242857 -0.0013679843 -0.00058349897
-0.0028397427 -0.00051198935 -0.0005704115
-0.0027040343 -0.00051120244 -0.00057086587
-0.002944045 -0.00049792381 -0.000578532
-0.0029231969 0.0011263348 -0.00057187869
-0.0010568839 0.0013726187 -0.00057231321
0.0020537467 -0.0013761871 -0.00056370103
-0.0026488055 -0.00052031426 -0.0005656053
-0.0021042917 -0.0013784695 -0.00055819168
-0.0020884965 0.00053482858 -0.00055722566
-0.0029999998 0.00099339965 -0.00055269682
0.00088469399 -0.001383555 -0.00054591766
0.0029339544 -0.00091378391 -0.0005452935
0.00095092272 -0.0013871624 -0.00053721049
0.0012255233 -0.0013876845 -0.00053595053
-0.0027753043 -0.00057895674 -0.00053174904
-0.0016719996 -0.0013922532 -0.00052492361
0.0027910892 -0.001080035 -0.00052449486
-0.0029999998 -0.00082765083 -0.00051042513
-0.00091791421 0.0013976884 -0.00051180506
0.0012568991 0.0013967931 -0.00051396585
-0.0029170923 -0.00062349089 -0.00050603796
-0.0028839984 0.001201176 -0.00049273914
0.0025076983 0.0013951858 -0.00049790408
-0.0017303911 -0.00039111564 -0.00048644611
-0.0016589571 -0.00012730023 -0.00048890972
0.00016658312 -0.0014122778 -0.00047659219
-0.0011697052 0.0014143842 -0.00047150778
0.0018658066 -0.0014157511 -0.00046820892
0.0029999998 -0.0007059591 -0.00046835296
-0.0025800187 -0.00068651169 -0.00046965398
0.0029999998 -0.00063315959 -0.00046814969
-0.0016408571 0.0014151119 -0.00046975093
-0.00068882195 -0.0014191722 -0.0004599519
0.001516763 -0.0014199497 -0.00045807488
-0.0019966711 -0.00071201671 -0.00045492905
-0.0027150817 0.00071295857 -0.00045438527
-0.00061773724 -0.001423849 -0.00044866343
-0.0018014795 0.0014252842 -0.0004451994
-0.0016696972 -0.001430003 -0.00043381008
-0.00021558211 -0.0014313556 -0.00043054594
-0.0029999998 -0.00099298707 -0.00043287018
-0.0023147413 -0.00073977647 -0.00043890247
0.0027209092 0.001193597 -0.00043216991
-0.0029999998 0.00087974162 -0.00042289018
-0.0010522295 0.0014320186 -0.0004289452
5.4496886e-05 0.001434024 -0.00042410515
-0.0017822369 -0.000581339 -0.00041370667
-0.0019844235 -0.00075000001 -0.00040647725
0.00094493927 0.0014408627 -0.00040759941
0.00083124841 0.0014441267 -0.00039972091
0.0014060796 -0.0014497667 -0.00038161629
0.0024990053 -0.0014506144 -0.00037517669
0.0029822183 -0.00093637581 -0.00037615388
0.0025055245 -0.0014457774 -0.00036995381
-0.0029759959 -0.0011571314 -0.00036065836
-0.0017009584 -0.0014533621 -0.0003543029
-0.002030574 0.00075000001 -0.00035487206
-0.0020745369 -0.00075000001 -0.00034156337
0.0021653303 -0.0014552587 -0.00033989389
0.0029215002 -0.0010167059 -0.00033951746
0.003 -2.3552187e-05 -0.00033516507
0.00036600127 -0.0014576225 -0.00032193703
0.0029999998 0.00085019291 -0.00032698887
0.00172763 0.0014578135 -0.00032048588
-0.0016475583 -0.0014587217 -0.00031358589
-0.00049794355 -0.0014583602 -0.00031633209
-0.0029999996 0.00099126541 -0.00031699645
0.00033945002 0.0014584232 -0.00031585307
0.0016485024 -0.0014595429 -0.00030734722
0.002458059 -0.0014609287 -0.0002968199
-0.0017023131 -0.00050309993 -0.00029008367
-0.0028151397 0.00075000001 -0.00029777637
0.0019305111 0.0014606119 -0.00029922737
0.0028241486 0.0011381313 -0.00028639138
0.0019008683 -0.0014643415 -0.00027089287
-0.0022129482 0.00075000001 -0.00026900502
0.00029430725 -0.001467062 -0.00025022597
0.00033842982 -0.0014668448 -0.0002518752
0.0023770253 -0.001466797 -0.00025223914
0.0025474285 -0.0014184335 -0.00025934156
0.0027144908 -0.0012514547 -0.0002586717
0.0027789017 0.0011871643 -0.00025765118
0.0022560148 0.0014667723 -0.00025242657
0.0024384623 -0.0014677132 -0.00024527893
-0.0028668223 -0.0012940377 -0.00024788798
-0.0025272521 -0.00075000001 -0.00023318251
-0.0015177708 -0.00010727293 -0.00023580431
-0.0015626376 0.00024588776 -0.00023140764
-0.0011517614 0.0014687541 -0.00023737131
-0.00089332182 0.001468624 -0.00023836042
-6.7568661e-05 -0.0014703132 -0.00022552776
0.00083812838 -0.0014697722 -0.00022963711
0.00073954789 0.001470224 -0.00022620575
0.0024212629 -0.0014712155 -0.00021867211
-0.0012710119 -0.0014729598 -0.00020542163
0.0012936369 0.0014729722 -0.00020532621
-0.00045866074 0.001474352 -0.00019484482
-0.0028268362 0.00075000001 -0.00018919729
-0.0011238323 0.0014751459 -0.00018881366
-0.001505269 -0.00016198331 -0.00017498607
-0.001740125 -0.0014785718 -0.00016278685
0.0013452499 -0.0014778131 -0.0001685512
0.0024096647 0.0014778594 -0.00016819927
-0.0016553068 -0.000469797 -0.00015951184
-0.00097080355 -0.0014809305 -0.00014486906
0.002453035 -0.0014815567 -0.00014011109
0.0029999998 0.00058050069 -0.00014949622
-0.0028185884 0.00075000001 -0.00014601249
0.00064055185 0.0014808852 -0.00014521294
0.0019084011 -0.0014820476 -0.00013638205
-0.001641434 0.00045476531 -0.00013354378
-0.0021110126 0.0014816354 -0.00013951352
-0.0029999996 -0.0010628597 -0.00012411087
0.0003118219 0.001482991 -0.00012921538
0.0015288073 -0.0014855175 -0.00011002264
0.0029999998 0.0009586463 -0.00011500152
0.0002503921 -0.0014860979 -0.00010561306
0.001685046 -0.0014862891 -0.00010416063
-0.0021441791 0.0014861021 -0.00010558005
0.0012112759 -0.0014870119 -9.8669494e-05
0.0029999998 0.00095194316 -9.4733266e-05
-0.0027893991 0.0013920773 -9.1255781e-05
-0.0022861185 0.001488055 -9.0745045e-05
0.0011344926 0.0014881055 -9.0361682e-05
2.6110591e-05 -0.0014889726 -8.377395e-05
0.0018414983 -0.0014883202 -8.8731635e-05
0.0026672597 0.0013216531 -8.4145104e-05
0.0010140159 0.0014892678 -8.1531864e-05
-0.0014664073 -0.0014906701 -7.0877664e-05
0.001946097 -0.0014901878 -7.4542389e-05
-0.0025352298 -0.00075000001 -7.0902213e-05
-0.0028752913 0.0013080915 -7.6786673e-05
-0.0020979559 -0.0014911612 -6.7147208e-05
-0.0024713294 0.0014910599 -6.7917252e-05
0.0010972734 -0.0014927993 -5.4704116e-05
-0.0027453899 -0.0014415446 -4.9879603e-05
-0.0029193037 0.0012687362 -4.1440049e-05
-0.00059261062 0.001494332 -4.3060125e-05
0.0022928377 0.0014934359 -4.9866281e-05
-0.00022849436 -0.0014949738 -3.8185066e-05
-7.708335e-05 -0.0014950432 -3.7656926e-05
-0.0028603764 -0.00075000001 -3.3236207e-05
-0.0021087362 -0.00075000001 -3.4917157e-05
-0.0019684469 -0.00075000001 -3.565085e-05
-0.001115781 0.0014966478 -2.546726e-05
0.0028941107 0.0011042284 -1.2603598e-05
-0.0017461681 0.0014979168 -1.5825621e-05
0.0019894668 0.0014986775 -1.0046335e-05
0.0029999996 -0.00015026151 -2.7759374e-06
-0.0015859109 0.00037789534 -9.7110997e-06
-0.0025977828 0.00075000001 -9.9065901e-06
-0.0029999998 0.0011055918 -3.8493354e-06
-0.0029697404 0.0012226542 -8.3868872e-06
-0.00033718211 0.0014998787 -9.2249059e-07
-0.0022938878 -0.0014998408 1.2103108e-06
-0.0011239522 -0.0014992995 5.3207541e-06
0.0024699504 0.0014996502 2.6579648e-06
0.003 0.00031894911 1.3290824e-05
0.0027805767 0.0012175492 1.4238713e-05
-0.0014722563 0.0014976371 1.7951235e-05
5.7560326e-05 0.0014983464 1.2563058e-05
0.00053452182 0.0014976874 1.7568667e-05
0.0022612656 0.0014986687 1.0114484e-05
-0.0015702815 0.0014971744 2.1466496e-05
0.0021038419 -0.0014954422 3.4624816e-05
0.00044036569 0.0014950522 3.7587255e-05
0.00082812784 -0.0014944689 4.2019703e-05
0.0011257327 -0.0014934546 4.9725484e-05
0.0028239309 -0.0011701868 4.4685599e-05
0.0029999998 -0.00097935204 4.6546826e-05
0.00086129393 0.0014938265 4.6900539e-05
-0.0028185963 -0.001367874 5.3404117e-05
-0.0015611013 -0.00032860867 5.7582074e-05
-0.0029999998 0.0011266986 5.4577355e-05
-0.0021901331 -0.0014916355 6.3544088e-05
-0.0027041424 -0.00075000001 6.3982596e-05
0.0029999998 0.00039376933 6.8588466e-05
-0.0024915123 0.0014916683 6.3296626e-05
0.00065593928 0.0014910107 6.8291345e-05
-0.0010973269 0.001490432 7.2686664e-05
4.0132523e-05 0.0014902495 7.4074087e-05
-0.0023178966 -0.0014870436 9.842898e-05
0.0029999998 0.00053576549 9.2192488e-05
-0.0019878885 0.0014877589 9.2993447e-05
-0.0014977804 -0.001486045 0.00010601576
-0.0018710976 0.00075000001 0.00010152857
-0.0017047791 0.0005694672 0.00011828604
-0.002872752 0.00075000001 0.00011119977
-0.0020194843 -0.0014834743 0.00012554385
0.0019657996 -0.0014836956 0.00012386394
-0.0025643557 0.0014838676 0.00012255643
0.0015917813 -0.0014819356 0.00013723319
0.0026121594 -0.0013701088 0.00013470458
0.0029999996 -0.00084111432 0.00013913875
-0.0028703576 0.0013051165 0.00013694
0.0022285988 0.0014824372 0.00013342255
0.00093978608 -0.0014815567 0.00014011185
-0.0016709693 0.00050432706 0.00014642147
0.0003612354 0.0014806952 0.00014665691
0.0020227851 0.0014794738 0.00015593515
-0.0029999998 -0.0008957269 0.00016448268
-0.0017595231 -0.00065759599 0.00016903481
0.00020365513 -0.0014764682 0.00017876855
0.0025969925 0.0013802588 0.00017281697
-0.0025777931 -0.0014758987 0.00018309479
-0.00033813491 -0.0014759615 0.00018261856
-0.000229383 -0.00147508 0.00018931388
-0.0029338356 -0.0012348242 0.00018860785
-0.0016239355 -0.00039977391 0.00018781221
0.0029999998 -0.0001559925 0.00018494741
0.0029999996 0.00060957659 0.00018605533
-0.00046398951 0.0014746443 0.00019262459
0.0022062236 0.0014741113 0.0001966736
-0.0029999996 -0.00090601272 0.00020522995
0.0013035457 0.0014724255 0.00020948
0.001954094 -0.0014717622 0.00021451878
0.0021784182 -0.0014713192 0.00021788418
0.0028553011 -0.0011162033 0.000216375
-0.0014984334 -8.207895e-05 0.00021029593
-0.00076100591 0.0014713183 0.00021789166
0.0018860793 0.0014700525 0.00022750764
3.382075e-05 -0.0014689619 0.00023579312
0.0022591006 -0.0014691652 0.00023424937
-0.0024070232 0.0014695624 0.00023123127
-4.254681e-05 0.0014687682 0.00023726489
0.0011779955 0.001469272 0.0002334374
-0.0016657276 0.00045536697 0.00024114132
-0.0016826664 0.0004835579 0.00024909052
-0.0010355569 0.0014672569 0.0002487454
0.0011936803 0.0014681702 0.00024180728
0.0016313577 0.00146766 0.00024568383
0.0025821975 -0.0013838531 0.0002579081
-0.0019822835 -0.00075000001 0.00025985244
-0.0019779871 -0.00075000001 0.00025370787
0.0024591377 0.0014654872 0.00026218957
-0.0029429789 0.00075000012 0.00027892692
-0.0016551652 0.0014620721 0.00028813368
-0.001362482 -0.0014614142 0.00029313203
0.00035979727 -0.0014617398 0.00029065894
-0.00015896863 0.0014588905 0.00031230386
0.0015712073 0.0014580294 0.00031884565
0.0019283057 -0.0014575501 0.00032248654
0.0029058158 0.0010375662 0.0003298106
-0.0026442099 0.0014572166 0.00032502081
-0.0018345644 0.00075000001 0.00033552403
0.0025831582 0.0013731638 0.00033180855
-0.00030848684 -0.0014551013 0.00034108915
0.00168045 -0.0014541475 0.00034833519
-0.00084779836 -0.0014526657 0.00035959377
0.0020437969 -0.0014533006 0.00035476917
0.0026380084 -0.0013134293 0.00035768247
0.0029999998 -0.00019447131 0.00036413842
-0.0015826221 4.6862693e-05 0.00036729875
0.0029259608 0.0010025832 0.00036207621
0.00046493218 0.0014520454 0.00036430531
-0.001026636 -0.0014505878 0.00037537841
-0.003 -0.00076398352 0.00037560789
-0.0016687135 0.00036232063 0.0003750321
-0.0012958411 0.0014499841 0.00037996483
-0.0012822028 0.0014509738 0.00037244541
-0.0015577991 0.0014489276 0.00038799128
0.00028681112 0.0014488348 0.00038835767
0.00095806416 -0.0014478824 0.00039065641
-0.0029998245 -0.001116227 0.00039768842
-0.001619618 0.0001853173 0.00039278207
-0.00261009 0.00075000001 0.00041730338
-0.0021679003 0.00075000001 0.00041482112
-0.0021119893 0.00075000001 0.00041595718
-0.002722865 0.0014052322 0.00041754742
-0.00011104641 -0.001434401 0.00042319516
0.003 -0.00063769886 0.00042147312
-0.0026071386 0.0014317029 0.000429707
0.0010933765 -0.0014281772 0.00043821678
0.0029580153 -0.00093780673 0.0004354064
-0.0018064278 0.00074086053 0.00043827662
0.0027817567 0.0011261423 0.00043740406
0.0001980325 0.0014305732 0.000432434
0.00089550368 -0.0014259493 0.0004435943
0.0021846371 -0.0014246284 0.00044678216
-0.0016221406 -7.5110393e-06 0.00044093907
-0.0019031457 0.00073172979 0.00044354805
0.0012076852 0.0014264673 0.00044234403
-0.0022644629 -0.0014232803 0.00045003579
-0.0020764931 -0.00072032597 0.00045013186
-0.0029961104 -0.00070455583 0.00045923644
0.0029999998 -7.5633216e-05 0.00045691361
-0.0018 0.00071061862 0.00045428972
-0.0021703658 0.0014195775 0.00045897326
0.0029999998 -0.00037431408 0.00046852962
-0.0016416792 -7.3814183e-05 0.00046603711
0.003 0.00030235789 0.00046588248
-0.0029032193 0.0011922007 0.00046459562
-0.0023759971 0.0014166227 0.00046610495
-0.00055410253 -0.0014120482 0.00047714569
-0.0023628459 -0.00067001936 0.00047917553
-0.0019453805 0.00068326516 0.00047152827
-0.002630532 0.0014148796 0.0004703122
-0.001101522 -0.0014091075 0.00048424353
-0.0024678831 -0.00066114502 0.000484299
-0.0016822448 0.00024543575 0.00048428774
0.0010259533 -0.001405215 0.00049363903
0.003 -0.00078591227 0.00049804279
-0.0018927003 -0.00064055721 0.00049618504
-0.0028004283 0.00064004771 0.00049647916
0.0018052134 0.0014034638 0.00049786555
0.0020343566 0.001403756 0.00049716042
0.00087740918 -0.001402568 0.0005000275
0.0029999996 -0.00063105841 0.00050490786
-0.0016662623 -7.4637945e-05 0.00050850876
-0.0029999996 -0.0007126545 0.00051879155
-0.0025465547 -0.00061077811 0.00051337742
-0.00062398525 -0.0013912477 0.00052735023
0.0029999998 -0.0001481619 0.00052498316
-0.0029191987 0.0011517829 0.00052079727
-0.0028098999 0.00057707232 0.000532837
-0.0021746845 0.00057267619 0.00053537497
0.002549293 0.0013336207 0.00053876132
-0.00087561965 0.0013878382 0.00053557946
-0.00014026499 -0.0013859357 0.00054017123
0.0001185366 0.0013827172 0.0005479395
-0.0023682343 -0.0013809254 0.00055226428
0.0017075104 -0.0013779015 0.00055956293
-0.0022686149 -0.00053282693 0.00055838126
-0.0025171875 0.00054456008 0.0005516074
-0.0020362842 0.0013790237 0.00055685465
0.00081805355 -0.0013756333 0.00056503731
0.00084497849 -0.0013747392 0.00056719547
0.0028737232 -0.00097500422 0.00056359655
-0.0029999998 -0.00081483833 0.00056012598
-0.0029214784 0.00051466958 0.00056886417
-0.0023928399 0.00052780093 0.00056128303
-0.00034756615 0.0013773943 0.00056078739
0.00064442126 0.0013763574 0.00056328985
0.00071112037 0.0013751274 0.00056625844
0.0021099085 -0.0013707676 0.00057678157
-0.0028442713 -0.0005027306 0.00057575689
-0.001902721 -0.00050640968 0.00057363289
-0.0029999998 0.00067297404 0.00057833013
8.4291103e-05 -0.0013685041 0.00058224442
-0.0020734181 0.00049516588 0.00058012432
-0.0021158042 -0.0013597799 0.00060330145
0.0005736798 -0.0013591974 0.00060470705
0.0020645815 -0.0013574744 0.00060886581
-0.0028734726 -0.0004535545 0.00060414791
-0.002698805 0.0004561845 0.0006026295
0.00018756617 0.0013588839 0.00060546398
-0.0023663307 -0.00042905399 0.00061829295
-0.002155256 -0.00042817809 0.00061879854
-0.0023222433 0.00043068483 0.00061735132
0.00080163241 0.001353432 0.0006186227
-0.0016366312 -0.0013507343 0.00062513375
0.00062781537 -0.0013507722 0.00062504224
0.0010523422 0.0013492421 0.0006287357
0.0029999998 0.00050465134 0.0006398689
-0.0025279252 -0.0013409011 0.00064886751
0.0025896707 -0.00124539 0.00064711529
-0.003 -0.00056558929 0.00064610312
-0.0017856058 0.00031843028 0.00064616953
-0.0027581623 0.00038954438 0.00064110308
0.0026302477 0.0012019449 0.00064688688
0.0012927222 0.0013405249 0.00064977544
-5.6662324e-05 -0.0013388522 0.00065381231
0.0018958272 -0.0013397882 0.00065155345
0.0026600612 -0.0011666388 0.00065487478
-0.0026458197 0.0013370258 0.00065822084
-0.0020246205 0.0013388927 0.00065371499
-0.00010509885 -0.0013324181 0.00066934206
0.00016330338 -0.0013330926 0.00066771405
0.0015830809 -0.0013324955 0.00066915498
0.0022226775 -0.0013352961 0.00066239573
-0.0029999998 0.00084608281 0.00066388905
0.0013526626 0.0013340194 0.0006654773
-0.0018106039 -0.00032661113 0.00067743659
0.0011411202 0.0013284653 0.00067888264
0.002242767 0.0013292399 0.00067701307
0.0016259978 -0.0013278241 0.00068043004
0.0029999998 -0.00024087705 0.00068450265
0.0027378923 -0.0010446159 0.00069411867
-0.0026114339 -0.00030381302 0.00069059862
-0.00053470506 0.0013191311 0.00070141174
0.00074584316 -0.0013138324 0.00071420078
-0.0029952885 -0.0009465777 0.00071782764
-0.0025952724 -0.00026675421 0.00071199395
-0.0023975498 0.00026055577 0.0007155725
-0.0029999998 0.00074819621 0.00071076362
0.0027934306 0.00095825881 0.00071623479
-0.0011866273 -0.0013085577 0.00072693184
0.001488945 -0.0013092345 0.00072529813
0.0029999998 -0.00041164496 0.00072066754
-0.0023380858 0.00023891169 0.00072806841
-0.00016608143 0.0013109724 0.00072110369
0.0021903727 -0.0013036128 0.00073886669
-0.0021586253 -0.0002325759 0.00073172618
-0.00080262678 -0.0013027848 0.00074086525
-0.00015774978 -0.001292059 0.00075905008
0.0020192543 -0.0012989128 0.0007501138
0.002894338 0.00080140459 0.00075630401
-0.0029110829 0.0010249375 0.00075290404
-0.0017101892 0.0012956879 0.00075431861
0.00069580809 0.0012944974 0.00075587066
0.0022047707 -0.0012901264 0.00076156965
-0.0025849561 -0.0012800851 0.00077466195
-0.0025133691 -0.0012830838 0.00077075179
-0.0018629648 0.00015912704 0.00077413069
0.0029999998 0.00029679941 0.00077574508
2.4597408e-05 0.0012821107 0.00077202084
0.00075188733 0.0012800413 0.00077471894
-0.0015598867 -0.0012691699 0.00078889314
-0.0025916507 -0.0001435075 0.0007831484
-0.0021903864 -0.00013988453 0.00078524003
0.0017114937 0.0012750712 0.00078119896
-0.00073112152 -0.0012648803 0.00079448597
0.0010603905 0.0012678988 0.00079055026
-0.0024318525 0.00010984667 0.00080258184
-0.0010489027 0.0012549841 0.00080738903
-0.0021853999 -0.0012459808 0.00081912754
-0.0029975444 8.5548745e-05 0.00081660989
-0.00041041424 -0.001241994 0.00082432583
-0.00059249497 0.0012440226 0.00082168065
0.0023356578 0.0012438168 0.00082194916
0.0025267531 -0.0012004619 0.0008348921
-0.00049629557 0.0012344555 0.00083415449
-0.002298818 -0.0012292214 0.0008409787
0.001497361 -0.0012223762 0.00084990362
0.003 1.1511043e-05 0.00084785075
-0.0025120266 3.2901124e-05 0.00084700505
-0.0021887361 0.0012257278 0.00084553385
-0.0014703465 0.0012274587 0.00084327726
-0.00054984761 0.0012270351 0.0008438293
0.0029999998 -0.00046846844 0.00085244351
-0.00088087079 -0.0012088999 0.00086747447
0.0026461668 -0.0010258191 0.00086805684
-0.0025205181 -0.0012030703 0.00087507529
0.00056047441 -0.0012008601 0.0008779568
0.0016682562 -0.0011998732 0.00087924354
0.0020104838 -0.001196836 0.00088320329
0.0021127283 -0.0011831425 0.00090105738
-0.0027554412 -0.0011046268 0.00090253621
-0.0029999998 -1.3903355e-06 0.00090851285
-0.003 0.00025727594 0.00090872671
-0.00079922506 0.0011831144 0.00090109411
0.000628768 0.0011823396 0.00090210431
-0.0017000894 -0.0011687195 0.00091986236
0.0029999998 -0.00017962475 0.0009190003
-0.0014427879 0.0011666958 0.00092250068
-0.0029999998 0.0006410582 0.00093746476
-0.0022666799 0.0011481082 0.00094673591
0.0025926323 -0.0010281922 0.00095217628
0.0029534628 0.00039404776 0.00095982663
0.00058758364 0.0011391335 0.00095843698
-0.00067590072 0.0011433661 0.00095291861
-0.0027992877 -0.0010009833 0.00096618891
0.00041823063 -0.0011268567 0.00097444392
0.0006482185 -0.0011283298 0.00097252318
0.00036124684 0.0011299143 0.00097045721
-0.0025632316 0.0011176694 0.00098642241
-0.0020284287 0.0011150358 0.0009898562
0.0014651547 0.0011171225 0.00098713557
-0.0026919248 0.0011207787 0.0009823686
0.002129986 -0.0011101763 0.00099619187
-0.00036937755 0.0011099349 0.00099650701
0.0017894006 0.0011086359 0.00099820062
0.0016045504 0.0011119203 0.00099391839
-0.0028960565 0.00080555404 0.0010032295
0.00037038416 -0.0010940805 0.0010171778
-0.0029999998 5.3584561e-05 0.0010188124
-0.0011241772 0.0010930076 0.0010185769
0.0013924444 0.0010991801 0.0010105292
-0.0025717991 -0.0010869643 0.0010264564
-0.0029999998 -0.00023930942 0.0010250675
-0.0012363158 0.0010855115 0.0010283506
-0.00080770033 0.0010879607 0.0010251573
-0.00036052687 0.0010881847 0.0010248653
0.0005535665 -0.0010838716 0.0010304886
-0.0024393937 -0.0010793025 0.0010364461
0.00064527267 0.0010737696 0.0010436598
0.002433086 0.0010739828 0.0010433819
0.002568383 0.000945181 0.0010638564
-0.002652735 0.001057158 0.0010634165
0.00091195625 0.0010589251 0.0010620616
-0.0025157386 -0.0010445004 0.0010731249
-0.0010144428 -0.0010433658 0.0010739953
-0.00091651158 0.0010464316 0.0010716438
0.00051092135 -0.0010317669 0.0010828914
0.0010196532 -0.0010304517 0.0010838999
0.0012906881 -0.0010349137 0.0010804777
5.351779e-05 -0.0010227439 0.0010898116
0.00081100134 0.0010154081 0.0010954381
-0.0005142318 -0.0010006151 0.001106784
-0.0024625154 -0.0009933525 0.0011123545
0.00028198565 -0.000990525 0.0011145229
-0.0023361684 -0.00098934758 0.0011154258
-0.0022542113 0.00099041697 0.0011146056
-0.00036138072 0.00099443994 0.0011115202
0.0007671683 -0.00098266953 0.0011205479
-0.0018639826 -0.00097685389 0.0011250083
-0.0014929557 0.00097611232 0.001125577
0.0009401862 0.00098124193 0.0011216427
-0.00024239911 0.00096027745 0.0011377221
0.00059469335 -0.00095127511 0.0011446266
0.0028258888 -0.00018736719 0.0011494257
-0.0017742906 0.00094588712 0.001148759
-0.0016095163 0.00095252245 0.0011436699
0.0023403803 0.00095289055 0.0011433876
0.0016213447 -0.0009369771 0.001155593
-0.0029999996 -0.00015767502 0.0011569411
-0.00060845318 -0.00092310418 0.0011662331
0.0015786408 -0.00092219864 0.0011669276
0.0015107931 0.00092717458 0.0011631113
-0.0029108778 0.00049363665 0.0011719579
-0.002903692 0.00050314952 0.0011757312
0.00075349252 0.0009165043 0.0011712949
0.00098113017 0.00091329782 0.0011737542
0.0020387361 0.00091507618 0.0011723904
-0.0017154819 -0.00090355449 0.0011812274
-0.0018951849 -0.00089392351 0.0011886139
-0.0013813335 -0.00089482352 0.0011879237
0.0011924815 -0.00089291041 0.001189391
-0.0028897896 -0.0005210503 0.0011832026
0.00046991065 0.00090223114 0.0011822422
-0.00014483882 0.00088267436 0.0011972418
0.0020437404 0.00086717348 0.0012091306
-0.0016364004 0.0008705068 0.001206574
-0.0015362025 0.00087345135 0.0012043157
-0.0016471859 -0.00086217374 0.0012129655
-0.001005864 -0.0008616522 0.0012133655
0.0020568538 -0.00085555308 0.0012180434
-0.0029476443 0.00024365113 0.0012137522
-0.0028758657 0.00047328902 0.0012179572
-0.0011592286 -0.00084557402 0.001225697
-0.00020954038 -0.00084720104 0.0012244493
-0.0029638724 1.7582183e-06 0.001229396
-0.0021545661 0.00084117841 0.0012290683
0.0013830188 0.00085187802 0.0012208619
-0.0022817012 -0.00082573405 0.0012409138
-0.00012298215 0.00081644708 0.0012480366
0.0014458559 0.00081571098 0.0012486012
-0.0020623736 0.00082299375 0.0012430155
-0.0013757062 0.00082604622 0.0012406743
0.002159124 0.00082620431 0.0012405531
-0.00028584863 0.00080705818 0.0012552377
-6.7118053e-05 -0.00080006843 0.001260599
0.0023062194 -0.00079105084 0.001267515
-0.0020791541 0.00079265865 0.0012662819
-0.0018218149 -0.00078758661 0.0012701721
-0.0012910629 -0.00078509131 0.0012720859
0.0024284492 -0.00077927363 0.001276548
0.0024172256 -0.00077284983 0.0012814747
0.0019945966 -0.00076879741 0.0012845829
-0.001111811 0.0007665556 0.0012863023
0.00048935664 0.00077329681 0.0012811319
0.0025354186 -0.00066832377 0.00129483
-0.00044142929 0.00075991551 0.0012913952
-0.00081984187 -0.00073878473 0.0013036468
-0.0021274011 0.00073252327 0.001306241
0.0022047893 0.00074754487 0.0013000172
0.00029259978 -0.00070366159 0.0013181989
0.00028835621 -0.00069966976 0.0013198528
-0.0028275265 -0.00036756866 0.0013136023
-0.0023994157 0.00070717593 0.0013167429
-0.0026746872 0.00071324699 0.0013142275
-0.00037717953 -0.00067545002 0.0013298875
0.0026582126 -0.0001487557 0.0013221957
-0.0016996118 -0.00065633963 0.0013378051
-0.001477323 -0.00065692217 0.0013375639
-0.0025967583 0.0006560678 0.0013379179
-0.00023833229 0.00066445739 0.0013344418
-0.0012212468 -0.00063505321 0.0013466246
-0.0028156033 0.00026922591 0.0013424421
0.0015448555 0.00062842702 0.0013493699
-2.5830628e-05 0.0006328423 0.0013475404
-0.002423926 0.00064779515 0.0013413454
0.00036428298 0.00064096937 0.0013441733
0.0015466489 0.00064259343 0.0013435005
0.0016775044 -0.00062273414 0.0013517285
-0.0014903336 -0.00061294565 0.0013557842
-0.00039654097 -0.00061178184 0.0013562663
-7.0917966e-05 -0.00060314353 0.0013598453
-0.0027980797 -0.00030206668 0.0013556451
-0.0028399806 -1.8644458e-05 0.0013510624
0.001989339 0.00062268047 0.0013517507
-0.0004598712 -0.00058035366 0.0013692876
0.0017463281 -0.00058814429 0.0013660598
0.0026320838 -2.1548132e-05 0.0013650769
0.0025927096 0.00033329939 0.0013634148
0.0016043216 0.00058900082 0.0013657048
-0.0017457475 0.00059356866 0.0013638122
-0.00036484268 -0.00056556828 0.0013754134
-0.0019669957 -0.00055563689 0.0013795281
-0.0026784067 0.00055659743 0.0013791299
0.0015219143 0.00056404329 0.0013760451
-0.0021267552 0.000573356 0.0013721866
-0.00072366023 0.0005753208 0.0013713726
-0.0013602943 -0.00054402248 0.0013843402
-0.0027749848 0.00027723046 0.0013820124
-0.0010752029 0.00053451542 0.001388279
0.0014314814 0.00054484757 0.0013839982
0.0020921817 0.00054803828 0.0013826763
0.0018462884 -0.0005220935 0.0013934256
-0.0020903577 0.00049741025 0.0014036522
-0.00041187421 0.00049386872 0.0014051198
0.0023199064 0.00049997779 0.0014025886
-0.0015447403 0.00050614431 0.0014000336
-0.0013478823 -0.00047238515 0.0014140208
-0.0027719315 -3.3751752e-05 0.0014171215
-0.001033974 0.00047566911 0.0014126601
0.00050021615 0.00047476968 0.0014130328
-0.0020479835 -0.00045257874 0.001422227
0.0023716157 -0.00045081362 0.0014229582
-0.0025254053 -0.00044779276 0.0014242098
-0.00046965879 0.00044716237 0.0014244708
-0.00031677535 -0.00043377627 0.0014300171
-0.0024960807 -0.00042275601 0.0014345829
0.0025050878 0.00041160313 0.0014337435
0.0015086161 0.00042331769 0.0014343502
-0.0026882251 -0.00040109109 0.0014435591
0.00090708758 -0.00039358559 0.0014466686
0.0020052951 -0.00038537837 0.0014492713
-0.00031066503 0.00038513352 0.0014493037
6.5665197e-05 0.00039017093 0.0014480834
9.1496324e-05 0.00039855068 0.0014446116
0.001235324 -0.00036209417 0.0014523366
-0.0021675802 -0.00035994934 0.0014526187
-0.0013817539 -0.00033020752 0.0014565338
-0.0012668496 -0.00033492607 0.0014559128
0.0002684716 -0.00032299871 0.0014574828
0.00014445031 -0.00030414888 0.0014599641
0.00062182522 0.00031221524 0.0014589021
0.0024231756 0.00034505632 0.0014545792
0.0022242216 0.00035853643 0.0014528049
0.0023543488 0.00035498998 0.0014532715
-0.0021882914 -0.00026875225 0.0014646234
0.0019361791 -0.00025816445 0.0014660171
-0.0024360348 0.00023297309 0.001469333
0.00032873472 0.00027983796 0.0014631641
0.00062732038 0.00028610224 0.0014623394
0.0015318331 0.00028299374 0.0014627487
6.2728941e-05 0.0002948074 0.0014611937
0.0023147136 -0.00020144887 0.0014734828
-0.0013659217 -0.00019471816 0.0014743686
-0.00026061299 -0.00019741067 0.0014740144
-0.00061584997 -0.0001655267 0.0014782113
-0.00096591038 0.00015459278 0.0014796506
-0.00069334515 0.00017140138 0.0014774379
-0.0015654824 0.00018399335 0.0014757803
0.0023057011 0.00020606132 0.0014728756
0.00092341151 -0.00015029839 0.0014802158
-0.0021933008 -0.00013621604 0.0014820696
-0.00052653148 -0.00013130033 0.0014827166
-0.0024231998 -0.00011622116 0.0014847016
-0.001015517 -0.00010049672 0.0014867714
-0.00062706269 8.7418251e-05 0.0014884931
-0.002010979 0.00010505497 0.0014861713
-0.00076957932 0.00011564687 0.0014847771
-0.0021744333 0.00012836281 0.0014831034
-0.00077146862 0.00012892982 0.0014830285
-0.00082035264 0.00015096433 0.0014801282
0.00014826584 -6.2789368e-05 0.0014917348
0.00052706472 -6.5161803e-05 0.0014914228
0.0012355595 -4.7947786e-05 0.0014936887
-0.002646493 -2.0821128e-05 0.0014972594
0.0018304716 -2.0420715e-05 0.001497312
0.0013196793 2.3637572e-06 0.001499689
0.0020374572 2.478567e-05 0.0014967376
-0.0026958296 5.4990323e-05 0.0014904316
0.0012084882 5.8099209e-05 0.0014923522
