# .PCD v0.7 - Point Cloud Data file format
VERSION 0.7
FIELDS x y z
SIZE 4 4 4
TYPE F F F
COUNT 1 1 1
WIDTH 1000
HEIGHT 1
VIEWPOINT 0 0 0 1 0 0 0
POINTS 1000
DATA ascii
-0.0018893857 -0.01216381 0.014750891
0.0033809089 -0.0051895417 0.020316744
0.0050000004 0.011037183 0.0052505783
0.0050000004 -0.0031047338 -0.0155032
0.0050000004 0.0068709697 -0.018301087
-0.0026527599 -0.018693039 -0.0082269097
-0.0050000004 -0.02025776 0.0030980541
-0.0050000004 -0.0047097406 -0.011298613
-0.0050000004 -0.016073318 0.0031104379
-0.0050000004 2.9234438e-06 -0.017073104
0.0050000004 -0.0058604884 0.0057130605
0.0050000004 0.015521771 -0.0026920061
0.0050000004 -0.0090387668 -0.018293217
-0.0044205016 0.0076698824 0.019358769
0.0050000004 0.0018857542 0.0034572997
0.0050000004 0.0063166716 0.016235972
-0.0050000004 0.0079043144 -0.018328123
-0.0050000004 0.00827948 0.013116335
-0.0014324308 -0.018675834 -0.00018639759
-0.0050000004 0.015928697 -0.0053819362
-0.0050000004 -0.0032706426 0.0016542529
-0.0044977637 -0.016463133 0.012745915
0.0050000004 0.0060838875 -0.0027726961
-0.0019923276 0.011834584 -2.8639828e-05
0.0050000004 -0.014964951 0.012714786
0.004705396 0.019165818 0.0081357099
-0.0011359721 0.01703774 -0.0065475982
-0.0050000004 -0.012309941 0.0068012974
-0.0041013616 -0.011072353 0.017747315
-0.00093551638 -0.0029582935 -0.00031688009
-0.0013576577 -0.0014288785 -0.0026275476
-0.0014853774 -0.017403588 0.0065695434
0.0050000004 0.0016768888 0.0044053867
-0.001508528 -0.017852109 -0.0055467016
0.0018956523 -0.0098020583 -0.016576726
-0.0033080135 -0.02075251 0.0018797877
0.0027557982 0.012645287 -0.016256787
0.0050000004 0.014191706 0.0055118389
-0.0050000004 -0.012563348 -0.0081237843
0.0050000004 -0.00064159714 0.013403176
-0.0050000004 0.0050068055 0.0094479872
-0.0028779628 0.01080298 0.017934887
-0.002268025 0.019445669 -0.0036653122
0.0050000004 0.0077530271 -0.0024316879
-0.0039315266 0.00040948065 -0.020946087
0.0025622526 0.018386664 0.0085604452
-0.0050000008 -0.015305827 0.0094702365
0.0018701311 -0.012652666 -0.01433409
-0.0050000004 -0.01314914 0.0010063944
0.0019511627 0.016833216 0.0095686875
-0.0016381188 0.01652777 -0.0090796417
-0.0049999999 -0.0037769966 -0.019383131
-0.0050000004 0.009442769 0.0012938662
-0.0032778876 -0.0092701567 0.018695919
-0.0050000004 0.013121484 0.016174849
-0.0050000004 -0.0099005112 0.01637518
-0.0027073093 -0.0041715009 -0.020139908
-0.0050000004 0.010198404 0.015715133
-0.0037842817 0.0057861023 -0.020139053
0.0050000004 0.00084991904 0.00678983
0.0050000004 0.0067353682 -0.0070637688
0.0050000004 -0.014489911 -0.010049092
0.0050000004 0.0023868333 -0.0046046516
0.0044919578 -0.0036232311 -0.020522965
0.0019710786 0.016037447 0.010717614
0.001832768 0.013763973 0.01329025
-0.0027847395 -0.020074325 0.0054844064
-1.5591537e-05 0.012872581 0.012546159
-0.0011324027 0.0070402464 -0.00036244982
-0.0047258059 -0.014600605 0.01503996
0.004610043 0.01923134 -0.0079775257
-0.0050000004 -0.0062606093 0.0032548551
0.0050000004 0.012756933 -0.00025439358
-0.0004729233 0.013711488 -0.011652476
0.0050000004 -0.0055079828 -0.0085338512
0.0050000008 -0.00072805618 -0.005618785
0.0050000004 -0.011501334 0.01585912
0.0050000004 -0.012711041 -0.0040153069
0.0050000008 -0.018121062 0.009220954
0.0030710257 0.0065165423 -0.019836497
0.0006650805 0.015180698 -0.001821825
0.0050000004 0.015370311 0.0063159452
-0.0018287329 0.012723231 -0.014190336
-0.0016010075 0.014165681 0.0011310925
0.0050000004 0.0091744466 -0.0020087929
-0.0035482713 0.0024642607 -0.0016744011
-0.0040497347 0.016231235 0.013048121
-0.0019721773 0.018853176 -0.0042736828
0.0050000004 0.0042144018 -0.015071544
0.0044731353 -0.02040725 0.0045021218
-0.0050000004 0.0021668372 -0.014472624
-0.0014251033 0.0085377274 -0.016523659
0.002266715 0.0091518098 0.017592404
-0.0050000004 -0.010534137 0.017798055
-0.001421501 -0.0097710993 0.015858343
0.0050000004 -0.01491895 0.012400986
0.0011199858 0.0087477174 0.01610926
-0.002447485 0.020088902 -0.0011405547
-0.0029771999 -0.01408829 -0.015433077
-0.0050000004 -0.0080271801 0.015241541
0.0050000004 0.015011796 -0.012084585
-0.0025470795 -0.019088538 0.006797879
-0.0050000004 -0.016439874 -0.010671357
0.0050000004 -0.007572202 -0.0077936021
0.0050000004 -0.0077675739 0.0013805061
0.0019336567 0.019252403 -0.00073435373
0.0020765152 0.0077670859 -0.017812451
-0.0037788798 0.020087823 0.0059097819
0.0050000004 -0.0087363236 0.006742964
0.0050000004 0.0076134778 -0.017807493
0.0036052219 -0.019841177 -0.0065052393
-0.0043751812 -0.0066301338 0.019789446
0.0050000004 0.0014072965 0.011918761
-0.0050000004 0.0036016048 0.014033739
-0.0050000004 0.0010626252 -0.01559488
0.0050000004 0.019076722 0.0026361914
0.0050000004 -0.018256377 0.0018775549
-0.0050000004 -0.0010775604 0.006122374
0.0050000004 -0.0087263547 0.0030271956
-0.0037955279 0.015785234 -0.013629355
0.0050000004 -0.0032666049 -0.018367013
0.0050000004 0.0028737418 0.01772101
-0.0019779971 0.017244682 0.0086957309
0.0050000004 0.0098470636 0.01654361
0.0050000004 -0.00025355368 0.019823626
0.0004580793 0.0087916115 0.015806517
0.0032056386 -0.01827408 0.010288571
0.0050000004 -0.011791265 -0.016994029
-0.0050000004 -0.0074834544 0.0081021469
-0.0050000004 0.0089019034 0.010949099
0.0050000004 0.015481188 -0.0094296755
-0.0050000004 -0.001202778 -0.020601071
0.0050000004 -0.012189381 -0.01343529
0.0050000004 -0.017034717 0.0077949339
0.0011991739 0.0015329263 -0.012915708
0.0050000004 0.0077061513 -0.016853532
0.0050000004 -0.0092273941 0.0026703284
0.0050000004 -0.004292998 -0.0021176483
-0.0050000004 -0.0058862814 0.014267882
-0.0050000004 0.0050381375 -0.015399183
0.0050000004 -0.0085115666 9.0826994e-05
0.0050000004 0.016434724 0.0043337131
0.0050000004 0.0074863113 0.015896549
-0.0050000004 0.013131708 -0.0015380764
-0.0036631629 0.015134917 -0.014476853
-0.0050000004 -0.0082461899 -0.012123506
-0.0050000004 0.0009710337 -0.0093070446
0.0040541161 0.019907672 0.0063447095
0.0050000004 0.014187346 0.005223772
0.0050000004 0.0051601627 0.0070383498
0.0050000008 -0.00046638426 -0.019453704
0.0050000004 0.0044428101 -0.0061308462
-0.0050000004 0.0013345433 0.014329198
0.0021123441 -0.018628415 -0.005957962
-0.00034338134 0.0075524924 0.0011375111
-0.0050000004 0.018752849 0.0067397114
0.001961099 0.011334034 -0.015542833
0.0050000004 0.003647188 0.0090852026
-0.0015105901 -0.004024778 0.018248657
-0.0050000004 0.014097315 0.0067849201
-0.0050000004 -0.011427515 -0.0088985842
-0.0017410876 0.00096645189 -0.018539241
0.0050000004 0.016479677 -0.0074897618
0.0023953249 -0.016602824 0.011177506
-0.0018359089 0.0096534304 -0.00061250932
0.0050000004 0.014087095 0.013674422
-0.0050000004 -0.01581852 -0.0099816788
0.00081827608 0.017540749 -0.001780784
0.0050000004 0.001435074 0.0076686069
0.0050000004 -0.001787469 -0.0047990233
-0.0050000004 -0.005624684 -0.0026892913
-0.0020953773 -0.014776286 -0.012711777
0.0032380195 -0.014389182 -0.01520219
-0.0028948521 0.0095411288 -0.018583676
0.0022289844 -0.01425976 -0.01376179
-0.00265425 0.0042862832 -0.02003289
0.0018572959 0.0085348003 0.017086999
0.0022269469 0.0083380854 -0.017855538
0.0018128138 0.00058078236 0.01906334
-0.0012619103 0.012553074 -0.0014701899
-0.0032271626 0.00091867259 -0.0028389071
-0.0050000004 -0.018102791 0.0055887187
0.00040066565 0.011532738 0.0018926617
0.0050000004 -0.0088000987 0.011943806
0.0050000004 -0.0093845986 0.01698987
0.0050000004 0.0045560077 0.0047877836
-0.0050000004 -0.018936057 0.001472351
0.0050000004 -0.00047754301 0.019055882
-0.00090163579 0.0017584519 -0.014608646
0.0050000004 -0.011858809 -0.0079644611
-0.0050000004 0.0096156159 0.0079082567
0.0013866897 0.0052850735 -0.017829737
0.004917576 0.015819835 -0.013584262
0.0050000004 -0.011968987 0.013460273
-0.0017131537 -0.0054771793 -0.018100485
0.00077554514 0.00097007712 0.0028176133
-0.0050000004 -0.0069999662 -0.018229466
0.0050000004 -0.010759292 0.016868262
-0.0050000004 -0.011905724 -0.01169767
-0.0025498478 0.0014646933 0.0026127254
-0.0024894087 0.010228321 0.017534822
0.0050000004 0.0034350581 0.0059172017
-0.0022367814 0.01306076 -0.014814558
0.0050000004 0.0064044595 -0.017144442
-0.0050000004 -0.007086291 0.011555091
-0.0050000004 0.0021132485 -0.018532449
0.00029457826 0.0073599434 -0.001150585
0.0045635258 0.0013244705 -0.0026708108
0.0039787842 0.0026772202 -0.020647516
0.0050000004 0.010054369 -0.014537221
0.00090097176 0.0085827149 -0.016020382
-0.0019972716 -0.015523124 -0.011461766
0.0050000004 -0.0076138689 -0.015444865
0.00072130829 -0.0073781731 -0.016467657
-0.0048714238 -0.020567063 0.0032883096
0.002669367 0.016825086 0.011660878
-0.00034975109 -0.011648669 -0.013673156
-0.002710988 0.014355655 -0.014847368
-0.0050000004 -0.012538454 -0.00052769569
-0.0050000004 -0.0097936932 0.010887315
-0.0050000004 -0.0014465626 -0.011846812
-0.0050000004 0.018025912 0.0018691064
0.0050000004 -0.011346689 0.015053445
-0.0049999999 0.00530054 -0.010388758
0.0050000004 0.0018445326 0.015220208
0.0050000004 0.016682209 0.0018351017
-0.0011600722 0.00025916399 -0.0061933096
0.0050000004 -0.015918216 -0.011401537
0.0050000004 0.0054403446 0.018799854
0.0050000004 -0.0047127693 0.008116195
-6.3337342e-05 0.014019897 0.0019830321
0.00059677626 0.0062560146 -0.0010696285
0.0039628693 0.00097187364 0.0028168692
0.0025431956 0.019744698 -0.0050142426
-0.00058219105 0.0018391259 0.0023378471
-0.0050000004 -0.011505374 0.009055445
-0.0050000004 0.0051994137 0.0061596786
-0.0050000004 -0.0019729023 -0.0060606417
0.0017640055 -0.018461019 0.0045138397
0.0018487227 -0.0025141875 -0.0016093433
0.00058910204 0.0042457622 -0.017598903
0.0050000004 -0.0062642535 -0.016415637
0.0050000004 -0.0040798429 0.00061792188
-0.0050000004 -0.0078968126 -0.0116245
0.0050000004 0.0047338577 -0.020217679
0.0050000004 0.0092994301 -0.0011919709
0.0050000004 0.0037782134 0.0099837882
-0.00091442675 0.0076887114 -0.00076517335
0.00074545603 0.0053500175 0.00093414407
0.00083924085 0.010973713 0.014355016
-0.0050000004 0.015118503 0.010468788
0.00043301011 0.0063329176 -0.016817737
0.0050000004 -0.0048741032 -0.012400412
-0.0050000004 0.0040663681 0.018099098
-0.0015724495 -0.018571552 -0.0020419315
2.0736576e-05 -0.0077922544 0.016094722
0.0050000004 0.010366557 0.0036908227
-0.0050000004 0.017948728 0.0097249327
0.0050000004 0.015883027 0.010175162
0.0050000004 -0.0070371032 -0.005946076
-0.0050000004 -0.011824557 -0.015231994
-0.0050000004 0.013585604 0.0078387288
0.0035012751 0.020440532 0.0042493441
0.0030318075 -0.0097164921 -0.01851104
0.0050000004 -0.011064442 0.010710862
-0.0050000004 0.018688601 0.0050780671
-0.0008679094 0.013005346 0.012745141
-0.0031528012 0.00528763 0.020303832
-0.0050000004 -0.0024227554 0.018834237
-0.0050000004 0.0061233267 -0.0053393119
-0.0050000004 -0.011644773 0.016368303
-0.0050000004 0.0033963271 -0.0029162434
0.0050000004 0.0085759563 0.012878033
0.0050000004 -0.017312089 -0.0076226708
0.0043000574 0.0072611715 -0.019528063
0.0050000004 0.0048405128 -0.010224416
-0.0050000004 0.00033455162 -0.011117185
-0.0050000004 -0.0083101355 0.012455924
0.0050000004 0.011604356 0.016483663
-0.0050000004 0.004834983 -0.016668862
0.0050000004 0.0037545115 0.012050095
-0.0050000004 -0.016333634 -0.0035781744
-0.0050000004 0.018593298 -0.0052733803
0.0050000004 -0.013587298 0.013498384
-0.0010543829 0.0008158242 0.018214965
0.00074965245 -0.015783662 0.0090491734
0.0050000004 -0.0044842246 0.011131453
-0.0050000004 0.0020496503 -0.014045598
0.0019204743 0.015573194 -0.011179875
0.0050000004 -0.0035997571 0.01013118
-0.001072654 -0.014504863 -0.010966885
0.0050000008 0.0073701032 0.0031432654
-0.0019137145 -0.00314189 0.018900929
0.0020020211 -0.016597589 -0.010074914
-0.0019665081 0.019102169 0.0023077647
-0.0035021582 0.016817328 -0.01228432
0.0019540053 0.009413491 -0.00017168642
0.0043255459 0.0073235002 -0.019502247
-0.0050000004 -0.0067297118 0.015445592
0.0037933243 0.015803687 0.013605307
0.0050000004 0.013593699 -0.0042360532
-0.0050000004 0.0049792337 -0.0040179105
-0.0050000004 -0.0087133069 0.0020644332
-0.00023228326 -0.011002882 -0.014129365
-0.0018908958 0.0094892867 0.016754089
0.0050000004 0.016575426 0.0073286574
-0.0022892929 -0.018954754 0.0059641134
0.0016071819 0.016081946 -0.0097820815
-0.00016867882 0.0085838232 0.015809383
0.00012606419 0.011539952 -0.013681681
0.0050000004 0.019703191 -0.0061402726
-0.0050000004 -0.014187192 -0.0017767698
0.0050000004 -0.016132744 0.006734509
-0.0050000004 0.0042268559 0.0071964278
-0.0021047913 0.0095052812 -0.017145026
-0.0012927373 0.010674582 0.01500418
0.0050000004 0.0028424847 0.014994559
-0.0050000004 0.0084215458 -0.017210554
-0.0032640228 -0.020729203 0.002056798
0.0050000004 -0.012497285 0.0013986188
-0.0050000004 -0.004878236 0.0058850925
-0.0050000004 -0.0036505468 -0.012271607
0.0050000004 -0.0085915225 0.0014379864
-0.0050000004 -0.0026893183 -0.018662915
-0.0050000004 0.01970947 -0.0062698028
-0.0020231062 -0.0040966375 0.018964704
-0.0050000004 -0.013966427 -0.0078908
0.000953371 0.0076499344 0.016421819
-0.0050000004 -0.0077925785 0.01920224
-0.0018485026 0.012322134 -0.00056550017
-0.00394721 -0.020396218 -0.0045859246
-0.0049999999 -0.010867875 0.010240894
0.00114465 0.012895478 -0.00158745
0.0050000004 0.0024609524 -0.0084547875
0.0025153132 0.020091476 0.0020133532
-0.0050000004 0.019196961 -0.00073881965
-0.0018214699 0.014021926 0.0006664063
0.0023462391 0.017686084 -0.0092824884
0.0050000004 -0.007192676 0.0021652905
-0.0050000004 0.013513494 0.013744495
0.004932994 -0.0029514008 0.0003692501
0.0050000004 0.019394003 -0.001873844
0.0050000004 -0.015102822 0.0058224369
-0.0013911648 0.0017894474 0.018423514
0.0050000004 -0.019609835 0.0043655266
-0.00178206 -0.0080078905 -0.017165415
-0.0050000004 -0.015196676 0.003877149
0.0050000004 0.0020452174 0.014262322
-0.0017964364 0.013564167 0.013448155
-0.0050000004 0.009774683 0.012985528
0.003075378 -0.020321306 -0.0051549114
0.0050000004 -0.00025971173 0.013248857
-0.0017992031 0.0085920114 0.016955327
0.0050000004 -0.012067826 0.0044210115
-0.00091407477 0.0069908351 -0.016683528
-0.0050000004 -0.0074471012 0.015676592
-0.0050000004 0.0081388829 -0.018476941
0.0050000004 0.0040784478 -0.0073041446
-0.0021031231 -0.018366035 -0.0065500299
0.0038122078 -0.020711256 0.0021931001
0.0030001083 -0.015848471 -0.013546945
-0.0025518565 -0.0065988279 -0.019179862
-0.0050000004 -0.012518462 -0.0093771238
-0.0050000004 0.001379683 0.0058120759
0.00054153061 0.0026065856 0.0014795061
0.0050000004 0.018724691 -0.0041305395
-0.00048567631 -0.0010993913 -0.0044668065
0.0050000004 -0.017878802 0.0081550991
0.0050000004 0.0056277271 0.01494725
-0.0050000004 -0.00020227501 0.0048633884
-0.0050000004 -0.011134002 0.0015417369
-0.0050000004 0.018531559 0.0077283122
-0.0049999999 0.01763132 -0.0099941455
-0.0012818635 0.016740846 -0.0076423087
0.00074266479 0.01735409 -0.0018010401
0.0050000004 -0.00079375284 -0.013594802
-0.0050000004 -0.0087981131 -0.011430373
-0.0010198632 -0.0028195102 0.00096549839
0.0024609929 -0.014482273 0.01412626
0.0032678004 -0.0012206672 -0.0027138118
-0.0050000004 -0.0039174794 -0.0085384967
0.0026702487 0.0023092057 -0.0018764476
0.0050000004 -0.0046830573 0.0015807553
-0.0019640599 0.0094632749 0.00013415543
0.0019250715 0.011371749 -0.015435911
0.0016153095 -0.018569104 -0.0023859828
-0.0043268693 0.019157514 0.0081557631
-0.0050000004 -0.014020808 0.0027217609
0.0023941845 0.016473131 -0.011343304
-0.0050000004 0.016946238 0.0056890668
-0.0050000004 -0.0080546848 0.0054034842
-0.0050000004 -0.00058135099 -0.020593513
-0.0024462924 0.015216139 0.013128411
-0.0050000004 -0.0042547579 -0.010869676
0.0030584845 -0.020845212 -0.0011756744
0.0050000004 -0.00099320966 0.0052986853
-0.0050000004 0.0070520579 0.017991934
-0.0033093102 -0.020847468 0.0011585259
-0.0050000004 -0.0093024997 0.0014876004
0.0050000004 -0.013445985 -0.0025638223
0.0044030841 -0.020501008 0.0037900107
0.0019597893 0.018296959 -0.006073623
0.004360924 -0.0033928305 0.0205533
0.0050000004 0.011378942 -0.009971343
0.001509761 -0.017626423 0.0060947505
-0.0050000004 0.0046663978 -0.012871726
0.00020827629 0.0019442029 -0.0094006658
0.0050000004 -0.0044349162 -0.010382496
0.0036742189 0.0014284152 0.020811936
-0.0050000004 -0.0065862718 0.011294133
-0.0035804769 -0.008918684 0.018841499
-0.0021432855 0.0047782282 0.019083127
0.0017759383 0.0070828781 0.01753719
0.0050000004 0.017864829 0.00037632658
-0.0050000004 0.013789897 0.0040904265
0.0046870122 0.012501511 -0.016650667
0.0034092439 -0.014361408 -0.015223503
-0.00019601602 0.016437482 0.0070864055
-0.0050000004 -0.017400514 -0.0031711552
-0.0012571781 -0.017105611 0.0066977437
0.00062344142 -0.016311845 0.0076864022
0.0050000004 0.00092204788 0.0038171487
0.0050000004 -0.004376593 -0.018869821
-0.0050000004 0.0053979871 -0.020270208
0.0050000004 0.014642537 -0.0094068712
-0.0050000004 0.013173247 -0.010335227
-0.0026504311 0.020056203 0.0040589739
0.0050000004 -0.017114643 -0.0026651607
-0.0050000004 0.007034461 0.010274235
0.0037904335 -0.019370435 0.0076417211
-0.0050000004 -0.0052978499 -0.0035161965
-0.0049999999 0.0053225919 -0.0098067196
-0.0050000004 0.008589494 0.015443988
0.00050644699 -0.001864323 -0.012521215
-0.0050000004 -0.018708527 -0.0060970276
0.0050000004 -0.0033269597 0.013675545
-0.001394714 -0.018301254 -0.0027452181
-0.0050000004 -0.015301656 0.0024385008
-0.0018363311 0.01821227 0.0057240915
0.0050000004 0.0010061883 0.018690009
0.0050000004 0.0046321424 0.01233761
0.0050000004 -0.0094859386 0.01799993
-0.0018259279 0.00064976577 -0.015659859
0.0050000004 0.0099501517 -0.0057748579
-0.0050000004 0.0043392065 0.0088603189
0.0031744998 -0.0027783336 -0.0010649018
0.0050000004 0.0067144404 -0.01369402
0.0050000004 0.0011951607 0.012504648
-0.0035873516 0.015685748 0.013759004
0.0050000004 -0.0028141113 -0.0036627413
0.0010022098 0.013249123 0.0017298902
-0.0050000004 0.011137583 -0.011899756
0.0027804526 -0.0081003793 -0.018982789
-0.0050000004 0.013875139 -0.0095364088
0.0050000004 0.0061437013 -0.0038719522
-0.0050000004 0.0026668741 0.0057555763
-0.0045299772 0.0025809575 0.0015223379
0.0050000004 0.0020274674 -0.014877266
-0.0050000004 0.0086491099 0.017885726
0.0050000004 -0.012068218 -0.011985275
0.0050000004 -0.0039201914 0.0073966216
0.0050000004 0.0019783787 -0.0088104447
0.0012708534 0.0014612466 -0.014784667
0.002116316 0.014615429 0.01298047
-0.0050000004 0.013336159 -0.012976753
-0.0017951623 0.00076460536 -0.016629858
0.00010988123 0.0088736163 0.01567244
0.0050000004 0.0023160316 -0.014803038
-0.0050000004 0.016039884 0.0049527325
-0.0025360167 -0.010454363 -0.01746225
0.0024623265 0.020058088 0.0015698584
0.0019768563 0.0093556708 8.639005e-05
0.0050000004 -0.018781887 0.0015101291
0.0050000004 -0.016478654 0.011860634
-0.0050000004 0.0077621615 0.013821172
0.0050000004 -0.010814542 0.011353241
0.0050000004 -0.0064632371 0.0068263132
0.0050000004 -0.00030074487 -0.013434134
-0.0043832874 -0.0024034285 -0.020683566
0.0050000004 0.0033709239 -0.015176806
-0.0021468836 0.00035254465 0.019672016
0.0050000004 -0.015669649 0.0036165882
0.0050000004 0.0014700898 -0.0026731025
-0.0050000004 0.013930981 -0.0053853644
-0.0034775459 -0.0024013738 -0.020683834
0.0028518173 0.0028967662 0.00077899662
0.0050000004 -0.0052470807 -0.0068775173
-0.0050000004 -0.0010152155 -0.019653305
-0.0050000004 0.014220988 0.012596391
0.0050000004 0.0017351756 0.012381407
0.0022026077 0.0064466302 -0.018593768
-0.0050000004 -0.0059872707 0.014131359
0.0028553195 0.012945052 0.016242184
0.00068978302 -0.0073159416 0.016484383
-0.0050000004 -0.019081425 0.0037070743
0.0033672228 0.0114812 0.017433591
-0.0050000004 -0.0066470806 -0.0041612
0.0050000004 0.0082065444 0.013253337
-0.0027340548 0.013005624 -0.015933227
-0.0050000004 0.0053249914 0.0058491565
-0.0038533362 0.018471647 0.009811596
-0.0050000004 -0.0091850534 0.018053632
-0.0050000004 -0.0010255732 0.0054275352
0.0050000004 0.011801939 0.0094661517
0.0026218593 0.0043976963 0.019962119
-0.0022508351 0.0016310955 0.019683743
0.003049315 0.0044708559 0.020411368
-0.0050000004 -0.00055675948 0.019955065
-0.0039640767 -0.009482882 0.018607805
0.0050000004 0.0043757893 0.0058162967
0.0050000004 -0.0070378319 -0.0011235352
0.0019353955 -0.0079723457 -0.017465137
-0.0050000004 -0.005577242 -0.017892711
0.0026001746 -0.0077976394 0.018773111
-0.003282489 0.0093449326 0.018664943
-0.0050000004 0.010851236 0.0053985845
0.0050000004 0.00647882 0.0026228428
0.0050000004 0.019648315 0.0064674714
-0.0029650808 -0.020389052 -0.0046403459
-0.0050000004 0.0037155957 0.01871179
-0.0026334734 0.013978709 0.014968831
-0.0050000004 0.016041562 -0.0082890969
-0.0050000004 -0.0059268107 -0.01233662
-0.0050000004 -0.014686051 0.0090567553
-0.0018055385 0.01724162 -0.0079292683
0.004919304 -0.013458479 0.015916351
0.0050000004 -0.010864633 0.0037180055
0.0026913069 0.011782726 0.016779073
-0.0050000004 0.0098836981 0.014554959
-0.0050000004 0.014122576 -0.0011183553
0.0032467309 0.015378598 0.014159286
0.0009013582 -0.018116802 -0.00094766769
-0.0026916773 0.016221246 0.012510734
0.0050000004 0.0018660106 -0.0088795628
0.0015953287 0.0011367715 -0.011827265
0.0049207094 0.020418366 -0.0044177072
-0.0024504412 0.01345934 -0.014971185
-0.0050000004 -0.0089189494 -0.0034499445
0.0030683447 0.020656306 -0.0026104662
-0.0038820715 -0.020629488 -0.0028141725
-0.0050000004 -0.010465631 -0.016104739
-0.0050000004 -0.01829041 0.0065144654
-0.002661221 0.018940937 -0.0076664002
0.0011346951 -0.00035389268 -0.0083961887
0.0027384728 -0.014494056 -0.014800661
0.0050000004 0.011971024 -0.014183615
-0.0050000004 -0.01456374 -0.0073461318
-0.0039572222 -0.018630154 0.0094289202
-0.0017407103 0.015527043 -0.00096786034
0.0050000004 -0.0062732883 -0.016693024
0.0011976023 0.00011907001 -0.0075070127
-7.7308789e-05 0.012836703 0.0019792891
-0.0013570953 -0.017846011 0.0051691197
0.0050000004 0.018370563 -0.0033585625
-0.0050000004 -0.016974702 0.0096769128
-0.0050000004 0.0047254921 0.01225273
0.0018645584 -0.00050556817 -0.013495374
-0.0050000004 0.0035290401 0.014547775
0.0019752844 0.018461358 -9.2257207e-05
0.0050000004 0.012570657 0.0036110708
-0.0050000004 -0.0057041445 -0.019227248
-0.0050000004 -0.017759133 0.0062686619
-0.00067486422 -0.001819204 -0.015015876
0.0050000004 -0.011677951 -0.013176978
-0.0050000004 0.0039846743 -0.0059642042
0.0050000004 -0.0054426701 0.010095354
0.0050000004 0.0054810424 0.018127486
-0.0050000004 0.00029948115 0.01224378
0.0049999999 -0.018289147 -0.0091084959
0.0050000004 0.003769401 -0.011790617
0.0050000004 -0.011908515 -0.0014892379
0.0050000004 -0.015577651 0.010182252
-0.00076674065 0.0057095205 -0.017171906
0.0046195774 0.011313822 -0.017562026
0.0050000004 -0.013265723 0.015145913
-0.0050000004 0.0064478042 0.01751845
0.0018386889 -0.0096018426 0.016607063
-0.0022352415 -0.019553693 0.0024137883
-0.0049999999 0.0063003516 -0.012073427
-0.0050000004 0.0036794143 -0.011979525
0.0050000004 -0.011267857 0.0094696656
0.0045284531 0.020758159 0.001836876
0.0050000004 -0.0044444595 -0.01919945
0.00076352363 -0.0023858375 0.0017765916
-0.00080636761 -0.018149385 0.00050684158
0.00301007 -0.0089421412 0.018831786
0.00077045488 0.013300373 0.012318113
0.0009922944 0.017248319 -0.0056816256
0.0015342103 -0.0040731644 0.018265896
0.0030881562 -0.015157713 0.014447146
-0.0050000004 0.0025022656 -0.015104175
0.0029206411 -0.018015595 0.010722728
-0.0050000004 -0.011612261 -0.0011862641
-0.0050000004 0.0019953749 -0.012356064
-0.0050000004 0.0077957595 0.0091253789
-0.0050000004 -0.014275298 -0.0050043934
0.001156979 -0.016111618 -0.0088378573
0.002270286 0.015081618 -0.012807239
-0.0004088383 0.0024790294 -0.0016551568
0.0050000004 0.016946381 -0.0042296052
-0.0050000004 -0.0090251891 0.00079460337
-0.0031690132 0.0088926991 0.018852266
0.0050000004 -0.012522991 -0.00023085882
0.0012696224 -0.016669212 0.0077835396
0.0047360607 0.0089247227 -0.018839
-0.0050000004 -0.0024933366 -0.0060214065
0.0050000004 -0.00098628085 -0.0073854811
-0.0035679636 0.020689156 0.0023609477
0.0050000004 -0.012686574 -0.013636079
-0.0012544866 -0.017436974 -0.0058908015
-0.0050000004 -0.0077930978 0.003535215
-0.0035052535 0.0089489166 0.018828979
0.0050000004 0.0092542153 0.0094047431
0.0050000004 -0.0081113791 -0.0063176146
-0.0050000004 0.017744768 0.0079473648
-0.00038348688 -0.010284193 0.014731507
0.0046463623 0.011953348 0.017071294
0.0050000004 -0.004544802 0.0025602023
0.0018328798 0.0078895465 0.017308895
0.0050000004 0.011098315 -0.0028819488
-0.0050000004 0.014951078 0.010326355
0.00098663918 -0.00069296104 -0.0038238261
-0.0050000004 0.019752257 0.004032067
0.0050000004 0.011625915 -0.014986875
-0.0050000004 0.0069473069 -0.010693444
-0.0050000004 -0.00098551787 0.0092641693
-0.0050000004 0.0034925088 -0.013309813
0.0050000004 -0.0051234104 -0.010567179
-0.0050000004 0.001764277 -0.0087521747
0.0050000004 -0.0060182088 0.010426965
-0.0050000004 0.010962869 0.0071712304
0.0018817661 -0.018912425 0.0026342995
-0.0039027836 -0.014294111 0.015275142
0.0050000004 0.013509232 -0.015856586
-0.0050000004 -0.0048868204 -0.0087103359
-0.0050000004 -0.012093064 0.0066470313
-0.0050000004 0.0035358991 0.0059777317
-0.0050000004 0.017357128 0.010194699
-0.0050000004 -0.014367467 -0.0022213322
-0.0050000004 -0.015424609 0.0092157079
0.0035215551 -0.0029108759 -0.00067714986
-0.0018597124 0.00052365661 -0.011129588
0.0025024491 -0.012546025 -0.015784578
0.0050000004 0.0022334647 0.0045647742
0.0050000004 0.0050256127 0.018574299
-0.0004233419 -0.0089679668 -0.015723484
0.0024411029 -0.016361196 -0.01162154
-0.0050000004 0.0082933186 -0.0070141456
-0.0011021057 -0.018237773 0.0010050151
-0.0050000004 -0.016687352 0.010031654
-0.0050000004 -0.0095248362 0.012152686
-0.0050000004 0.012700547 0.013782967
-0.0022424418 0.018551782 -0.0067267534
-0.0050000004 0.015611186 -0.0075811869
0.0050000004 -0.010126082 -0.018227976
-0.0050000004 0.00011530174 -0.016522564
-0.0050000004 -0.015032236 -0.0056334417
0.0017548323 0.016049882 0.01009142
0.0050000004 0.0027225409 0.0032036763
-0.0050000004 -0.0054627918 -0.0012572707
0.0027834333 0.018925013 0.0082532354
0.00073161139 -0.0069649299 -0.016641794
0.0030006801 -0.0085281208 0.019003278
-0.0050000004 0.00022058103 -0.016810093
-0.0050000004 -0.014196195 0.0046498631
-0.0050000004 0.0035644509 0.0063224477
0.0050000004 -0.0063306675 -0.010608873
-0.0050000004 -0.012009125 0.0056055672
0.0050000004 0.011335678 0.014865953
-0.0050000004 0.013858682 0.014591168
0.0019843818 5.8299414e-05 -0.01019993
-0.0037266628 0.0047060479 0.020380402
-0.0050000004 -0.0050707404 0.0071599861
0.00027767065 -0.017962696 0.00084855239
-0.0050000004 -0.0037662729 -0.010848029
0.0050000004 0.0089465622 -0.0069908667
0.0050000004 -0.0036559084 -0.016328629
0.0027316015 0.015057202 -0.014140346
-0.002057367 0.019264285 -0.0022715093
-1.1848954e-05 0.0019968257 -0.014520166
0.0050000004 -0.011843656 -0.012608415
0.0050000004 -0.0069009401 0.0071565961
-0.0044710143 -0.0098003466 0.018476306
-0.0050000004 0.015545812 0.0093222158
-0.0050000004 -0.00089192047 -0.0052286703
-0.001934096 0.016004855 -0.00024600257
0.0020502757 0.018981343 0.004327625
0.0050000004 -0.016362557 -0.0014941855
-0.0045693009 0.010458034 -0.018203884
0.00024814176 0.0019335229 -0.015591315
-0.0018224472 0.0092017464 -0.016745966
0.0050000004 -0.019443478 -0.0044475528
0.00058448472 -0.0018434167 -0.010572905
-0.0050000004 0.0030389696 -0.0096773459
-0.003993406 -0.015828378 -0.013573127
-0.00031999068 0.0019142745 -0.014168136
0.0050000004 0.01303316 0.014450197
-0.0022214085 0.018004118 -0.0079545528
-0.0011920108 0.0049574943 0.017756522
-0.0023149021 -0.0065362747 -0.018765355
0.0050000004 0.017117089 -0.0051269364
0.0050000004 0.0075215572 0.00942857
0.0020580504 -0.019291744 -0.0020721916
-0.0050000004 -0.0084305163 0.011640243
-0.0050000004 -0.0040331362 -0.020286834
-0.0013980924 -0.00054691476 0.0029280172
-0.0042990469 0.00022544641 -0.020970318
-0.0050000004 0.014310125 0.0049304632
-0.0048610778 0.0090455906 0.018788934
0.0050000004 -0.0058569033 0.012770571
0.0017061086 0.0030731133 0.01856944
-0.0050000004 0.0089691151 -0.007931862
-0.0036702144 -0.020573771 0.0032373511
-0.0050000004 0.012894316 -0.0096316468
0.0050000004 -0.00074628374 -0.0055475752
0.0050000004 -0.0025942847 -0.010118331
-0.001680615 0.0024850597 0.0016472988
-0.0019587108 -0.00048732953 0.0029358596
-0.0050000004 -0.010699732 -0.0072583747
0.0050000004 -0.0087847747 -0.0057689659
0.0050000004 0.016734099 -0.0081353737
-0.0050000004 -0.01008346 0.00050932792
-0.00016562254 0.013836969 -0.011354844
0.0011609509 0.00025588393 -0.0066890521
-0.0050000004 -0.015355888 -0.011206725
0.0050000004 0.01642729 -0.0035196731
-0.0017493636 0.00093555998 -0.017640324
0.0050000004 0.020353913 -0.0015363551
-0.0050000004 0.0053717527 0.018948043
-0.0035110856 0.0037346091 0.020508302
0.0050000004 0.014211478 0.012093578
0.0014223799 -0.0013097201 -0.018496782
-0.0050000004 -0.016693037 0.0081075197
0.0019095454 0.01467191 0.00033764369
-0.0035860178 -0.019464094 0.0074156048
-0.0021926044 0.01460486 0.013209429
-0.0050000004 -0.016969256 0.0012986651
0.001116309 0.0070983111 -0.00042252528
0.0050000004 0.011438864 -0.0051250476
-0.0045959703 -0.0029625895 -0.0002842418
-0.00084783917 -0.017111462 0.0059117577
-0.0050000004 0.011731634 -0.012503434
0.0050000004 -0.012908935 -0.014107348
-0.0050000004 0.01568477 0.0069051879
-0.00061068241 0.01038024 0.014733847
-0.0050000004 -0.0089736935 -0.0025966589
-0.0017521849 -0.011222351 -0.015176339
-0.00051105948 0.017852647 0.0018630873
-0.0050000004 -4.4416447e-05 0.01085091
-0.00040863326 -0.0019796374 0.0022300154
0.0015717726 -0.018662862 -0.001343139
-0.0018871541 0.0017082711 0.0024382682
-0.0024152487 0.0063483384 -0.01902971
-0.0050000004 0.0066079479 -0.00059107877
0.0012996765 0.002653379 0.018218312
0.001182335 -0.015095116 0.010376256
0.00071658281 0.0018080276 -0.013787362
0.0050000004 -9.0347989e-05 -0.01267893
-0.0050000004 0.013136656 -0.0069952058
-0.0050000004 -0.0019236031 -0.012125417
0.0024364584 0.016120946 -0.011921518
-0.00102003 -0.017626839 0.0048250458
-0.0042719203 0.0040841117 0.020462286
-0.00054922968 0.0010823659 -0.0075867674
-0.002126591 -0.017695155 -0.0082749808
-0.0049112109 0.0029515249 0.00036830647
0.00092188042 0.0021578942 -0.0020736156
0.0021585634 -0.019645313 0.00070903805
-0.0050000004 -0.019941589 0.0025185661
0.0043009808 0.020462938 0.0040791631
0.0050000004 -0.0087663811 0.0011950874
0.0050000004 0.0096072648 -0.0089594824
0.0050000004 0.010846445 0.0058983085
0.0017042897 -0.017655969 0.0065273661
0.0022169722 -0.002001768 -0.019576281
0.0050000004 -0.0099798897 0.012231296
0.0050000004 -0.0044450122 -0.004252993
-0.0050000004 0.0067704138 0.016770707
-0.00082671229 -0.013678124 0.011850372
-0.0050000004 0.0040683537 0.0061965641
-0.0048129265 0.020957777 -0.00032069764
0.0050000004 -0.019264435 -0.00074630242
-0.0050000004 -0.018185491 0.005206943
0.0050000004 -0.016013982 0.0021024023
0.0050000004 0.0042422637 -0.0039227493
0.0044738636 0.0016291444 0.0024989918
0.0050000004 -0.002808108 0.015055729
-0.004829817 -0.0026858666 -0.0012881251
-0.0019653975 -0.0030215522 0.019006288
-0.0050000004 -0.00049453613 -0.0088212332
-0.0050000004 0.013474943 0.0038022697
-0.0050000004 -0.0036619448 -0.017962389
-0.0050000004 -0.0034732418 0.0049339333
0.0050000004 0.020746561 0.0013143349
-0.00029912268 0.015295591 0.0019198651
0.0050000004 -0.013797303 -0.0010363961
-0.0050000004 -0.0063793752 -0.016461542
0.0011398408 0.0073027685 -0.0003346845
0.00074726477 0.0051285387 -0.00093233521
0.0050000004 0.015788741 0.0034271367
0.0050000004 0.0067474721 0.00087701611
0.0050000004 0.015443105 -0.010477243
0.0050000004 -0.010596897 0.0017671561
-0.0050000004 -0.0088599231 0.00018265058
0.0050000004 0.0055991299 0.012357082
0.00037406752 -0.011800085 -0.013565139
0.0050000004 -0.020134937 -0.0035391112
0.0050000004 0.01328533 0.0025526988
-0.0028458782 0.020236518 0.0052605621
0.0050000004 -0.012681591 0.0084036691
-7.9187943e-05 0.015831478 -0.0019787857
-0.00095129973 -0.0017451469 -0.010914454
-0.0032334263 -0.013175079 0.016133817
0.0050000004 0.0066212392 -0.018856388
-0.0050000004 0.01100129 -0.017099701
-0.0050000004 -0.0090692472 0.016891159
-0.0023861707 0.015986221 -0.011955244
-0.0045758504 0.019909732 0.0063397363
0.0050000004 0.0051939492 0.0018077594
0.0050000004 0.00029101872 0.0047119563
0.0023910091 -0.00024919029 -0.0029672028
-0.0050000004 0.0073328777 -0.0076548117
-0.0042174626 -0.016406892 0.012819204
-0.0045961416 0.0039218715 -0.020483647
0.0050000004 -0.0041890061 -0.017898995
0.0050000004 -0.010732239 0.0092011429
-0.00068067195 0.010105046 0.014968449
-0.0021417027 0.019293685 -0.0031578015
0.0025270986 -0.0026586105 -0.0013539231
-0.0050000004 0.0094507523 0.0091091283
0.0050000004 -0.010200172 0.011905187
0.0050000004 -0.0088786436 0.016319256
0.0050000004 -0.014927405 -0.011677925
-0.0022572549 0.014967152 0.012919655
0.0027345927 0.016984669 -0.011636887
0.0050000004 -0.0092596607 -0.0093783978
-0.0050000004 -0.0076727602 -0.016171925
0.0050000004 0.017809246 0.010948674
0.0020632921 -0.0047976216 -0.018942023
-0.0050000004 0.01054774 0.011195894
-0.0035546219 -0.017810661 -0.010989799
-0.0050000004 -0.0052237394 0.01909115
-0.0050000004 0.0072218399 0.016695607
-0.0050000004 -0.014093142 -0.0022547061
0.0031093776 -0.019083133 -0.0083353333
0.0050000004 0.010297005 0.0012317086
-1.0587872e-05 0.0090000005 -0.0016306078
0.0050000004 0.001667096 -0.0045655901
-0.00079825177 0.0034975181 -0.00088134827
0.0050000004 0.00062023738 0.016530801
-0.0050000004 -0.0072405762 0.015116459
-0.0050000004 0.014188704 0.0080106892
-4.6159053e-05 -0.001987634 -0.012086719
0.0041964976 -0.019317811 0.007768766
0.0050000004 0.016690042 -0.00040294457
-0.0038569388 -0.0091727478 0.018736264
-0.00033796026 -0.002903196 -0.0007355024
0.0050000004 0.01903671 0.0069876425
-0.0012720746 0.011740914 -0.0014600256
0.0020711201 -0.010230082 -0.016628085
-0.0050000004 -0.0054535475 0.016023913
-0.0019335155 -0.013569852 -0.013767491
-0.0049559572 0.020339418 -0.0050173495
-0.0028109285 0.0025478152 0.020533143
-0.0050000004 0.0084141269 0.01509023
-0.0050000004 -0.010524848 0.0068758009
0.0050000004 -0.0039745076 -0.011617997
0.0050000004 -0.01436542 0.0024362083
-0.0050000004 -0.0034021547 -0.0084647508
0.0039917519 0.014340161 -0.015239806
-0.00099762355 -0.011209393 -0.014227203
-0.0050000004 0.010624744 -0.00018070683
-0.0050000004 -0.011469157 -0.0029906465
0.0050000004 -0.012113161 0.0023418604
-0.0050000004 0.013244378 -0.0070098215
-0.0026733316 0.0030363235 0.020230507
-0.0050000004 0.0049705296 0.0049398006
-0.0012595048 0.015520173 -0.0099480078
-0.00089700869 -0.018019281 -0.001679452
-0.0019058817 0.00035131886 -0.0136589
-0.0050000004 0.014398921 -0.0034921772
0.0049999999 -0.010126778 -0.005414607
0.0033478085 -0.0076556173 -0.019364679
0.0050000004 -0.014710544 0.006441331
-0.0030498498 -0.0012634568 0.0026960848
0.0050000004 0.0092472807 0.016812326
0.0010007785 -0.016705826 0.0069986708
-0.0050000004 -0.0012595749 0.0064281011
0.0034754439 -0.013514923 0.015873041
-0.0050000004 -0.0089964271 -0.01136224
0.0050000004 -0.0012009677 0.0157941
0.00077142828 0.0017933345 -0.014827435
-0.00324084 0.020465635 0.0040586758
0.0050000004 -0.00030798293 0.01936334
0.0050000004 -0.0033144704 0.0011729329
-0.0050000004 0.0037907241 -0.013097061
0.0049999999 0.0050739604 -0.016272526
0.0044003599 -0.019329485 0.0077405893
-0.0050000004 0.016978696 0.012070279
-0.0018390105 -0.00060093147 -0.013696455
0.0050000004 0.0060647205 0.0082839224
-0.0050000004 0.00224986 -0.012282515
-0.0050000004 -0.00070476066 0.018537572
-0.0050000004 0.011952499 0.0016837219
0.0029983928 -0.0026031067 -0.0014879135
0.00080943439 -0.016308302 0.0078240624
-0.0004221441 0.016255414 0.00768292
-0.0041066431 0.0021312388 -0.020719402
-0.0050000004 0.0080535244 -0.0045103892
-0.0050000004 0.0099950302 -0.0031824361
-0.0050000004 -0.015560908 0.01053068
0.0050000004 0.0092106098 0.015217407
-0.0050000004 -0.017862145 -0.0036202341
0.0050000004 -0.0085510258 0.015242239
-0.0020038513 -0.018672233 0.0053653498
-0.0050000004 0.0065423837 -0.018404273
0.0050000004 -0.0038100765 0.016009547
0.0023269821 0.00092103099 0.019909114
0.0050000004 -0.012472457 0.016058175
0.0050000004 0.019022375 0.00026630473
0.0050000004 -0.014816131 -0.0064454195
0.0050000004 0.00097213755 0.0070057502
0.00087079988 0.01022785 -0.0017667128
0.0044224421 -0.0002760393 -0.020963658
-0.0038290182 0.013255164 0.016072365
0.0050000004 -0.010332719 -0.0065818033
0.0050000004 0.016005546 0.011968113
-0.00014526169 0.0011905857 -0.0076429476
-0.0050000004 -0.013208998 -0.0055859773
-0.0050000004 -0.01689001 0.0049047233
0.0050000004 -0.010764095 -0.012499679
0.0050000004 -0.012563529 0.016122615
0.0050000004 0.014930538 -0.014584119
-0.0050000004 -0.0055800988 -0.0014104595
0.0050000004 0.015615973 0.010357436
0.0050000004 -0.00050809397 0.01339326
0.0050000004 -0.011885968 -0.0012549735
-0.0050000004 -0.017554635 -0.010910667
-0.0050000004 0.0053563924 0.0018618365
0.0050000004 0.012183869 -0.0056455745
0.0013151128 -0.013396468 -0.012806205
-0.0050000004 0.013266134 -0.0028998724
-0.0050000004 0.01660824 -0.0079547791
-0.0050000004 0.018371601 0.0014223119
0.0050000004 -0.0052267443 0.0078044152
0.0050000004 -0.013516029 -0.0079884464
0.0049824067 -0.010805621 0.01795199
-0.0050000004 0.0084142368 0.01766994
-0.0050000004 0.016457025 -0.00050443364
-0.0050000004 0.0065752696 0.0045370818
-0.0044211997 0.0013874243 -0.020817332
0.0034162109 -0.0079889186 -0.01922662
0.0038362518 0.013786639 -0.015664544
-0.0050000004 -0.0066596721 0.0078282757
-0.0011805637 0.0077779135 0.016575972
-0.0050000004 0.016290348 -0.0075694551
0.0050000004 -0.016588043 -0.0046482161
0.0050000004 0.01201599 0.007918179
-0.0050000004 -0.0069144461 0.0030742995
0.0050000004 0.0066085514 -0.01382889
-0.00041815071 -0.017582305 0.0040239971
-0.0050000004 -0.0086255996 -0.017422842
0.0031664278 -0.020709114 -0.0022093877
-0.0050000004 -0.014662815 0.014609584
-0.0050000004 -0.0028186231 0.0059806667
0.0050000004 -0.0060839639 0.0092806462
-0.0050000004 0.0033622647 0.013318316
-0.0050000004 0.013102259 -0.0076266881
0.0018950179 -0.0086683817 -0.01710178
-0.0050000004 -0.013913806 -0.0043933867
0.0011265149 -0.0016055855 -0.018140599
0.0050000004 0.012777655 -0.015879637
-0.0050000004 -0.0087176692 -0.01493576
-0.0029004544 0.0029226467 0.00058776978
0.0025054896 0.019122509 0.0065292418
0.0032973925 -0.02082612 0.0013206919
-0.00056581368 0.0018484186 -0.014803336
-0.0024163108 0.019372268 -0.005526104
-0.0050000004 -0.0076280939 -0.011029392
0.0050000004 0.018801028 -0.0052252305
-0.0011348129 -0.010344882 -0.015059825
-0.00089972391 0.0053033084 0.01737841
-0.0046682288 0.015422956 0.014101479
0.0050000004 -0.011163657 -0.001468035
-0.0050000004 -0.015947632 -0.012256655
-0.0026578065 0.0010865248 -0.0027693764
0.0029951702 -0.0016547774 0.020782134
-0.0050000004 -0.011603563 -0.0084371297
-0.0050000004 0.006032194 0.019806199
-0.00012910896 0.016958283 0.0057826238
0.0050000004 -0.014467162 0.015079655
-0.0050000004 -0.0069640228 0.015427
-0.0050000004 -0.012273199 0.0085936282
-0.0050000004 0.0003992003 0.012688858
-0.0017374813 0.014577157 -0.011961727
0.0011031656 0.0016289345 -0.011441611
0.0013113145 0.0014207856 -0.015744334
0.00014814145 -0.017636707 -0.0030612117
-0.00030972812 0.0011465264 -0.0081522213
-0.0021488287 0.00048288656 -0.0029364524
