# .PCD v0.7 - Point Cloud Data file format
VERSION 0.7
FIELDS x y z
SIZE 4 4 4
TYPE F F F
COUNT 1 1 1
WIDTH 1000
HEIGHT 1
VIEWPOINT 0 0 0 1 0 0 0
POINTS 1000
DATA ascii
0.0042138877 -0.01422348 0.018453624
-0.0031137755 0.00074140396 0.0029024193
0.0050000004 0.012351138 0.0058756582
0.0050000004 -0.0092872754 -0.0087919412
0.0050000004 0.007882908 0.010414873
-0.001165018 -0.018548995 -0.0094512701
-0.0050000004 -0.0046993913 -0.022587921
-0.0050000004 -0.014814032 -0.015047772
-0.0050000004 0.0026588065 0.011854118
-0.0050000004 0.0054098507 -0.01772327
0.0050000004 -0.016930593 0.0044157756
0.0050000004 0.02171649 0.0060033863
0.0050000004 -0.020383779 -0.0047256602
0.0016098467 0.011909965 0.017576691
0.0050000004 0.0052576875 0.014094193
0.0050000004 0.0070686173 0.0181689
-0.0050000004 0.0088452799 -0.020510104
-0.0050000004 0.0092651127 0.01467784
-0.00059067161 -0.019981191 0.0051429952
-0.0050000004 0.017825007 -0.0060226652
-0.0050000004 -0.011821995 -0.016374797
0.0025649501 -0.013824967 0.018062748
0.0050000004 0.006808118 -0.0031027859
0.00094290113 0.0046594678 -0.00073669897
0.0050000004 -0.00079789077 0.0035923487
0.00039378044 0.015110711 0.0018945063
0.0032792818 0.01372104 -0.018839162
-0.0050000004 -0.00093754509 0.0096574454
-0.0013244305 -0.0084161572 0.019148782
0.002672645 -0.022802316 0.0024820711
-0.0045081084 -0.0088917138 -0.021535551
-0.0035989631 -0.01806384 0.014731456
0.0050000004 0.0041786153 0.0042602681
0.0020847276 -0.021756422 -0.0026916289
0.0017791736 -0.014629757 -0.015744396
-0.0026566398 -0.021246443 0.0085568624
-0.0038796864 0.0093882317 -0.021329887
0.0050000004 0.019787019 0.0046980074
-0.0050000004 -0.0031966849 0.012495645
0.0050000004 0.0038673305 0.015335113
-0.0050000004 0.0055399868 0.010572789
-7.2152034e-05 0.014534634 0.014476455
-0.00038097796 0.018611681 -0.0018979362
0.0050000004 0.011036024 0.0020201551
0.0050000004 -0.0089479471 0.0024883146
-0.00071893347 0.020297276 0.0030030617
-0.0050000008 0.00062030158 0.0057232669
0.0026221515 -0.015760597 -0.016701303
-0.0050000004 -0.0029800446 0.018609993
-0.0019816598 0.021336837 0.004522589
0.0045565399 0.012374789 -0.019872183
-0.0049999999 -0.0042129084 -0.021641675
-0.0050000004 0.010566898 0.0014478923
0.0020124866 -0.003183559 0.021566518
-0.0050000004 0.014683588 0.018100465
-0.0050000004 -0.019909561 0.010995379
-0.0027073093 -0.0046680714 -0.022574598
-0.0050000004 0.011412496 0.017586017
-0.0019814395 6.9282374e-05 -0.014464609
0.0050000004 0.0063342797 -0.01477336
0.0050000004 0.0093089547 0.010913945
0.0050000004 0.0010395193 -0.0080603557
0.0050000004 -0.01238161 -0.0047756112
-0.0033948428 -0.0040545361 -0.022966236
-0.0026478216 0.022233525 0.0061342865
-0.0027861325 0.020547772 0.010824674
-0.0048132204 -0.02244778 0.0066894232
-0.004967052 0.022582985 0.0063630068
-0.00093212462 0.0080576744 -0.00074747554
-0.0048792111 -0.0064936471 0.022528874
0.0039392589 0.01918078 -0.013275836
-0.0050000004 -0.01532614 0.012191388
0.0050000004 0.016443364 -0.00049589539
-0.0011207876 0.012503535 -0.016510163
0.0050000004 -0.016670668 -0.007036183
0.0050000008 -0.01120548 -0.014394215
0.0050000004 -0.0046818722 -0.020937774
0.0050000004 0.0025547806 -0.021352774
0.0050000008 -0.0002853107 0.023009384
-5.3597287e-05 0.0012151418 -0.0069255428
0.0024710773 0.02128759 -0.0076248343
0.0050000004 0.019776285 0.0088302996
0.0041376622 0.0013878979 -0.0026445398
0.0011068163 0.0088710971 -0.00076615077
0.0050000004 0.014525764 -0.011385234
0.0001451729 0.0067037144 -0.019264193
-0.0048440476 0.0027694427 0.0010863669
-0.0011522132 0.018498378 -0.0015798871
0.0050000004 -0.015176143 0.0088115707
0.0019303315 -0.019083634 0.010519041
-0.0050000004 0.0050133462 0.0032713686
-0.0019368383 0.00023576661 -0.019443801
0.00064001133 0.012327176 0.016373994
-0.0050000004 -0.0060344599 -0.022175485
0.0041034585 -0.011135864 0.020605989
0.0050000004 -0.0015179658 0.0029971029
0.002769842 0.019564085 0.012446377
-0.0013511847 0.016546831 -0.0013809155
-0.004720686 -0.016408797 -0.016776761
-0.0050000004 -0.018528232 0.011561792
0.0050000004 0.020667778 0.010394031
-0.0043782825 -0.02130636 0.0094450321
-0.0050000004 0.002954022 0.021658186
0.0050000004 -0.021100689 0.0075243637
0.0050000004 -0.019988092 -0.0014018341
-0.00014703441 0.01202957 -0.0019606096
0.00070172769 0.0018120073 -0.010310774
0.0014230468 0.01722838 0.0013090534
0.0050000004 -0.020171827 0.0033324892
0.0050000004 0.0087398076 0.0040927767
-0.0018807086 -0.02117081 -0.0044555832
0.00053160358 -0.0037533604 0.020148328
0.0050000004 0.0071495371 -0.007844788
-0.0050000004 -0.011590104 -0.0044565857
-0.0050000004 0.0051806201 -0.0071836961
-0.0050000004 -0.0084872684 0.0020490361
0.0050000004 -0.0041408469 0.009920544
-0.0050000004 -0.0082456945 0.014135967
0.0050000004 -0.0024120517 -0.021076657
0.0037955279 0.010160319 -0.021010075
0.0050000004 -0.0086790891 -0.0074930806
0.0050000004 0.0089484388 -0.0063876132
0.0045499876 0.022860115 0.0048606414
0.0050000004 0.012006021 0.013159606
0.0050000004 0.0056796283 0.021571403
-0.00047977988 0.012259157 0.016372524
-0.0017803028 -0.015777346 0.01459
0.0050000004 4.129513e-05 -0.017547356
-0.0050000004 -0.017780704 -0.012016021
-0.0050000004 0.0099616386 0.012252585
0.0050000004 0.020796185 -0.0070399917
-0.0050000004 -0.0013430121 -0.023043063
0.0050000004 0.00070755742 -0.017828761
0.0050000004 0.0047827223 -0.015509326
0.0050000004 -0.0076241717 0.0086778319
0.0050000004 0.0089714285 0.0032520629
0.0050000004 -0.0025064293 -0.015868684
0.0050000004 -0.014334191 -0.011280463
-0.0050000004 -0.016306257 0.013895568
-0.0050000004 0.0063026347 -0.013622642
0.0050000004 -0.0028881866 -0.019385289
-0.0050000004 -0.0083626043 -0.018452058
0.0050000004 0.012223449 -0.0074640708
-0.0050000004 0.014695029 -0.0017211839
-0.00091438717 0.0067805476 -0.019453546
-0.0050000004 -0.01529058 -0.00081023126
-0.0050000004 0.0041018678 -4.1093826e-06
-0.0004476074 0.017279344 0.001880086
0.0050000004 0.017891273 0.0018804861
0.0050000004 0.0076127159 0.0059465282
0.0050000008 -0.011489798 0.015329115
0.0050000004 0.0086177625 -0.015060861
-0.0050000004 -0.0092268372 0.013500896
0.00084245607 -0.018305378 -0.0095025757
0.00019777991 0.015335948 -0.0019470149
-0.0050000004 0.020985384 0.0075420463
-0.0015869108 0.0076825046 -0.019734325
0.0050000004 0.0047488129 -0.0051986813
-0.003526187 0.0050074365 0.02284079
-0.0050000004 0.015775599 0.0075926674
-0.0050000004 -0.0047851047 0.012165758
0.0050000004 -0.011559856 0.018916018
0.0050000004 0.019099835 0.0019001552
-0.0021966049 -0.0023242405 0.0018568559
-0.00070851075 0.0031888268 -0.00097108935
0.0050000004 0.016838269 0.0091127539
-0.0050000004 0.0018608146 0.020767087
0.0019986574 0.021098049 -0.0059624966
0.0050000004 0.00383177 -0.0011254762
0.0050000004 -0.007206752 -0.016519884
-0.0050000004 -0.014033537 0.017356025
0.004335172 -0.017725652 -0.015172186
-0.0018542338 -0.018234842 -0.011595839
-0.0017828192 0.00081067934 -0.0090471273
0.0022289844 -0.017663056 -0.013398171
0.0042752894 0.00015638275 -0.0029794176
0.00034271544 0.010762272 0.017475206
0.0012298963 0.0015022036 -0.010321631
0.0010511741 0.0010237815 0.020684376
0.0036428014 0.021274351 -0.0095223086
-0.0015882376 0.0011438625 -0.016619759
-0.0050000004 0.0034190682 0.0065836022
-0.0044079381 0.023403523 -0.00073285919
0.0050000004 -0.01581689 0.0048487005
0.0050000004 -0.019529143 0.011463081
0.0050000004 0.0072240699 -0.002364483
-0.0050000004 -0.0012647394 -0.0098353699
0.0050000004 0.0056652795 -0.019773813
0.0050000004 -0.0066397092 0.0053863022
0.0050000004 0.0018825204 -0.0090884482
-0.0050000004 0.010760325 0.0088497261
-0.0013454104 0.0013866897 -0.01637785
0.002067938 0.00593621 -0.021237714
0.0050000004 -0.0018893844 -0.0085231792
-0.0027434076 -0.016326148 -0.016529808
-0.0037795121 0.013258761 0.019193882
-0.0050000004 -0.017770803 -0.0139609
0.0050000004 -0.0057195905 -0.021350024
-0.0050000004 -0.0041163466 0.016205452
-0.0016963736 0.014086537 0.016014686
-0.0028655338 0.019103216 0.013316932
0.0050000004 0.0048024654 0.0018729053
-0.004144154 0.0011837819 -0.002729089
0.0050000004 0.0075494447 0.014302108
-0.0050000004 -0.017443065 -0.012057487
-0.0050000004 0.0057073156 -0.002287078
0.0019978371 0.014419468 -0.016379051
-0.0010996199 0.0016324801 -0.017740184
0.0050000004 -0.011697205 0.00028053095
0.0050000004 0.016153397 -0.01667688
0.0007788589 0.0017913438 -0.019100707
0.0045147133 -0.018797969 -0.013774724
0.0050000004 -0.022785971 0.0015079292
-0.00027869176 -0.0083206696 -0.018632799
0.0012891777 -0.020724706 0.0025250476
-0.0025285967 0.021657921 0.0069888965
0.0036258942 -0.013223592 -0.019220868
0.0016852668 0.0099370684 -0.018905984
-0.0050000004 -0.0032314963 0.0029862386
-0.0050000004 -0.019830797 0.0075238212
-0.0050000004 0.0038780633 -0.013118134
-0.0050000004 0.020171896 0.0020916171
0.0050000004 -0.0016659127 -0.0063157948
-0.0049999999 0.0059117624 -0.011625559
0.0050000004 0.0077565904 -0.0039838487
-0.0050000004 -0.0089499205 -0.019546501
0.0050000004 -0.0092748571 0.0022394324
0.0050000004 -0.0033922563 0.007349459
0.0050000004 0.011548055 0.02039391
0.0050000004 -0.015173148 0.00061124802
-0.0039625042 0.023041697 -0.0034813152
0.0022120341 0.013319071 -0.017687026
-0.0011976961 0.010928926 0.017814485
0.0048962161 0.023222413 -0.0021085951
-0.0010761762 0.016237993 0.012785594
-0.0050000004 -0.0046762214 -0.010154484
-0.0050000004 0.0057837684 0.006893001
-0.0050000004 -0.0045310007 -0.021874007
-0.0048264959 -0.023477878 0.00016805682
0.002095978 -0.02025836 -0.0084263748
0.0050000004 -0.0094211139 0.013567038
0.0050000004 -0.0054926984 -0.019745791
0.0050000004 -0.013908178 -0.010820874
-0.0050000004 -0.015032073 0.0016806594
0.0050000004 -0.015988978 0.016739221
0.0050000004 0.014409538 -0.0094979927
0.0050000004 0.0049207616 -0.0060917223
0.0026799645 0.013197247 -0.018793374
0.0027438789 0.022798905 -0.0034451701
0.0046602837 0.01845425 0.014222665
-0.0050000004 0.016918363 0.011715097
0.00038195887 0.0011271763 -0.0053294194
0.0050000004 -0.015495591 -0.014847663
-0.0050000004 -0.010961029 -0.0090096593
-0.0036617073 -0.023325391 0.0013263593
0.0025891252 -0.0058226418 0.022217873
0.0050000004 0.013697035 0.0044899704
-0.0050000004 0.020085521 0.010882664
-0.0050000004 -0.0069800741 -0.015455766
0.0050000004 -0.017798185 -0.0058668111
-0.0050000004 -0.0042298562 0.020524101
-0.0050000004 0.015202965 0.0087719318
-0.0011007346 0.008307674 0.00048066236
0.00057261257 -0.0010761017 -0.0041073794
0.0050000004 -0.0052928487 -0.014013162
-0.0050000004 0.020913485 0.0056825881
-0.0029702585 0.020568989 0.011225181
0.0031528012 0.0062360866 0.02263556
-0.0050000004 -0.0089772884 -0.017274648
-0.0050000004 0.0068522524 -0.0059749749
-0.0050000004 -0.005889737 0.012211651
-0.0050000004 0.0061359918 0.015719298
0.0050000004 0.012566956 -0.0013163604
0.0050000004 -0.0041112262 0.016904972
-0.00063947821 0.0018286839 -0.012721865
0.0050000004 0.0096524842 -0.015506057
-0.0050000004 0.00037437622 -0.012245451
-0.0050000004 -0.017298521 -0.0029290139
0.0050000004 0.016724572 -0.0089952489
-0.0050000004 0.0048924368 -0.020790994
0.0050000004 0.0054404805 -0.0065436866
-0.0050000004 0.0029494779 0.016666988
-0.0050000004 0.020806836 -0.0059011728
0.0050000004 -0.00072342757 -0.017156405
0.0011263224 0.0057798754 0.020028196
-0.0020211765 -0.018162293 0.012161301
0.0050000004 -0.014716377 0.0011713429
-0.0050000004 0.0049375831 0.0028505092
0.0046552587 0.014419964 -0.018302858
0.0050000004 0.0044674873 0.0065798648
-0.0022758225 -0.020804597 -0.0079146922
0.0050000008 0.0082474677 0.0035174924
-0.0022691162 0.0037038627 0.021942537
0.0008446821 -0.014914652 -0.014318378
-0.00097344862 0.006488801 0.00070615148
0.0035021582 0.0084074941 -0.021736126
-0.0029753451 0.020754671 -0.010776917
-0.00062717189 0.0018319808 -0.012586335
-0.0050000004 -0.020951649 0.0088624256
0.0026331709 0.022603514 0.0034730479
0.0050000004 0.019138137 -0.012126647
-0.0050000004 0.0055050892 -0.0044962503
-0.0050000004 -0.02143997 -0.0048068361
0.0033776611 -0.014042754 -0.018592302
0.0027280045 0.016265076 0.016543329
0.0050000004 0.022900274 -0.0013167476
-0.0039065112 -0.02111515 0.0099066487
-0.0019291266 0.010466619 -0.019103108
0.0030328003 0.01257096 0.019721653
-0.0027412339 0.0048179552 -0.022613602
-0.0050000004 -0.01017977 -0.019492839
-0.0050000004 -0.0025731851 0.010864847
0.0050000004 0.0037481079 -0.0099009434
-0.0050000004 0.0045528151 0.008053177
0.0019303256 0.00026007669 -0.017779805
0.0026193406 0.021386662 0.0080509698
0.0050000004 0.0087930094 -0.012093917
-0.0050000004 0.0094240895 -0.019259486
-0.002680677 -0.021314247 0.0085010389
0.0050000004 -0.0032890688 -0.0040262644
-0.0050000004 -0.012920896 0.0021483542
-0.0050000004 0.001789774 -0.0054324879
0.0050000004 -0.0026684562 -0.020337626
-0.0050000004 -0.0029851911 -0.020797892
-0.0050000004 0.022055913 -0.0070161787
-0.0026634003 0.0015328287 0.022911269
-0.0050000004 -0.0012863454 0.022943875
0.00066389842 0.013392497 0.015564553
-0.0050000004 -0.018355245 0.014283392
0.00092193444 0.0080495626 -0.00075766566
0.0019125276 -0.021319777 0.0037427051
-0.0049999999 -0.0055677416 -0.012362015
0.00062850275 0.019070126 -0.0075077927
0.0050000004 -0.01332596 0.0092440546
-0.00022565968 0.0046717143 0.0011690477
-0.0050000004 0.021482376 -0.00082679704
-0.0001760821 0.0090000005 -0.0016139856
-0.0040107272 0.019740872 -0.012545913
0.0050000004 -0.01552524 -0.0059226104
-0.0050000004 0.01512227 0.015380778
0.0023377039 -0.021764891 0.0058740433
-0.0050000004 -0.0093444455 -0.0090018027
0.0050000004 -0.00022737368 0.0045279795
0.0036865845 0.011255631 0.020556377
0.0050000004 -0.0013606533 0.018860295
0.0025051665 -0.00993005 -0.020396095
-0.0050000004 0.0011110523 0.010740036
0.0050000004 0.0049745915 -0.00021018935
1.5092851e-05 0.017871514 0.0099755712
-0.0050000004 0.01093833 0.014531447
0.0029957762 -0.023469837 -0.00022910943
0.0050000004 0.0038757341 0.014181753
0.0028196974 0.015508714 0.017322179
0.0050000004 -0.0011420174 -0.009992701
0.00051492278 0.0018620524 -0.019427309
-0.0050000004 -0.018100506 0.012245058
-0.0050000004 0.0091077741 -0.020676643
0.0050000004 0.0083576655 -0.019877916
-0.0043209963 -0.021031193 -0.010109331
0.00056208239 -0.018710328 0.0083303377
-0.0030001083 -0.01923337 -0.013207299
0.0020670439 -0.0073396903 -0.020654706
-0.0050000004 -0.0032594549 0.014008735
-0.0050000004 -0.01157102 0.014941471
0.00059203489 0.0098743038 0.0018413939
-0.0050000004 -0.0075361999 -0.011136179
-0.0034914371 -0.0072725834 -0.022206225
0.0050000004 -0.00027882983 0.021333
0.0050000004 0.011208664 0.019028593
-0.0050000004 -0.010273561 0.016689306
-0.0050000004 -0.0051955716 -0.001200372
-0.0050000004 0.020737749 0.0086483425
-0.0049999999 0.019730328 -0.011183932
0.0037003967 0.014883 -0.017947555
0.0021068801 0.021236593 -0.0061136652
0.0050000004 -0.0098997988 0.0035499174
-0.0050000004 -0.015876677 -0.0048815506
-0.0041589178 -0.017592583 0.015345606
0.0045368331 -0.0022971248 0.0018921894
-0.0037686294 -0.011306078 -0.020535482
-0.0050000004 -0.013696134 -0.016840434
-0.0024317363 0.007991896 -0.021062424
0.0050000004 -0.015113766 -0.004990899
0.0010982152 0.010078639 -0.0016338849
-0.0032399541 0.009294726 -0.021368619
-0.0022994506 -0.022354947 0.0009702823
0.0013388518 0.012939751 0.0013932484
-0.0050000004 -0.0034683321 0.0058022514
0.0014958335 0.012482604 -0.016994834
-0.0050000004 0.018963687 0.0063663344
-0.0050000004 -0.018033495 -0.010187876
-0.0050000004 0.0056874761 -0.020255215
0.00027160987 0.019090502 0.0072107906
-0.0050000004 -0.014310212 -0.0095464205
0.0012178373 -0.020330219 -0.0049793972
0.0050000004 0.0011703862 0.014939825
-0.0050000004 0.0078915562 0.0201339
-0.0019782272 -0.019418148 0.0099263908
-0.0050000004 -0.018382492 -0.0046508913
0.0050000004 -0.00025052828 -0.012190533
0.00097977871 -0.019469026 0.0067885644
-0.0033034913 0.017398441 -0.015598613
-0.0017818813 0.00048471679 0.0029362037
0.0050000004 0.013742593 0.01210628
0.0025361171 -0.018819295 0.012757685
-0.0050000004 0.0062231384 -0.0072962465
0.0050000004 -0.010569532 0.018828422
0.0050000004 -0.01461783 -0.016864982
-0.0012738096 0.0013098584 0.0026768637
-0.0050000004 -0.016587365 0.009086689
-0.00032825902 -0.0036719874 0.020104539
0.0024756147 0.011085091 0.019862721
-0.0028429618 0.013955745 0.01856418
-0.0050000004 -0.0089276731 -0.0032898786
-0.0050000004 0.015431578 0.0045773936
-0.0018157092 0.0031518708 -0.02122988
-0.0018616078 -0.017969063 -0.011963018
0.0018277793 0.016054453 0.00064285472
-0.0050000004 0.0043064654 0.021606725
-0.0037995712 -0.019542037 0.01280504
-0.0021669122 -0.01906733 0.011392946
0.0050000004 0.0062761959 -0.021805771
0.0050000004 -0.0074227694 -0.015704488
-0.0050000004 0.0060405573 -0.022683037
0.0050000004 0.020174144 -0.007337762
-0.0050000004 0.014741515 -0.011565636
-0.0017947116 0.015945865 0.00076628785
0.0050000004 -0.0024185125 0.015760846
-0.0050000004 0.0078718634 0.011497391
0.0028775115 -0.018740702 0.013823153
-0.0050000004 -0.014468081 -0.0025900488
-0.0049999999 0.0059396727 -0.010974227
-0.0050000004 0.009612035 0.017282601
0.00038951918 -0.0018956478 -0.014545907
-0.0050000004 -0.0012197288 -0.0077278316
0.0050000004 0.0016432286 0.016168879
-0.000539153 -0.02033646 0.0023398125
-0.0050000004 0.0012611849 0.011807767
0.0048092483 0.023367245 0.0010084383
0.0050000004 0.0070334929 0.0099815456
0.0050000004 0.0062578949 0.0063936301
0.0050000004 -0.019603869 0.012227526
0.0050000004 -0.0097649423 0.0063486751
0.0050000004 0.014986698 -0.0086524552
-0.0050000004 0.004695015 0.0099151582
-0.0026760097 -0.022815727 -0.0024244888
0.0050000004 0.0083604455 0.01147502
0.0050000004 0.006953422 -0.004947911
-0.0031677678 0.0027727878 0.0010783148
0.0050000004 -0.011399392 -0.017116578
0.0028833149 0.02311803 -0.0028556385
-0.0050000004 0.01246349 -0.01331642
0.0023645288 -0.0084303385 -0.020755891
-0.0050000004 0.015526971 -0.010671721
0.0050000004 0.0091270087 0.01574423
-0.0050000004 -0.012702649 0.0063627101
0.0028325266 0.022615138 0.0060074371
0.0050000004 -0.013565515 0.0057168524
-0.0050000004 0.0096787494 0.020015033
0.0050000004 -0.00049651274 -0.0063845492
0.0050000004 -0.013589099 -0.0066020032
0.0050000004 -0.013391508 0.011479064
0.0050000004 -0.0081278495 -0.0067506218
-0.0020035629 0.019741403 0.0092596989
-0.0050000004 0.014923822 -0.014521637
0.0050000004 -0.010415831 0.010584272
-0.00085761514 0.010831444 0.017594583
0.0050000004 -0.013823912 0.0054366342
-0.0050000004 0.017949434 0.0055423463
-0.00069621281 -0.010621826 -0.017701369
-0.0003887965 0.0074131312 0.0011253445
-0.0016688539 0.020726738 0.0053930804
0.0050000004 -0.003257086 0.014832934
0.0050000004 -2.2617745e-05 0.013006242
-0.0050000004 0.0086862026 0.015466593
0.0050000004 -0.0056423242 -0.014529597
0.0050000004 -0.017375039 0.0049530715
0.0050000004 -0.014581977 0.016924122
0.0038212507 -0.00091450918 -0.023379609
0.0050000004 -0.014768526 0.005871064
0.0024720165 0.0063025984 0.02183703
0.0050000004 0.0032582271 -0.0069676205
0.0050000004 -0.011765775 -0.017831437
-0.0050000004 0.015589463 -0.006026492
-0.0022376538 -0.0003883731 -0.0029488888
0.0006835697 0.0088722678 0.001189103
0.0050000004 -0.016241025 -0.0072062346
-0.0050000004 0.0048200171 -0.018451285
-0.0050000004 0.015913995 0.014095995
0.0050000004 0.0075142016 -0.009338933
0.00025051355 0.0012401985 -0.0088073099
-0.0050000004 -0.017024077 0.011919601
-0.0023600098 0.017437421 0.01406179
-0.0020630097 -0.0022436853 0.021777764
-0.0050000004 -0.0014910609 -0.010874895
0.0015656617 0.017730802 0.011637163
-0.0050000004 -0.014788616 0.01006791
0.0050000004 0.012537212 -0.0040592048
0.0010968434 0.007838713 -0.019143784
-0.0050000004 0.0059427107 0.0065455097
0.0018410551 0.019929521 0.00059329969
-0.0050000004 -0.016686568 0.0074602324
-0.0050000004 -0.0088980366 0.01550568
0.0050000004 0.017587963 -0.014043532
-0.0026916144 0.010280512 0.020597486
-0.0025038032 0.010176632 0.020291418
0.0011861953 0.0095570628 0.018527914
-0.0050000004 -0.011039845 -0.018422659
0.0019639882 -0.0016103644 0.021689633
0.0050000004 0.0068706535 -0.0030397889
0.0050000004 -0.019708343 -0.0051523093
-0.0026835047 -0.0096566593 -0.020840826
-0.0050000004 -0.011886495 -0.017906278
-8.1897742e-05 -0.00096458441 0.0028198888
0.0033687316 0.011948628 0.020199187
-0.0050000004 0.012143052 0.0060412851
0.0050000004 0.0072500701 0.0029351059
-0.0050000004 -0.0063446639 0.0069407756
0.0019009658 -0.021648252 0.0010956062
-0.0050000004 -0.010442347 -0.0063509592
0.0002193876 0.017384775 0.0108263
-0.0050000004 0.01795131 -0.0092759188
-0.0050000004 -0.01315147 0.016050389
-0.0050000004 -0.0012244201 0.0067450795
0.000356654 0.014770482 -0.014293261
-0.0025175677 -0.0095556928 0.02057421
0.0050000004 -0.0010920122 -0.0044674063
-0.0019407338 0.017679229 0.012563932
-0.0050000004 0.011060323 0.01628772
-0.0050000004 0.015803866 -0.001251495
0.0027461268 0.022592042 0.0050462494
-0.0039676083 -0.0029184325 -0.00061973947
-0.0042639989 0.021565996 0.0088182222
0.0050000004 -0.013406198 0.018217934
0.0050000004 -0.010037291 0.012579639
-0.0028434738 0.022275405 -0.0069111502
-0.0032571226 0.0010499093 -0.0027845441
-0.0050000004 -0.021966433 0.00039648535
-0.0046760766 0.0029468855 -0.00040355572
0.0022889334 -0.021733304 0.0055538374
-0.0050000004 -0.020139318 -0.010363073
-0.0050000004 -0.00061985431 -0.003933778
0.0019576792 0.016654924 -0.013946656
0.0011596051 -0.00026090731 -0.0033036859
0.0028407408 -0.012335304 -0.019802781
0.0050000004 0.013780739 0.0075526694
-0.0050000004 -0.0014917603 0.015148601
0.00049345935 -0.015278155 0.01369135
1.97595e-05 0.0047620535 -0.0012242068
0.0050000004 -0.020740082 -0.0097271474
0.0050000004 -0.010556177 0.020076152
-0.0036457689 0.023150524 -0.0026546658
-0.0030539932 -0.018734097 0.013857966
-0.0050000004 -0.0065794727 -0.0080153402
-0.0050000004 0.0023488123 0.0046484694
-0.0050000004 0.0051839319 0.013711442
0.0018675418 -0.00049443182 -0.015763896
-0.0050000004 -0.011378277 -0.0039883968
-0.0048085987 0.020568192 -0.011227105
0.0050000004 0.018250069 -0.013198624
-0.0050000004 -0.012008442 -0.019204402
-0.0050000004 0.0018868357 0.010051102
-0.00067486422 -0.001819204 -0.016679576
0.0050000004 0.00094379322 -0.0057097678
-0.0050000004 0.0063948398 0.0067170765
0.0050000004 -0.01662251 0.0082654795
0.0050000004 0.011497309 0.020087862
-0.0050000004 -0.011191234 -0.00040893749
0.0049999999 -0.0056948126 0.022077136
0.0050000004 -0.01432006 0.005841183
0.0050000004 -0.00064434175 -0.0095205223
0.0050000004 -0.0017179579 0.0067099705
0.00022642571 0.0019393407 -0.017684286
-0.0017340016 0.0047033755 -0.020884072
0.0050000004 -0.00093388988 -0.015505826
-0.0050000004 0.007215362 0.01960405
0.0030772344 -0.01176067 0.020343415
9.1531758e-05 -0.0029554684 0.00033834693
-0.0049999999 0.0070503536 -0.013510801
-0.0050000004 0.0032469584 -0.02047836
0.0050000004 -0.0050083804 -0.012696243
-0.0011927483 0.006775111 0.00013718873
0.0050000004 -0.0073004365 -0.015939163
-0.00057635241 -0.012713615 0.016056152
0.0032959844 -0.023412891 0.00066171068
0.00301007 -0.0042114016 0.022945585
-0.0031972334 0.021815516 0.0082158269
-0.0010056414 0.017275812 -0.011318209
0.0046591396 0.0034570913 0.023044886
-0.0047986442 -0.012199922 0.020006364
-0.0050000004 0.0028001321 -0.016791888
-0.0049661589 -0.016367756 0.016808255
-0.0050000004 -0.0045267455 0.0027506528
-0.0050000004 0.0040839529 0.0086949421
-0.0050000004 0.010146206 -0.0020453159
-0.0050000004 -0.001926017 0.01486094
0.00021442276 -0.019914852 -0.0048812334
-0.0032980992 0.0019374619 -0.0022623816
0.00045911619 0.0065723285 -0.019408876
0.0050000004 0.019955585 -0.0025014493
-0.0050000004 -0.021513592 -0.003918963
0.0031690132 0.013294532 0.019166436
0.0050000004 -0.00046682401 -0.012459389
0.0021573601 -0.016875418 0.014222568
-0.00043592486 0.0018832159 -0.016779684
-0.0050000004 0.0035042386 -0.0051328619
0.0050000004 -0.0085415728 -0.011208466
0.0019699836 0.014564604 -0.00011204361
0.0050000004 0.00058830221 -0.015098988
0.0024854129 -0.022107059 -0.0052998825
-0.0050000004 -0.021444567 0.0038364981
0.0035339629 0.011816123 0.020300867
0.0050000004 0.012994118 0.00088984444
0.0050000004 -0.0039320714 -0.015043231
-0.0050000004 0.019857282 0.0088934768
0.002510546 -0.0094078165 0.020622414
0.0011225151 0.016988805 0.011882557
0.0050000004 -0.014837447 -0.0053439718
-0.0027860203 0.0146904 0.017877202
0.0050000004 0.014405988 0.013741623
-0.0050000004 0.017283062 -0.015031601
-0.00048850186 -0.0010986343 -0.0077911383
-0.0050000004 0.022103794 0.004512039
0.0050000004 0.013322494 0.010541408
-0.0050000004 0.0077743339 -0.011966527
-0.0050000004 -0.011468853 0.0056710513
-0.0050000004 0.0036390568 -0.016670022
0.0050000004 -0.015993856 -0.011262353
-0.0050000004 0.0040247389 0.0071896412
0.0050000004 -0.013463858 -0.015210946
-0.0050000004 0.012267976 0.0080249645
-0.0040188162 -0.023396218 0.00078834262
-0.0047302917 -0.008301653 0.021779966
0.0050000004 0.015120286 -0.0052292715
-0.0050000004 -0.014680475 -0.011073503
-0.0050000004 -0.0039692791 0.022119669
-0.0050000004 -0.013030035 0.0066569936
-0.0050000004 0.019423492 0.011408359
-0.0050000004 -0.0025104694 0.0094594425
-0.0050000004 0.001658276 0.0071879793
-0.0025683448 -0.022274813 0.0051167556
0.0050000004 -0.0073053162 0.0082164425
0.0024002902 -0.012948691 -0.018378723
0.0050000004 0.0048284526 0.0079198442
0.0050000004 0.0058957273 -0.01965466
0.0041479669 -0.0093505839 -0.021345483
-0.00026739319 -0.015675595 -0.013074721
-0.0050000004 0.0092805978 -0.0078491978
-0.0024803092 -0.02019841 0.01029575
-0.0050000004 0.0027857579 0.0042241323
-0.0050000004 -0.020767124 0.0040692044
-0.0050000004 0.014212538 0.015423831
0.0023764588 0.016435917 -0.015413396
-0.0050000004 0.017469699 -0.0084837358
0.0050000004 -0.022525977 -0.0064627081
-0.0050000004 0.0053181136 -0.016108993
-0.0050000004 0.00056829804 0.017228458
-0.0027214217 0.020145809 0.011504694
0.0050000004 0.0039734999 0.0034016338
-0.0050000004 -0.014057809 0.018399701
-0.00091048173 0.02030837 0.003308618
-0.00026838866 -0.0078554209 -0.018822553
0.0014865239 -0.0052011595 0.020569691
-0.0050000004 0.005369721 -0.015609703
-0.0050000004 -0.0038907672 0.00076276687
-0.0050000004 -0.013108573 0.0043771416
0.0050000004 -0.020087052 -0.0079399189
-0.0050000004 -0.0039717429 -0.0052733463
0.0050000004 0.017334586 0.013561732
-0.0050000004 0.015508555 0.016328247
0.0050000004 -0.0067321332 -0.015115896
0.0037266628 0.0068425573 0.022384349
-0.0050000004 -0.012960319 0.0050665322
0.0032660563 -0.02277793 0.0054849247
-0.0050000004 0.00086365943 -0.0045236163
0.0050000004 0.011665633 -0.0078324666
0.0050000004 -0.0085757533 -0.012354321
0.0011857247 0.014285374 -0.015224057
-0.001206225 0.012549296 -0.0015258752
0.0050000004 -0.0096633229 0.0050397469
0.0050000004 0.00093123101 -0.020182779
0.0050000004 -0.014660592 -0.0085003814
0.0018916108 -0.00062425912 0.021694094
-0.0050000004 0.017396543 0.010432023
-0.0050000004 -0.0035329079 -0.010024231
0.00068572257 0.0067915446 -0.00099387753
-0.0015951958 0.014566047 0.0011369043
0.0050000004 0.0041481624 -0.011152093
-0.0017343198 0.00099171419 -0.018847469
0.0050000004 -0.007522794 -0.00049169589
0.0019989535 3.9068973e-06 -0.020949751
0.0050000004 -0.0031581938 0.013822773
0.00017399574 -0.0019533865 -0.013669022
-0.0050000004 0.0024297885 -0.011807864
-0.0019979805 -0.019648535 -0.0094588408
0.0050000004 -0.0094349487 0.017294291
0.0050000004 0.016842412 0.0010277329
-0.00014651472 0.016387528 -0.012094146
0.0045921518 0.0016629508 0.0024730479
0.0020741534 -0.010014066 -0.019560138
0.0050000004 0.021947 -0.0025439665
0.0050000004 0.013086963 -0.013739869
-0.00060832879 -0.02015611 -0.0038502291
-0.0050000004 -0.018825639 0.008955407
-0.0050000004 0.0021290607 -0.0079181753
-0.0042388448 0.00039244772 0.023448339
0.0050000004 -0.0079622241 -0.0065361275
-0.0050000004 0.016013745 0.0055174357
0.0012583586 0.01080589 0.017984688
0.0050000004 -0.017603563 -0.013374652
-0.001274595 0.0087604411 0.018952738
-0.0050000004 0.010036852 -0.0088761626
-0.0024198703 -0.020447465 0.0094232736
-0.0050000004 0.014429374 -0.010778292
0.0050000004 -0.011084464 -0.01459007
0.0050000004 -0.010649888 -0.0096261688
0.0016626552 0.0199943 0.0072511164
-0.0012726358 0.0037533147 0.020546431
-0.0050000004 -0.0058028828 0.0092875306
0.0050000004 -0.021198949 0.0026445463
0.0050000004 0.02201413 0.00086591416
-0.0050000004 -0.020044461 0.00061786891
-0.0042090877 0.015601502 -0.017396227
0.0050000004 -0.0093910228 0.0053860242
-0.0050000004 0.0010014054 0.02130967
0.0050000004 0.021461744 -0.0017323273
0.0050000004 -0.01104472 0.017919995
-0.0050000004 -0.0066327509 -0.0083932411
-0.0050000004 0.011489463 0.019555487
0.0035110856 0.007855569 0.021964742
0.0050000004 0.017025059 0.0086444076
0.0013097201 -0.0014223799 -0.0090246256
-0.0050000004 0.0031045729 0.0061579854
-0.0023579882 0.021886861 -0.0052959397
0.00066911912 -0.016618302 0.012021489
-0.0045408751 0.022273092 0.0071111512
-0.0050000004 0.0032188077 0.020584229
-0.0044067488 0.021305991 -0.0094459243
0.0050000004 0.01445197 0.011104056
0.0022014375 -0.022019818 0.0022264207
0.0016434282 -0.020354932 0.0063306629
-0.0050000004 0.013128268 -0.013991964
0.0050000004 0.00045684288 -0.013625109
-0.0050000004 0.017552044 0.0077272458
0.0037095062 0.017917745 0.01492185
-0.0050000004 -0.018815825 -0.010099938
0.0009826062 -0.012245294 -0.016551565
-0.0039105937 0.022702878 -0.0060550431
-0.0050000004 -0.011425798 0.0027194996
0.00054086337 -0.0064860177 0.019468129
-0.0020572268 -0.021887787 0.0013319816
-0.0035951831 0.019189078 0.013265023
0.0016127843 0.001119316 -0.018198129
-0.0050000004 0.0073945718 -0.00066145707
0.002204763 0.011762467 0.018865727
-0.0015497652 -0.013801317 0.016050357
0.0050000004 -0.0076885526 -0.0020083247
0.0050000004 -0.014370291 0.0042874501
-0.0050000004 0.014700566 -0.0078279842
-0.0050000004 -0.0020471113 -0.013191374
-0.0043634549 0.0017818603 -0.0023817942
-0.0029308116 -0.016796958 0.01638248
0.0042719203 0.007491109 0.022115709
0.0050000004 -0.0071705333 -0.0095907487
-0.003609274 -0.02109459 -0.0099562863
-0.0019936913 0.015149083 -2.35485e-05
-0.0027981775 0.0089638773 -0.021340935
-0.0031914893 -0.023204282 0.0022463265
-0.0050000004 -0.0034835548 -0.019265847
-0.0040182006 0.0029460099 0.0004102439
0.0050000004 -0.021648938 0.0061478186
0.0050000004 0.015431832 -0.014789186
0.0050000004 0.015324864 0.014961166
0.0028429362 -0.018967995 0.013429402
0.002636008 -0.0034157939 -0.02261593
0.0050000004 -0.00095978944 -0.020871656
0.0050000004 -0.014638007 -0.011759319
-0.0050000004 0.0075763799 0.018767284
0.0025711632 -0.012320043 0.019230971
-0.0050000004 0.0043522017 0.0069342777
-0.0018343214 0.015529593 -0.015065262
0.0050000004 -0.0027272343 0.021418061
-0.0050000004 0.0034763429 0.0068448116
0.0050000004 -0.00077903934 0.0099750413
0.0050000004 0.0080758929 -0.014683696
-0.0048888172 0.017589772 0.015349269
0.0050000004 0.0052162632 0.00033311415
-0.0025486494 -0.022361716 -0.004197536
-0.002183737 0.0035032055 0.021821067
-0.0050000004 -0.003981933 -0.022141617
-0.0050000004 0.015079129 0.0042549334
-0.0050000004 0.0027994704 -0.0078861872
-0.0050000004 -0.0070495987 -0.012315014
-0.0050000004 -0.0097426614 -0.0076546441
-0.0037555115 0.022931337 -0.0043196436
0.0050000004 0.002994153 -0.01765573
-0.0050000004 -0.012657302 -0.016212258
-0.0044811084 0.021053167 -0.010056282
0.0023562519 0.013167684 -0.018115358
0.0050000004 0.019812686 0.0058364309
0.0050000004 0.010431194 0.010351818
0.0050000004 0.020769399 -0.0078943241
0.0050000004 -0.0059466935 -0.0023162982
-0.0050000004 -0.019142266 0.0012551236
0.0050000004 0.010816447 0.019420879
0.0014699836 -0.012284608 -0.017114466
0.0050000004 0.003342828 0.0058498937
0.0050000004 0.0183142 -0.0082246289
-0.00062501727 0.0029537617 0.0010545828
0.0050000004 -0.001188578 -0.012673875
-0.0046040602 0.0026731486 -0.0013188168
-0.00095129973 -0.0017451469 -0.011443899
-0.0011200856 -0.0085159773 0.018888187
0.0050000004 0.0075403159 0.012563741
-0.0050000004 0.01231097 -0.019135417
-0.0050000004 -0.019296616 0.011905087
-0.0038029947 0.014064636 -0.01857551
0.0016013522 0.011482499 0.0011307478
0.0050000004 0.0083827907 0.00072713476
0.0050000004 0.0021784101 0.004373976
0.001226017 -0.0039683105 -0.020471498
-0.0050000004 0.0082058078 -0.0085661458
0.0026986543 -0.013858742 0.018326245
0.0050000004 -0.0071653863 0.018286472
0.0050000004 -0.0077699954 -0.01510924
0.0050000004 -0.0012447188 -0.0037867867
0.0035616043 0.017632661 0.015293376
-0.00049607037 0.018710559 -0.0018671028
-0.002601254 -0.022369476 -0.0048306924
-0.0050000004 0.010575833 0.010193559
0.0050000004 -0.022560321 0.0036875193
0.0050000004 -0.019156072 0.011228225
0.0050000004 -0.00069091847 0.0033894458
-0.0046018269 0.02207393 0.0075919642
-0.0032755274 0.0016890388 -0.0024530273
0.0050000004 -0.0045234216 -0.00025875712
-0.0050000004 -0.014282355 0.0037261178
-0.0050000004 -0.0060937982 0.017479267
4.9388651e-05 -0.0027716716 -0.020148344
-0.0050000004 0.011803423 0.012528764
0.0022270533 -0.020853566 -0.007577626
-0.0050000004 -0.0061398745 -0.019881539
-0.0050000004 0.0080815516 0.018683238
-0.0050000004 -0.00071482366 0.014961354
0.0018537214 -0.021283992 -0.0032408382
0.0050000004 0.01402994 0.0014023505
-0.00043727816 0.0193276 -0.0067533832
0.0050000004 -0.012263173 -0.0025111416
0.0025916514 0.012020376 -0.019505262
0.0050000004 0.0053309053 0.013566577
-0.0050000004 -0.01794822 0.012026357
-0.0050000004 0.015877869 0.0089643653
0.0035324756 -0.0021391276 -0.023218393
-0.0023547814 -0.018133542 0.013139839
0.0050000004 0.022598935 -0.00038532069
-0.00045908504 -0.0039472072 0.020103356
-0.0022094601 -0.02195712 0.0028082179
-0.0050000004 -0.0068433187 -0.010082004
0.0036721409 0.021063428 -0.010031514
0.0018601825 -0.014052325 -0.016362811
-0.0050000004 -0.01663053 0.013138208
-0.00017443097 -0.014418161 -0.014613616
-0.0018208718 0.018543387 -0.01109961
0.0024141674 0.0062427544 0.021754293
-0.0050000004 0.0094157886 0.016886728
-0.0050000004 -0.0060474523 -0.0085535916
0.0050000004 -0.0089545334 -0.019054433
0.0050000004 0.0038445322 -0.014681783
-0.0050000004 -0.0036592647 -0.0089431461
-0.0023285423 0.00065129297 -0.022447364
0.0049949782 -0.013946617 -0.01866607
-0.0050000004 0.011889596 -0.00020221873
-0.0050000004 -0.021807568 0.0055243466
0.0050000004 -0.0038262527 -0.0047649508
-0.0050000004 0.014821114 -0.0078443391
0.0024348774 0.0069274255 0.021509185
-0.0050000004 0.0090654837 0.0086235106
0.0032689974 0.0087158661 -0.021608392
0.0031044416 -0.023215584 -0.0021604372
0.0050000004 -0.0080734054 -0.0024032909
-0.0050000004 0.016113114 -0.0039079208
0.0049999999 -0.0039206664 0.0029352801
0.0015708584 -0.0066540926 -0.020143088
0.0050000004 0.0043820678 -0.017846402
-0.0030498498 -0.00052262883 0.0029312137
0.0050000004 0.012003308 0.0083600627
0.0022930575 -0.01945699 0.011240979
-0.0050000004 -0.011051581 0.012039354
-0.0025651518 -0.0098670134 0.020533703
-0.0050000004 -0.016065564 -0.0063277804
0.0050000004 0.0052980911 -0.013050889
0.0050000004 -0.007377699 -0.0071028364
0.001844832 0.018335709 -0.00057920162
0.0050000004 0.0055716094 0.021117477
0.0050000004 -0.012378503 -0.016762624
-0.0050000004 0.0036046142 -0.015849855
0.0049999999 0.010769124 -0.019635634
-0.0020335484 -0.017127203 0.013545174
-0.0050000004 0.019000009 0.01350723
-0.0018390105 -0.00060093147 -0.014826004
0.0050000004 0.010741472 0.015710222
-0.0050000004 0.0025176806 -0.01357767
-0.0050000004 -0.010699081 -0.015365157
-0.0050000004 0.013375428 0.0018841706
-0.0028675105 -0.023319697 -0.0011158127
0.0015166336 -0.018648179 0.010122623
0.0019152327 0.014472719 0.00031641391
0.0050000004 -0.008478268 0.013302104
-0.0050000004 0.009012254 -0.0050473711
-0.0050000004 0.011184908 -0.00356131
-0.0050000004 0.0016707126 0.0060797702
0.0050000004 0.010307099 0.017029047
-0.0050000004 0.004375339 0.018613113
0.0050000004 -0.018914498 0.010549587
-0.0033841282 -0.020753037 0.010780862
-0.0050000004 0.0073212022 -0.020595334
0.0050000004 0.0013518796 0.018684354
-0.001948367 0.0083329743 0.020022668
0.0050000004 -0.0033237902 -0.022295095
-0.0050000004 -0.0083404463 -0.0028514552
0.0050000004 0.0017262822 -0.0087470366
0.0050000004 0.0064721652 -0.015235531
0.002874146 0.020659482 -0.010949936
-0.0012000902 -0.0029645781 -0.020577721
0.0021553121 0.020444546 0.0082431417
0.0050000004 -0.004130106 0.0063721095
-0.0050000004 -0.0064530708 -0.0097861001
0.0050000004 -0.0071170274 0.019832997
-0.0050000004 -0.0022937639 0.010065341
-0.0050000004 0.0023153827 0.017770575
0.0050000004 -0.0014717893 -0.0038190673
0.0050000004 -0.003196429 -0.022479514
0.0050000004 0.02040882 -0.011485985
-0.0050000004 -0.014146328 0.017562035
-0.0050000004 -0.0070248102 -0.019428391
0.0050000004 0.0036765113 0.019732911
0.0050000004 -0.0041439757 -1.6178608e-05
-0.0050000004 -0.00013622569 0.019600706
-0.0050000004 0.0090845032 0.0015744839
0.0050000004 0.015139529 0.0048835953
-0.0048206425 -0.019061118 -0.013431784
-0.0050000004 0.01484546 -0.0032451001
-0.0050000004 0.018585453 -0.0089017954
-0.0050000004 0.020558739 0.0015916302
0.0050000004 -0.016200379 0.0046512666
0.0050000004 0.0016145828 -0.014513306
-0.0017417136 -0.0059373062 0.020630887
-0.0050000004 0.0094159124 0.019773558
-0.0050000004 0.018416233 -0.00056450034
-0.0050000004 0.0073580025 0.0050772224
0.0050000004 -0.0076345983 0.00068098452
0.0011834098 -0.0079923263 -0.019173026
-0.0017870152 0.0019102036 -0.02134362
-0.0050000004 -0.016238455 0.0088727819
0.0014990019 0.01472935 0.01527483
-0.0050000004 0.018229714 -0.0084706023
0.0050000004 -0.0023077505 0.012129624
0.0050000004 0.01776197 -0.013729573
-0.0050000004 -0.01590029 0.0074605048
0.0050000004 0.0082292352 0.012380343
0.0041163643 -0.022811703 0.0052283909
-0.0050000004 -0.014815803 -0.016453953
0.0010968745 -0.020577185 -0.002184957
-0.0050000004 -0.0021144024 0.0023701205
-0.0050000004 -0.01104159 0.01507819
0.0050000004 -0.0180836 -0.011695527
-0.0050000004 -0.011542113 -0.0024030285
-0.0050000004 0.014662076 -0.0085346447
-0.002723882 -0.010558047 -0.020542504
-0.0050000004 -0.0019943423 0.018115345
0.0016055855 -0.0011265149 -0.0090496531
0.0050000004 0.014373642 0.00093391613
-0.0050000004 -0.019037373 -0.010194929
-0.0018993795 0.01495793 -0.00037558988
-0.0006697753 0.020094622 0.0044423537
-0.00024298864 -0.017910916 0.010038678
0.0050000004 -0.0085430816 0.0060869758
0.00094041182 0.016627004 -0.012128565
-0.0050000004 -0.014858598 0.0035770379
-0.0050000004 -0.0077424375 -0.013815716
-0.004610864 -0.015146014 -0.017745735
0.0029572283 0.016128957 0.016991492
0.0043567885 0.0026496251 0.0013756148
0.0050000004 -0.0014705781 -0.0056344988
-0.0050000004 0.0020322383 0.022431018
-0.0014185183 0.0013135818 -0.013948336
0.0042482545 0.0057702907 0.022740366
-0.0050000004 -0.0045389086 0.011790818
-0.0050000004 0.0067502703 0.022164166
0.001765801 0.012227701 0.00087420328
0.0050000004 -0.0005342674 -0.02335141
-0.0050000004 -0.017744297 0.012418734
-0.0050000004 -0.0043962481 0.016996175
-0.0050000004 -0.0087274201 0.021282084
-0.0012441338 0.0017304567 -0.0024212424
0.0050000004 -0.0068808906 -0.0043708575
0.0050000004 -0.0076029664 -0.0040241652
0.0045884275 -0.022817917 -0.0051811747
0.0050000004 -0.0066319983 0.0040041842
0.0050000004 -0.0091851978 -0.010685109
