# .PCD v0.7 - Point Cloud Data file format
VERSION 0.7
FIELDS x y z
SIZE 4 4 4
TYPE F F F
COUNT 1 1 1
WIDTH 1000
HEIGHT 1
VIEWPOINT 0 0 0 1 0 0 0
POINTS 1000
DATA ascii
0.0021616495 -0.0088734189 0.021804955
0.002668998 0.012038859 0.021436788
0.0050000004 0.016417107 0.014278118
0.0050000004 -0.014100224 0.009319107
0.0050000004 0.008386123 0.0110796
0.0029731533 -0.0026656536 -0.0013369207
-0.0050000004 -0.0049969773 -0.024029633
-0.0050000004 -0.015759632 -0.016008284
-0.0050000004 0.0028012339 0.012508811
-0.0050000004 0.0057134475 -0.018854471
0.0050000004 -0.019421024 -0.013306478
-0.0050000004 -0.0076856334 -0.0052998597
0.0050000004 -0.006381813 0.0095406426
0.0020487511 0.01835116 0.014435986
0.0050000004 0.0068068965 0.0086732898
0.0050000004 0.01302432 -0.018097097
-0.0050000004 0.009409911 -0.021819197
-0.0050000004 0.0098565351 0.015614687
-0.0038318923 -0.024496809 0.0038219411
-0.0050000004 0.018962789 -0.0064071151
-0.0050000004 -0.013075439 0.020686073
0.0039780503 -0.016234517 0.018785069
0.0050000004 0.0098054698 0.017220797
0.00027088655 0.015707767 -0.015477141
0.0050000004 -0.0031277447 0.0024799602
-0.0040135412 0.024266865 0.0055684391
0.00040498015 0.0078938054 -0.02045567
-0.0050000004 0.0022397232 0.022954835
-0.0018840579 -0.0025314305 0.022929931
0.0046080779 -0.024652353 0.0026405314
0.0015396117 -0.0071942294 -0.021495547
-0.0014853774 -0.018328093 0.01317098
0.0050000004 0.0070575061 -0.010138684
-0.0023610652 -0.023507882 -0.0044168984
0.00018240722 -0.011212452 -0.018950656
-0.00080067513 -0.020007744 0.0092498455
0.0016490425 0.0010830576 -0.016258301
0.0050000004 0.02247826 0.0024338798
-0.0050000004 -0.0034007677 0.013293235
0.0050000004 0.0051744329 -0.013276261
-0.0050000004 0.0058599776 0.011247605
-0.0028779628 0.021798432 0.012103452
0.00084510271 0.020621588 -0.0077987309
0.0050000004 0.01174046 0.0021490899
0.0050000004 -0.0095191291 0.0026471559
0.0006457757 0.021000711 0.0018269969
-0.0050000008 0.0015056264 0.0072272527
0.00089034589 -0.014674117 -0.016531428
-0.0050000004 -0.0031702965 0.019797839
0.00018971384 0.021457832 0.0019491757
0.0033302605 0.01172598 -0.021971211
-0.0049999999 -0.0044710618 -0.023022998
-0.0050000004 0.011241397 0.0015403177
0.0044868691 -0.0027686674 0.024635481
-0.0050000004 0.015620862 0.019255823
-0.0050000004 -0.021792024 0.0084666936
0.0017863238 -0.0045988574 -0.022488484
-0.0050000004 0.012140959 0.018708497
0.0050000004 -0.0099392571 0.0055458513
0.0050000004 0.0067386664 -0.015716279
0.0050000004 0.01382915 -0.007094475
0.0050000004 0.003483658 -0.0048307492
0.0050000004 -0.016306616 -0.014141547
-0.0042955084 -0.0049149026 -0.024352908
0.0011515166 0.021593053 0.0059534595
0.0010638252 0.019691724 0.010316466
-0.0010137255 -0.02132583 0.0062416447
0.0028295917 0.024881104 0.0001504292
-0.0037541823 0.018849049 -0.016151136
-0.0028207984 -0.00080997532 0.024779046
-0.004610043 0.015098996 -0.019656366
-0.0050000004 -0.016304433 0.012969569
0.0050000004 0.017492978 -0.00052755262
-0.0011207876 0.0083636679 -0.020561738
0.0050000004 -0.02055401 -0.013569879
0.0050000008 -0.013286509 -0.011516443
0.0050000004 -0.0011236386 -0.0077686217
0.0050000004 -6.859337e-05 0.012231899
0.0050000008 -0.00029976995 0.024478063
0.0050000004 -0.0069961427 -0.0098441355
0.0035314397 0.022487061 -0.010480604
0.0050000004 0.022040579 0.0056865523
0.0019775806 8.3686493e-05 -0.020540195
-0.0011310925 0.015825892 -0.0016010075
0.0050000004 0.015452961 -0.012111971
0.00085482717 0.004621726 -0.0216206
0.0037619132 0.024616918 0.0029096592
-0.00080816488 0.019702619 -0.0099916775
0.0050000004 -0.017278401 0.0069044651
0.001182528 -0.021291042 0.0067629283
-0.0050000004 0.005266991 0.0034801657
0.0050000004 -0.0075773406 -0.0043541649
0.0012635477 0.013796948 0.017570598
-0.0050000004 -0.0064197117 -0.023590852
0.0023471084 -0.0034833737 0.023606626
0.0050000004 -0.0032127718 0.00243926
0.0033610733 0.0025498054 0.0015629306
0.0021714154 0.02167975 -0.0092194965
-0.0045722146 -0.0020126007 -0.0022047183
-0.0050000004 -0.021923143 -0.0017760845
-0.0050000004 -0.0067642611 -0.019875132
-0.00093322352 -0.0026862738 0.0012871413
-0.0050000004 0.0031390996 0.02302747
0.0050000004 -0.0044059409 -0.019452199
0.0050000004 -0.0034907931 -0.0031858808
0.00026564629 0.020992056 -0.0065020989
0.0012183653 0.0053619929 -0.021780388
-0.0018200903 0.015050139 0.0006715557
0.0050000004 -0.0022531727 -0.010210403
0.0050000004 0.014726834 -0.018261233
0.00087130116 -0.021636205 -0.0045368369
0.0020432549 -0.00018319895 0.0029758881
0.0050000004 0.0076059508 -0.0083454959
-0.0050000004 -0.0123299 -0.0047410424
-0.0050000004 0.0054553384 -0.0076421998
-0.0050000004 -0.0090290513 0.0021797982
0.0050000004 0.00065356476 0.012503043
-0.0050000004 -0.0087720612 0.015038209
0.0050000004 -0.0025660419 -0.022421949
-0.0044072983 0.0027824736 -0.024633663
0.0050000004 -0.014297494 0.015463959
0.0050000004 0.0095196525 -0.0067953286
-0.00079915841 0.021821072 0.0017859056
0.0050000004 0.017010208 0.01633006
0.0050000004 0.0062705828 -0.021987308
-0.0023578559 0.018936004 0.014545729
0.0045929467 -0.018277131 0.016896494
0.0050000004 -0.00098112097 0.0029609178
-0.0050000004 -0.019284379 0.0077937772
-0.0050000004 0.010597512 0.013034645
0.0050000004 0.024309427 -0.0032425199
-0.0050000004 0.0054892115 -0.01914149
0.0050000004 0.00096401648 -0.0054324018
0.0050000004 -0.0015268903 0.01979189
0.0050000004 -0.0098882718 -0.010951968
0.0050000004 0.009544109 0.0034596112
0.0050000004 -0.002666445 -0.016881572
0.0050000004 -0.018525049 0.0053416961
-0.0050000004 -0.017347118 0.014782545
-0.0050000004 0.0067050019 -0.014492116
0.0050000004 -0.003072574 -0.02062262
-0.0050000004 -0.008896431 -0.019629791
0.0050000004 0.013003672 -0.0079404935
-0.0050000004 0.015633034 -0.0018310148
-0.004819083 0.0023771795 -0.024687022
-0.0050000004 -0.019882681 -0.0087066097
-0.0050000004 0.0042406828 -4.3711666e-06
-0.0032827205 0.0029290181 0.00053933525
0.0050000004 0.021046011 0.0047577671
0.0050000004 0.0080986889 0.0063260579
0.0050000008 -0.01705252 0.014916922
0.0050000004 0.0091678742 -0.016022149
-0.0050000004 -0.0098158186 0.014362608
0.0032497575 -0.02247303 -0.010514479
-0.0015873053 0.016581956 -0.0011447947
-0.0050000004 0.022324825 0.0080234725
0.0011451894 0.0015869108 -0.014420472
0.0050000004 0.0088714929 -0.014982652
-0.001936143 0.0078079128 0.021827146
-0.0050000004 0.016782586 0.0080773393
-0.0050000004 -0.0050905957 0.012942267
0.0050000004 -0.012498845 0.020197447
0.0050000004 0.022870783 -0.0051477654
-0.0022235755 -0.015413913 0.017979188
6.2444989e-05 0.01770965 -0.012777357
0.0050000004 0.020954434 0.011926083
-0.0050000004 0.0019735964 0.022070171
0.0029906037 0.022104457 -0.011404295
0.0050000004 0.0074335453 -0.018429842
0.0050000004 -0.013226807 0.018579796
-0.0050000004 -0.014929314 0.018463852
-0.0035141231 -0.019221304 -0.015665991
-0.0019240143 -0.01688515 -0.015994705
0.0050000004 -0.0076120095 0.023491254
-0.00056968536 -0.017422158 -0.01337339
0.0050000004 -0.0076848078 0.01436232
0.0016527239 0.012576371 0.018993497
0.0031288187 0.0044386135 -0.024415618
0.0047504255 0.0068919645 0.023973523
-0.0014701899 0.017514905 -0.014206029
0.0050000004 -0.0076553379 0.0057506994
-0.0050000004 -0.0015985867 -0.0076027638
-0.0018071585 0.021364201 -0.00071982684
0.0050000004 -0.020997476 0.0032580448
0.0050000004 -0.020938097 0.0060657617
0.0050000004 0.0076852404 -0.0025154061
-0.0050000004 -0.0036076505 -0.020618467
0.0050000004 0.0061414568 -0.020056553
0.0050000004 -0.0093322992 -0.018703418
0.0050000004 -0.0014672276 0.0091907242
-0.0050000004 0.016266737 0.014521422
0.0050000004 -0.0096552363 0.005050627
-0.002067938 0.0058509926 -0.022811379
0.0050000004 0.0021854765 -0.022535417
-0.0018456097 -0.011721579 -0.01999427
-0.0037795121 0.01890929 0.016072625
-0.0050000004 -0.018905126 -0.014852046
0.0050000004 0.00038575981 -0.024272224
-0.0050000004 -0.0043791425 0.017239807
-0.0015169982 0.016284086 0.015886337
0.0010134834 0.018143568 0.012642962
0.0050000004 0.007984776 -0.007406651
0.0019440354 0.00020890099 -0.017142318
0.0050000004 0.013490865 -0.017967377
-0.0050000004 -0.01897284 0.010460009
-0.0050000004 0.0060483869 -0.0024330523
-0.0011823002 0.014813376 -0.016689114
0.0050000004 -0.011037172 0.01711116
0.0050000004 -0.012443837 0.00029843714
0.0050000004 0.0171845 -0.017741395
0.0050000004 -0.0072067799 0.019060433
-0.0011681236 -0.017931312 -0.013171446
0.0050000004 -0.0057701166 -0.0086929807
0.00060587266 -0.010468686 -0.019446867
-0.0024306965 -0.022325501 0.008824002
0.0012271072 0.021309653 0.0068334541
-0.0012560528 -0.01448461 -0.017033529
0.0017728901 0.00084774196 -0.022071848
-0.0050000004 -0.0034378017 0.0031768829
-0.0050000004 -0.022171877 0.0050541316
-0.0050000004 0.0033839166 -0.01461695
-0.0050000004 0.021459429 0.0022251226
0.0050000004 0.0012596576 -0.023332108
-0.0049999999 0.007774523 -0.011572386
0.0050000004 0.0082517434 -0.0042381338
-0.0050000004 -0.0095212283 -0.020794095
0.0050000004 -0.012408589 0.0027029878
0.0050000004 0.0028708689 0.0038539844
0.0050000004 0.012505258 0.020067828
0.0050000004 -0.019869667 0.0094608152
-0.0018636282 0.015185174 -0.00050904031
-0.0014063511 0.014116325 -0.017503999
-0.0031059666 0.020165719 0.01443518
-0.0048962161 0.022393785 -0.010705801
-0.0010761762 0.020360909 0.0087329317
-0.0050000004 -0.004974761 -0.010802578
-0.0050000004 0.010108825 0.0081640314
-0.0050000004 -0.0048117349 -0.023270154
-0.0029451901 -0.024953593 0.00035247556
0.0022991949 -0.021556251 -0.010091056
0.0050000004 -0.010022491 0.014432991
0.0050000004 -0.0058433637 -0.021006089
0.0050000004 -0.018619068 0.0091505395
-0.0050000004 -0.019608624 -0.0085027777
0.0050000004 -0.017055338 0.012637996
0.0050000004 0.015329318 -0.01010427
0.0050000004 0.0091582844 -0.014466738
0.0021179582 0.0091342749 -0.02161569
0.0018454303 0.015285038 -0.00057696801
-0.0021331131 0.02175683 0.0088615539
-0.0050000004 0.017998291 0.012462894
0.0050000004 -0.0090813348 0.013974259
0.0050000004 -0.017992079 -0.0071434444
-0.0050000004 -0.016276507 -0.01306228
-0.0042250929 -0.024333877 0.0050594634
-0.0017169188 -0.0042947629 0.022419404
0.0050000004 0.01457133 0.0047765267
-0.0050000004 0.021367541 0.011577301
-0.0050000004 -0.0074256738 -0.016442249
0.0050000004 -0.022440515 -0.0051623224
-0.0050000004 -0.0044998988 0.021834096
-0.0050000004 0.016173394 0.0093318773
0.0045389407 0.024752283 -0.0018814877
0.00090833136 -0.00077126862 -0.0033012652
0.0050000004 -0.0056307549 -0.014907576
-0.0050000004 0.022248337 0.0060453233
0.0018390216 0.02242093 0.0058051324
-0.0018460979 0.016273784 0.016502356
-0.0050000004 -0.010111538 0.000521863
-0.0050000004 0.0072896946 -0.0063563245
-0.0050000004 -0.005462083 -0.017000876
-0.0050000004 0.0065277247 0.016722593
0.0050000004 0.015710769 0.013252329
0.0050000004 -0.0043235132 0.017983964
0.0050000004 -0.010326236 0.006554144
0.0050000004 0.011027567 -0.0050159725
-0.0050000004 0.0045735314 -0.0079760272
-0.0050000004 -0.01993284 0.010176476
0.0050000004 0.018686505 0.015642878
-0.0050000004 0.00520478 -0.022098714
0.0050000004 0.0097266566 -0.01064028
-0.0050000004 0.0031221937 0.017672647
-0.0050000004 0.022134883 -0.0062778294
0.0050000004 0.0045931111 -0.02299257
0.0028010251 0.01331912 0.020836426
-0.00025034766 -0.015645543 0.015549268
0.0050000004 -0.015655745 0.0012461463
-0.0050000004 0.0051816828 0.003032444
0.0032315413 0.0091923075 -0.023020692
0.0050000004 0.0046523642 0.0069998307
0.0047902851 -0.022972085 -0.0093096578
0.0050000008 0.012136746 0.0052587339
0.0016169534 0.0022480607 0.022588907
-0.0030525608 -0.020721899 -0.013710334
-0.0020698197 0.023357868 -0.0017248932
-0.0037537699 0.0018841922 -0.024751931
0.0027369368 0.020784967 -0.013205399
0.0050000004 -0.010252032 0.0071673966
-0.0050000004 -0.0057050963 0.017617876
0.0013140576 0.010982842 0.0014180426
0.0050000004 0.020503728 -0.0028822056
-0.0050000004 0.0083236108 -0.0010293184
-0.0050000004 -0.023267066 0.002598197
-0.0011700547 -0.013658284 -0.017560132
-0.003624788 0.0021012018 0.0021367238
-0.0050000004 -0.0079838792 -0.010662081
-0.0017476766 -0.0027531821 0.0011256202
0.0018332008 0.005153032 -0.022496689
-0.0018470957 0.017052528 0.015559589
0.00087393587 0.0017658727 -0.011570578
-0.0050000004 -0.010829563 -0.020737015
-0.0050000004 -0.001144792 0.014947772
0.0050000004 -0.0025989802 0.014853169
-0.0050000004 0.0090588965 0.019477297
-0.0018017747 0.00073992339 -0.018392164
0.0036655422 0.022649251 0.010089047
0.0050000004 0.0093543036 -0.01286584
-0.0050000004 0.010025658 -0.02048876
-0.00082149229 -0.020085024 0.0090777287
0.0050000004 -0.0005077094 -0.013011432
-0.0050000004 -0.013745644 0.0022854621
-0.0050000004 0.00086896308 -0.015740799
0.0050000004 -0.0028388158 -0.021635743
-0.0050000004 0.0045462642 -0.011415871
-0.0050000004 0.023463659 -0.0074640666
0.0045911595 0.0035879654 0.024527611
-0.0050000004 -0.0013684684 0.024408359
-0.0021201966 0.016924068 0.016497385
-0.0050000004 -0.019526863 0.015195119
0.00088297931 0.018133957 -0.01258247
0.0032169977 -0.0244394 0.0042579621
-0.0049999999 -0.0059231976 -0.013151021
0.002229684 0.019307096 -0.013700549
0.0050000004 -0.015435687 -0.007949763
0.0021035869 0.023351178 -0.0022197778
-0.0050000004 0.022853529 -0.00087953574
-0.0042950497 0.024566472 -0.0032928027
0.0035304963 0.015253814 -0.019537574
0.0050000004 -0.020759404 -0.0049865074
-0.0050000004 0.016087549 0.01636255
0.0039951075 -0.024131365 0.0065109017
-0.0050000004 -0.0099409316 -0.0095763747
0.0050000004 -0.0037882412 0.0089708976
0.002269838 0.013925303 0.019221559
0.0050000004 0.0045398613 0.02015505
0.0025051665 -0.010576127 -0.021738155
-0.0050000004 0.0011514814 0.01131175
0.0050000004 0.0084297964 -0.0080898162
0.0020319822 0.023517502 1.5092851e-05
-0.0050000004 0.011636531 0.015458965
0.0018351433 -0.023134544 0.00033367868
0.0050000004 0.0037696566 0.022430073
-0.0044188714 0.0019903122 0.0022218234
0.0050000004 0.0023325253 -0.017094584
0.0050000004 -0.0069885869 0.0046559758
-0.0050000004 -0.021909768 -0.0045377854
-0.0050000004 0.0096891569 -0.021996364
0.0050000004 0.0088911783 -0.021146655
-0.0035658036 -0.023425143 -0.0082158707
-0.0038122078 -0.022658341 0.010067101
0.0016928454 -0.018796416 -0.01289855
0.002063151 -0.011767998 -0.020422909
-0.0050000004 -0.0034675449 0.014902897
-0.0050000004 -0.012309598 0.015895152
-0.0011623083 0.0059249718 0.00025081696
-0.0050000004 -0.0080172885 -0.011846964
0.0033306261 -0.0094620325 -0.022908967
0.0050000004 0.0061396775 0.021984933
0.0050000004 0.011924118 0.020243144
-0.0050000004 -0.01092934 0.017754536
-0.0050000004 -0.0055272677 -0.0012769714
-0.0050000004 0.022061387 0.0092003774
-0.0049999999 0.020989684 -0.011897807
0.0049392888 0.0087918993 -0.023186548
0.0030288789 0.022293296 -0.010948399
0.0050000004 -0.015637912 0.016319342
-0.0050000004 -0.020315617 -0.0077375593
-0.0041589178 -0.018715532 0.01632514
-0.0021579072 -0.012089389 0.020388
0.0014265979 -0.010926626 -0.019828275
-0.0050000004 -0.014570372 -0.017915351
0.0025560877 0.0025500045 -0.024091491
0.0050000004 -0.019205412 0.0048466045
-8.7209832e-05 0.01073514 -0.0019766367
0.0014394908 0.0012926093 -0.020219557
-0.00015952818 -0.021661462 0.0028963108
-0.0017707614 0.018536724 0.00085568742
-0.0050000004 -0.0036897575 0.0061726258
0.0040984713 0.0070969253 -0.023888627
-0.0050000004 0.020174127 0.0067726932
-0.0050000004 -0.01973246 0.0055175885
-0.0050000004 0.0058292961 -0.021705208
-0.0018343015 0.022918504 0.0019637384
-0.0050000004 -0.015223649 -0.010155785
0.0020756822 -0.02352589 0.0005256877
0.0050000004 0.0050474075 0.0074808639
-0.0050000004 0.0083953235 0.021418974
0.00041309086 -0.020912526 0.0067964587
-0.0050000004 -0.019555844 -0.004947755
0.0050000004 0.0029112538 -0.019613137
-0.002929532 -0.023442632 0.0081736548
0.00019718487 0.014629347 -0.016333625
0.002515204 0.0099125011 0.022031702
0.0050000004 0.018480595 -0.0093015768
0.0044306107 -0.019954747 0.014710127
-0.0050000004 0.0066204332 -0.0077619348
0.0050000004 -0.011511437 0.012222512
0.0050000004 -0.017831439 -0.0019873257
0.0008901892 0.014012641 0.017038949
-0.0050000004 -0.017646175 0.009666712
0.0043402235 -0.0041442001 0.024454379
-0.001439028 0.00099104887 0.0028089262
0.0013120724 0.015791394 0.016100833
-0.0050000004 -0.0094975606 -0.0034998795
-0.0050000004 0.016416604 0.0048696008
0.00031209106 0.0019163908 -0.014956082
-0.0020175751 -0.017023077 -0.016078873
-0.0011435034 0.016375551 0.0015885967
-0.0050000004 0.0048078801 0.01774903
-0.0012571781 -0.017978776 0.013254582
-0.00037655863 -0.016766533 0.014143466
0.0050000004 0.006676876 -0.023197539
0.0050000004 -0.013319149 0.017630853
-0.0050000004 0.006466819 0.023843046
0.0050000004 0.023703763 -0.0042833341
-0.0050000004 0.015682487 -0.012303862
-0.00056158606 0.021793321 -0.002712884
0.0050000004 -0.0025114017 0.016766835
-0.0050000004 0.0083743734 0.012231234
0.0040963669 -0.019408526 0.015421994
-0.0050000004 -0.015391598 -0.0027554079
-0.0049999999 0.0078883283 -0.011145293
-0.0050000004 0.010225597 0.018385705
0.00050644699 -0.001864323 -0.014079291
-0.0050000004 -0.0027728665 -0.0098346286
0.0050000004 0.0052660159 0.0048589297
-0.0038606622 -0.024523782 0.003617065
-0.0050000004 0.0013138286 0.012457443
0.00055930403 0.0037589369 0.001079667
0.0050000004 0.0074825012 0.010618617
0.0050000004 0.010511646 0.021131922
0.0050000004 -0.023648057 0.0073038982
0.0050000004 -0.012357229 0.0064258999
0.0050000004 0.017115593 -0.0054033678
-0.0050000004 0.0049085561 0.010548001
-0.0041149296 -0.024844486 -0.0011811899
0.0050000004 0.013807756 -0.014178452
0.0050000004 0.0073973206 -0.0052637216
0.0034165077 0.024430517 0.0043254504
0.0050000004 -0.012929989 -0.015705928
0.0018741501 0.015472972 -0.00046976437
-0.0050000004 0.013259038 -0.01416637
0.0023645288 -0.008983383 -0.022136487
-0.0050000004 0.016518084 -0.011352899
0.0050000004 0.009709619 0.016749129
-0.0050000004 -0.013513463 0.0067688152
0.0017417321 0.0096732639 0.00096404681
0.0050000004 -0.016115831 -0.0056876773
-0.0050000004 0.010296568 0.021292536
0.0050000004 0.0010889056 -0.020626292
0.0050000004 -0.019152673 0.015521646
0.0050000004 -0.015214714 -0.0076431585
0.0050000004 -0.0086466968 -0.0071814684
0.0040867487 0.023317078 0.0084767621
-0.0050000004 0.015876433 -0.015448553
0.0050000004 -0.012451308 0.01143756
-0.00275992 0.020929527 0.013081833
0.0050000004 -0.016401151 -0.0035916697
-0.0050000004 0.019095153 0.0058961166
-0.0043580374 -0.012839677 -0.021389967
0.0021565733 0.023507703 -0.0017279428
0.0017072164 0.010641305 -0.0010248838
0.0050000004 0.0021131996 0.016877526
0.0050000004 -0.0016363243 0.012909748
-0.0050000004 0.0092406813 0.016453778
0.0050000004 -0.0026339111 -0.0026595083
0.0050000004 -0.019760355 -0.0098890541
0.0050000004 -0.015512764 0.018004397
0.0032045376 -0.0036092654 -0.024524808
0.0050000004 -0.017258599 0.0039282208
-0.0036458899 0.0069027576 0.023969054
0.0050000004 -0.003450149 0.014410025
0.0050000004 -0.017372362 -0.017797386
-0.0050000004 0.016584566 -0.0064111571
0.002210777 -0.00048870093 -0.0029356871
-0.0019990755 0.015830033 3.4507514e-06
0.0050000004 -0.018837182 -0.0061391983
-0.0050000004 0.0050772349 -0.022986574
-0.0050000004 0.016929816 0.014995773
0.0050000004 0.0079938872 -0.0099350074
0.0034946601 0.0038339552 -0.024495227
-0.0050000004 -0.018110752 0.01268046
0.0040935408 0.017786013 0.017536541
-0.0012271099 -0.0034983126 0.022034509
-0.0050000004 -0.0017230737 -0.010664163
0.00077265635 0.020954531 0.006944682
-0.0050000004 -0.015732594 0.010710536
0.0050000004 0.015333121 0.01375817
0.0017675384 0.00086771842 -0.017665014
-0.0050000004 0.010218138 0.0065038204
-0.0016325935 0.014640242 0.0010995066
-0.0050000004 -0.020619137 0.013378572
-0.0050000004 -0.0094660334 0.016495351
0.0050000004 0.018866993 0.009627969
0.001123751 0.0099636065 0.019902194
-0.0038361296 0.0084703965 0.023319717
0.0019369737 0.01296242 0.019239914
-0.0050000004 -0.011744524 -0.019598538
0.0045756255 -0.0045979735 0.024394635
0.0050000004 0.0098769227 0.01671344
0.0050000004 -0.024417665 -0.0021940719
-0.0019367151 -0.010700567 -0.020630049
-0.0050000004 -0.012942946 0.020319186
0.0007400355 -0.0029108597 0.021815108
0.0026705868 0.020479744 0.013416011
-0.0050000004 0.012918144 0.0064268941
0.0050000004 0.011053221 0.013327517
-0.0050000004 -0.0067497138 0.0073837731
0.0031958385 -0.024843862 0.0011859499
-0.0050000004 -0.015965635 -0.014663628
-0.0018808404 0.021961054 0.0072364733
-0.0050000004 0.019097149 -0.009868023
-0.0050000004 -0.013990935 0.017074859
-0.0050000004 0.00059264788 0.0073056682
0.0021439283 0.012159611 -0.020303862
-0.0035625272 -0.0067007462 0.024052732
0.0050000004 0.00054248102 -0.016346626
0.0036263873 0.018350322 0.016801104
-0.0050000004 0.011766309 0.017327335
-0.0050000004 0.016812658 -0.0013313666
0.0011246951 0.0091621876 0.0016074051
-0.0019652122 -0.023319731 0.00063826184
0.0023293907 0.023674257 0.0027363265
0.0050000004 -0.014371682 -0.0081833117
0.0050000004 -0.011804426 0.008277623
-2.3068391e-05 0.0078285001 -0.0012233203
0.0018860317 0.00042541372 -0.014465956
-0.0050000004 -0.0025050289 0.021048857
0.00031951841 0.0032627222 -0.0011439036
0.004004729 -0.024589188 0.0031202827
-0.0050000004 -0.021424772 -0.011024543
-0.0050000004 -0.0056217965 -0.020514878
0.0023550664 0.016014965 -0.017802602
0.0011691864 -0.00022514157 -0.0054314709
-0.0027384728 -0.013189974 -0.020800127
0.0050000004 0.014660376 0.0080347229
-0.0050000004 -0.0015869972 0.016115543
6.5406799e-05 -0.0022221315 0.0019899104
-0.00096786034 0.017959721 -0.012846567
0.0050000004 -0.0058933743 -0.020540068
0.0050000004 -0.011229992 0.021357562
-0.0019037822 0.017151032 -0.00035915597
-0.0013570953 -0.019313863 0.011677402
-0.0050000004 -0.0069995071 -0.0085269287
-0.0050000004 -0.00040571846 -0.005463311
-0.0050000004 0.0054590669 0.014586587
0.0018779618 -0.00045553668 -0.016151512
-0.0050000004 -0.015615786 -0.0048559178
-0.002782214 0.017916141 -0.017071931
0.0050000004 0.019414973 -0.01404111
-0.0050000004 -0.012895644 0.019469624
-0.0050000004 0.0030334149 0.0072047734
-9.3839353e-06 -0.001997486 -0.017598387
0.0050000004 -0.0018912653 0.00520177
-0.0050000004 0.0068030911 0.0071458011
0.0050000004 -0.021654284 0.0062141451
0.0050000004 0.012546865 0.019364106
-0.0050000004 -0.011905576 -0.00043504336
0.0049999999 0.00033921006 0.024314374
0.0050000004 -0.016829079 0.00034084322
0.0050000004 0.0020955107 -0.013477069
0.0050000004 -0.0027796088 0.0084797274
0.0050000004 -0.0078769373 -0.0025296223
7.0978226e-06 0.0019980986 -0.011385442
0.0050000004 0.0041146912 -0.023902807
-0.0050000004 0.007675976 0.020855302
0.0017346313 -0.01098908 0.020134935
0.0022988808 -0.022163335 0.0086240117
-0.0049999999 0.0075004371 -0.014373129
-0.0050000004 0.0034542507 -0.021761209
0.0050000004 0.0011423752 -0.019933647
0.0036009757 0.024338197 -0.0050266492
0.0050000004 -0.013295743 0.018387668
-0.0037820525 -0.014805019 0.019881938
0.002788838 -0.021775376 0.011759186
-0.0025316309 0.005964017 0.023599621
-0.0002295452 0.021381246 0.0051672747
0.002903084 0.013621188 -0.020790303
-0.00083869917 0.0080597652 0.020511631
-0.001069758 -0.0153688 0.016122269
-0.0050000004 0.0029788981 -0.017804451
-0.0048917807 -0.017495461 0.017817536
-0.0050000004 -0.0048157419 0.0029262393
-0.0050000004 0.0048545534 0.0048263627
-0.0050000004 0.010793858 -0.0021758501
-0.0050000004 -0.00055698107 0.017843198
-0.003059559 -0.024261123 -0.0056120558
0.001607504 0.0097963354 -0.020490574
0.00054088386 0.0047248043 -0.021522911
0.0050000004 0.023220045 -0.0020721736
-0.0050000004 -0.023420857 0.0018210863
-0.001944334 0.017741781 0.014935616
0.0050000004 0.0030096937 -0.014403023
0.0042217379 -0.020311316 0.014245432
0.0050000004 -0.0083458228 0.017339109
-0.0050000004 0.0024299419 -0.0068535991
0.0050000004 -0.013832119 0.012979727
0.003343713 0.0029909359 -6.8884416e-05
0.0050000004 -0.00099515391 0.0049139541
-0.0021334873 -0.023491317 -0.0015487598
-0.0050000004 -0.0036646808 0.022976212
0.0025488636 0.020020029 0.013671776
0.0050000004 0.01382354 0.00094662287
0.0050000004 -0.0041831029 -0.016003409
-0.0050000004 0.021124739 0.0094611431
0.0048781931 -0.0087827342 0.023190344
0.00050151173 0.019541234 0.010168448
0.0050000004 -0.019188553 0.0067257886
0.0030712355 0.015759416 0.019149616
0.0050000004 0.018224249 -0.0025352957
-0.0050000004 0.018386263 -0.015991097
0.0017447249 -0.00088928622 -0.0028510801
-0.0050000004 0.023514595 0.0048000966
0.0050000004 0.014172879 0.011214232
-0.0050000004 0.0082706204 -0.01273029
-0.0050000004 -0.012200912 0.0060330196
-0.0050000004 0.0038713815 -0.017674686
0.0050000004 -0.018374972 -0.0078545799
-0.0050000004 0.0041538374 0.0076485258
0.0050000004 -0.019076711 -0.012976689
-0.0050000004 0.014568509 -0.016300678
-0.0031607018 -0.024714872 0.0021656589
-0.0027394253 -0.003293541 0.02431112
0.0050000004 0.020426568 -0.014074988
-0.0050000004 -0.01651174 -0.0027155171
-0.0050000004 -0.00096523843 0.010386053
-0.0050000004 -0.01386175 0.0070818765
-0.0050000004 0.020663271 0.012136558
-0.0050000004 -0.0026707428 0.010063256
-0.0050000004 0.0017252258 0.0075015617
0.00087205396 -0.022121528 0.00085208699
0.0050000004 -0.009627888 -0.013495834
-0.00042133016 -0.01257306 -0.017986579
0.0050000004 0.0072070854 -0.0010922905
0.0050000004 0.011913242 -0.020115634
-0.0037814062 -0.012378531 -0.021700917
-0.0044349451 -0.020273509 -0.014294703
-0.0050000004 0.0098730093 -0.0083501739
0.0047052731 -0.023617227 0.0077521438
-0.0050000004 -0.0015975441 -0.0049742158
-0.0050000004 -0.023667237 0.0053409482
-0.0050000004 0.01511974 0.016408337
0.0025264947 0.014347104 -0.019453423
-0.0050000004 0.018584808 -0.0090252766
0.0050000004 -0.0064503257 0.020429308
-0.0050000004 0.0056101526 -0.017137162
-0.0050000004 0.00058959436 0.018272229
0.0047389455 0.024098933 0.0065892017
0.0050000004 0.0069709164 -0.012695001
-0.0050000004 -0.017699344 -0.0010774555
0.00056554447 0.017514812 0.0018484908
0.00051191717 -0.0099028992 -0.019654211
-0.0024372404 0.0059481491 0.023438225
-0.0050000004 0.0056682625 -0.016606001
-0.0050000004 -0.0024401674 0.0053818715
-0.0050000004 -0.013945302 0.0046565053
0.0050000004 -0.024298718 -0.0044097942
-0.0050000004 -0.0042253071 -0.0056098872
0.0050000004 0.021875918 -0.009407836
-0.0050000004 0.016498495 0.017370502
0.0050000004 -0.0071619092 -0.016080676
-0.0020361126 0.015996793 0.017126182
-0.0050000004 -0.016902789 0.0094801718
-0.0025661739 -0.023199329 0.0073223072
-0.0050000004 0.00051678834 -0.014225654
0.0050000004 0.016089635 -0.0062597627
0.0050000004 -0.013684559 0.011597757
0.0031388653 0.0072809039 -0.023812421
-0.00028734602 0.019745912 -0.0095256632
0.0050000004 -0.012428557 0.0056790775
0.0050000004 -0.00012100633 0.0063524405
0.0050000004 -0.020053597 -0.0073463675
0.0047080815 -0.0057446137 0.024243671
-0.0050000004 0.018506981 0.011097915
-0.0050000004 -0.0036506054 -0.010664048
0.00066941779 0.016543254 -0.014562295
0.0025686247 0.023775106 -0.0051178518
0.0050000004 -0.0033189876 0.02302203
0.0050000004 -0.0065204599 -0.01432536
0.0050000004 -0.01100383 -0.011264399
-0.0017331467 0.00099609315 -0.021783205
0.0050000004 0.0021075862 0.015904022
0.0014279013 -0.0013041988 -0.016831303
-0.0050000004 0.002584911 -0.012455292
-0.00070659583 -0.020373611 -0.0083012506
0.0050000004 -0.010570617 0.0031647494
0.0050000004 0.019991687 0.013153054
0.0022283113 0.013948283 -0.019114034
-0.0002622738 0.015748598 0.015420173
0.0020741534 -0.01069205 -0.020889025
-0.0050000004 -0.010567894 -0.011446696
0.0050000004 0.013922311 -0.014616876
-0.001525442 -0.022707641 -0.00065117638
-0.0050000004 -0.022158951 -0.0015763425
-0.0050000004 0.0016413979 -0.02458192
-0.0028122945 0.010294827 0.02242553
0.0050000004 -0.0084705008 -0.006953286
-0.0050000004 0.017035935 0.0058696372
0.0018080105 0.018982863 0.012933628
0.0050000004 -0.0059317569 -0.015481941
-0.0036794164 0.015919479 0.019026803
-0.0050000004 0.010677525 -0.0094426945
0.00096635107 -0.020675778 0.0077520772
-0.0050000004 0.015350419 -0.011466255
0.0050000004 -0.013267972 -0.010732715
0.0050000004 -0.013922309 -0.0024424531
0.0018210264 0.010372023 0.00066806155
0.002456787 0.0066564344 0.023271821
-0.0050000004 -0.0061733513 0.0098803183
0.0050000004 -0.0041351216 -0.0099465931
-0.0050000004 -0.0098759457 -0.015814023
-0.0050000004 -0.022876225 0.001134353
-0.004559081 0.008727177 -0.023213355
0.0050000004 -0.0099904807 0.0057298178
-0.0050000004 0.0010603593 0.022651276
-0.0050000004 -0.0093216309 -0.007887247
0.0050000004 -0.012111458 0.016101422
-0.0050000004 -0.007056185 -0.0089289499
-0.0050000004 0.012222838 0.020803673
-0.0025255121 0.015827976 0.018315015
0.0050000004 0.021068055 0.010527603
0.0013097201 -0.0014223799 -0.0090278266
-0.0050000004 -0.00086631707 -0.0073606353
0.0013352762 0.020750629 -0.0013968239
-0.0016911911 -0.0024116647 0.0017429367
0.0026771724 0.024427917 0.0015873588
-0.0050000004 0.0044134371 0.013360899
-0.0025626344 0.018895749 -0.015175843
0.0050000004 0.018535333 -0.0045642215
0.0037457277 -0.024688162 0.0023685601
-0.0027111003 -0.020349698 0.013699781
-0.0050000004 0.013966253 -0.014885041
0.0050000004 0.00085777219 -0.0045395344
-0.0050000004 0.018672407 0.0082204854
0.002181645 0.021462766 0.009789275
-0.0050000004 -0.020016832 -0.010744622
0.00043328007 -0.013135513 -0.017559016
-0.0018702091 0.0090645831 -0.00048447549
-0.0050000004 -0.012155108 0.002893076
0.0026887355 -0.0011086854 0.0027601968
0.0025616735 -0.023653204 0.0059522577
-0.0035951831 0.023370668 0.0083473902
0.0043854937 0.00019055187 -0.0029749204
-0.0050000004 0.0078666229 -0.00070366479
-0.0010991624 0.01307136 0.017921908
-0.0025470061 -0.0076997275 0.023007369
0.0050000004 -0.011372474 -0.0098453285
0.0050000004 -0.015287566 0.0045611463
-0.0050000004 0.015638925 -0.0083276276
-0.0050000004 0.00452577 -0.010798343
0.0016854985 0.0084460564 -0.021133564
-0.00102003 -0.019228242 0.011240063
-0.0022019241 0.015654795 0.017747501
0.0050000004 -0.011856935 -0.013602253
-0.0036087525 -0.022504462 -0.010438598
-0.0017592915 0.021049222 -0.0088924225
0.0024297091 0.00049660768 -0.024142958
-0.0036672642 -0.024585562 0.0031478228
-0.0050000004 -0.003674655 -0.020495536
0.0037737547 0.024787458 -0.0016143357
0.0050000004 -0.0028949103 -0.019542286
0.0050000004 0.016416872 -0.015733203
0.0050000004 0.017994173 0.0058873324
0.0042543281 -0.019230513 0.015653988
-0.0026941937 -0.0027170395 -0.024308691
0.0050000004 -0.0010210644 -0.022203885
0.0050000004 -0.018439936 0.0024881789
-0.0050000004 0.0080600334 0.019965129
0.0040561664 -0.013397233 0.020962147
-0.0050000004 0.0087140687 0.02000156
0.0010431968 0.016089624 -0.015368081
0.0050000004 0.0033825485 0.022914154
-0.0050000004 -0.0011216109 -0.0082460055
0.0050000004 -0.0032651259 0.017855771
0.0050000004 0.0095463162 0.0076425276
-0.0048888172 0.022301139 0.010929466
0.0050000004 0.0054954714 0.0003543749
-0.0049640373 -0.024750523 -0.001894868
0.0015841854 0.0024217744 0.022533273
-0.0050000004 -0.0042292331 -0.023554852
-0.0050000004 0.016041653 0.0045265625
-0.0050000004 0.001721982 -0.021939872
-0.0050000004 -0.0074996343 -0.013101038
-0.0050000004 -0.010364559 -0.008143235
-0.0018898697 0.013191543 -0.00041108803
0.0050000004 0.0037718981 -0.013279246
-0.0050000004 -0.01390321 0.013982989
-0.0026032659 0.018517675 -0.015783187
0.0021774559 0.011026752 -0.020942396
0.0050000004 0.022353714 0.0035517085
0.0050000004 0.013841525 0.0013852811
-0.0050000004 -0.0075435075 -0.017852537
0.0050000004 -0.0023259562 -0.0023027558
-0.0050000004 -0.020364102 0.0013352514
0.0050000004 0.011506871 0.020660464
0.0042434037 -0.01443681 -0.020164467
0.0050000004 0.00139874 0.023248445
0.0050000004 0.019483197 -0.0087496117
-0.0028553724 0.024921073 -0.00018606585
0.0050000004 0.0032456517 -0.019668112
0.0045333644 0.021335999 -0.012910012
-0.00073952158 -0.0018018823 -0.021340644
-0.0024423257 -0.0052098744 0.023544237
0.0050000004 0.0080216676 0.013365619
-0.0050000004 0.013096782 -0.020356797
-0.0050000004 -0.021780238 0.0044530714
-0.0038917901 0.0098858634 -0.022733411
-0.0018983837 0.020454539 0.00037930734
0.0050000004 0.0089179073 0.00077352719
0.0050000004 0.00092018797 0.016633645
0.0017208281 -0.0044208341 -0.022406701
-0.0050000004 0.0087296301 -0.0091128731
0.0036693374 -0.014916701 0.019796243
0.0050000004 -0.0076228119 0.019453628
0.0050000004 -0.013376571 0.015414258
0.0050000004 0.00034551148 -0.019627554
0.0021008283 0.021150894 0.01017955
0.00085079687 0.020367028 -0.0084172403
0.00020190317 -0.022020089 -0.00025843357
-0.0050000004 0.011250902 0.010844203
0.0050000004 -0.0010953083 -0.019539405
0.0050000004 -0.020627413 0.0031634581
0.0050000004 -0.0060177008 0.022072464
0.0025792161 0.024271652 0.0014855597
0.0015093491 0.0066031031 -0.021707917
0.0050000004 -0.0048122057 -0.00027529718
-0.0050000004 -0.015194016 0.0039639208
-0.0050000004 -0.0064828377 0.018594891
-0.00095061137 -0.0027024911 -0.02189892
-0.0050000004 0.012556834 0.013328448
0.0020970132 -0.021513985 -0.0092858421
-0.0050000004 -0.0069029168 0.023528365
-0.0050000004 0.0090208361 -0.0078169508
-0.0050000004 0.00017914367 0.016076431
-0.0027651791 -0.024391273 -0.003023525
0.0050000004 0.014925486 0.0014918252
0.0020631005 0.018816793 -0.01386963
0.0050000004 -0.015904125 -0.015310735
0.0018568897 0.0080782641 -0.021567859
0.0050000004 0.0069485856 0.0087443376
-0.0050000004 -0.021954102 -0.0058939517
-0.0050000004 0.016891383 0.0095365932
0.0036300188 -0.0044934787 -0.024408394
-0.00053925818 -0.016221257 0.014925085
-0.0050000004 -0.0097963456 -0.0031789734
0.0044462271 -0.0046661319 0.024385663
0.00094720203 -0.021848805 0.00307648
-0.0050000004 -0.0072801909 -0.010725502
-0.0014600256 0.017179338 -0.014626803
-0.00059547718 -0.011585192 -0.018802932
-0.0050000004 -0.017692091 0.01397685
-0.0032554076 -0.017544569 -0.017779855
0.0016910756 0.016508972 -0.015876779
-0.0048611481 0.0093346294 0.022961739
-0.0050000004 0.010016827 0.017964562
-0.0050000004 -0.0064335335 -0.0090995301
0.0050000004 -0.0095261354 -0.02027061
0.0050000004 -0.00114163 0.01525861
-0.0050000004 0.0032803824 -0.0023989433
0.00040583874 0.0018912759 -0.020369019
-0.0017303603 -0.014112367 -0.017911924
-0.0050000004 0.012648508 -0.00021512521
-0.0050000004 -0.0050286418 0.0051482706
0.0050000004 0.0023999722 -0.015849181
-0.0050000004 0.015767168 -0.0083450284
-0.0046093343 0.0099449744 0.022708928
-0.0050000004 0.0096441675 0.0091739371
-0.0011324091 0.0030286519 -0.022001611
-0.0021422571 -0.022983203 0.0055236034
0.0050000004 -0.011813172 -0.0067225667
-0.0050000004 0.017141646 -0.0041573625
0.0049999999 -0.0041709696 0.003122593
0.00048067741 -0.0011007305 -0.0074187987
0.0050000004 2.4755738e-05 0.018847173
0.0025092792 0.0051403563 0.023669345
0.0050000004 0.012769479 0.0088936631
0.0049977535 -0.019724777 0.015009842
-0.0050000004 -0.01175701 0.012807794
-0.0034754439 -0.0066407202 0.024077592
-0.0050000004 -0.017091062 -0.0067317062
0.0050000004 0.0055876081 -0.013883872
0.0050000004 -0.0117355 -0.012069835
0.0043136161 0.0029236833 -0.00057984283
0.0050000004 0.0061913291 -0.021540225
0.0050000004 -0.018049087 0.015933074
-0.0050000004 0.00383474 -0.016794465
0.0049999999 0.011605578 -0.013786364
0.0034864403 -0.019486081 0.015320921
-0.0050000004 0.020212766 0.01436941
-0.0018390105 -0.00060093147 -0.015503733
0.0050000004 0.011427112 0.016712965
-0.0050000004 0.0048468332 0.0071413903
-0.0050000004 -0.012102092 -0.013456902
-0.0050000004 0.014229192 0.0020044574
-0.0033097798 -0.02498577 -0.00010809187
-0.0020719429 -0.017091895 0.016142547
-0.0013090518 0.018263601 0.0014230483
0.0050000004 -0.0090194764 0.014151139
-0.0050000004 0.0095875403 -0.005369511
-0.0050000004 0.011898846 -0.0037886153
-0.0050000004 -4.0207899e-05 -0.0065472042
0.0050000004 0.012998678 0.0068392302
-0.0050000004 0.0052334773 0.017244671
0.0050000004 -0.020489188 0.0013661896
-0.001047113 -0.01985365 0.0098822545
-0.0050000004 0.0077885706 -0.021909852
0.0050000004 0.0056853751 0.0093452996
0.0039754855 0.01070608 0.022393666
0.0050000004 -0.0015785192 -0.011774613
-0.0050000004 -0.0088728582 -0.0030334678
0.0050000004 0.0029052524 -0.0087168142
0.0050000004 0.0068853516 -0.016207956
0.004703816 0.021973278 -0.011720989
-0.0016949187 -0.0023908301 -0.022648031
0.0027297963 0.0027879563 0.0010416718
0.0050000004 -0.0043937806 0.0067787841
-0.0050000004 -0.0068650385 -0.010410709
0.0050000004 -0.0078951186 -0.015652068
-0.0050000004 -0.0024402025 0.010707828
-0.0050000004 0.0029431919 0.0101902
0.0050000004 0.00039290552 -0.0065104831
0.0050000004 -0.0011066175 -0.012982666
-0.0050000004 -0.0066174516 -0.023828529
-0.0050000004 -0.017791362 -0.0011333822
-0.0050000004 -0.0074732639 -0.020668432
0.0050000004 0.0059146965 -0.007925407
0.0050000004 0.0020619654 -0.013612716
-0.0050000004 0.0052562016 0.024002191
-0.0050000004 0.0096644005 0.0016749994
0.0050000004 0.016105909 0.0051953006
-0.0021311045 -0.022688814 -0.0066025094
-0.0050000004 0.015793068 -0.0034522107
-0.0050000004 0.019771757 -0.0094700148
-0.0050000004 0.02187096 0.0016932302
0.0050000004 -0.020258393 0.0049514165
0.0050000004 -0.00033234738 0.0087963855
0.0016806549 -0.0062721721 0.022028809
-0.0050000004 0.010016959 0.021035645
-0.0050000004 0.019591741 -0.00060054689
-0.0050000004 0.0078277197 0.0054012891
0.0050000004 -0.0081219673 0.00072446064
0.00030481225 -0.0011478433 -0.004251976
0.00020498353 0.001945085 -0.018687122
-0.0050000004 -0.018638194 0.0076320367
0.0025191472 0.020836852 0.012523427
-0.0050000004 0.019393319 -0.0090113021
0.0050000004 0.0039930292 0.010146606
0.0050000004 0.019062525 0.0082083289
-0.0050000004 -0.016915236 0.0079367133
0.0050000004 0.0087545514 0.013170525
-0.0020528436 -0.021415986 0.0093242386
-0.0050000004 -0.015958071 -0.0032737418
0.0023542759 -0.023964915 0.00085620314
-0.0050000004 -3.3277109e-05 0.0032790715
-0.0050000004 -0.011746382 0.016040595
0.0050000004 -0.005641677 -0.011477423
-0.0050000004 -0.012278846 -0.0025564109
-0.0050000004 0.015597977 -0.0090793949
-0.0017971405 -0.010773667 -0.020340342
-0.0050000004 -0.0021216653 0.019271635
0.0017772435 -0.00083149201 -0.022909027
0.0050000004 0.01975829 -0.014422671
-0.0050000004 -0.020252515 -0.010845676
-0.0021657937 0.021625081 -0.0093262559
0.0002497563 0.016462771 0.0019330904
-0.0032973925 -0.022257464 0.0110349
0.0050000004 -0.011159369 -0.0034051172
0.0028179935 0.015483746 -0.019212212
-0.0050000004 -0.019397836 -0.0081618521
-0.0050000004 -0.0082366886 -0.014697528
0.001597287 -0.012872309 -0.018697146
-0.0027325277 0.021052681 0.012844061
0.0032501051 0.024866255 0.0010158662
0.0050000004 0.00098735013 -0.01329009
-0.0050000004 0.0021600423 0.023855524
0.0050000004 -0.0090531278 -0.0045098593
-0.00064426201 0.0060108169 0.021304429
-0.0050000004 -0.0048286817 0.012543399
-0.0050000004 0.0071812039 0.023578813
-0.0010945208 0.012430899 0.0016375795
0.0050000004 -0.00013051459 -0.023032708
-0.0050000004 -0.018876933 0.013211448
-0.0050000004 -0.0014522001 0.008525379
-0.0050000004 -0.0125409 -0.0017521492
-0.0033543215 0.0013352012 -0.0026663749
0.0050000004 -0.010871477 -0.016223274
0.0050000004 -0.011553863 -0.010424065
-0.0027157413 -0.0245378 0.0012602136
0.0050000004 -0.0095080836 -0.018689513
0.0050000004 -0.0097715193 -0.011367093
