# .PCD v0.7 - Point Cloud Data file format
VERSION 0.7
FIELDS x y z
SIZE 4 4 4
TYPE F F F
COUNT 1 1 1
WIDTH 1000
HEIGHT 1
VIEWPOINT 0 0 0 1 0 0 0
POINTS 1000
DATA ascii
0.0093974136 0.0039551458 -0.0076591466
0.0060000001 0.010450603 -0.006173335
0.0050000004 -0.012533737 -0.01083058
0.0040817903 -0.013254198 0.019197382
0.0050000004 -0.0060992409 -0.014234087
0.010397767 0.00050000002 0.011369644
-0.0050000004 -0.01282521 0.011667663
0.0050000004 0.014814032 -0.015047772
-0.0050000004 -0.011284201 0.0056146793
-0.0050000004 -0.020352865 0.00661413
-0.00061196921 0.00010866467 0.004985692
0.0050000004 0.0043813814 0.0069641173
0.0029157642 0.015212836 0.01769446
0.0095268004 -0.0046868976 0.0077589001
-0.00094420841 0.0067111552 -0.019490862
0.0050000004 0.00061591406 -0.01298703
-0.0050000004 0.0062276688 0.0016722039
-0.0050000004 0.0043336353 -0.014719591
0.0095039429 0.0072779488 0.0051311338
-0.0050000004 0.016409244 -0.0060264342
0.0050000004 0.011821995 -0.016374797
0.0076260981 0.0045000003 -0.0087114302
0.0050000004 -0.0079215849 -0.01439838
-0.0034592377 -0.0018217793 -0.023260171
0.0029600943 0.022461068 -0.0066573368
0.010065323 -0.012440625 -0.00045102357
0.0069003976 -0.0031116793 -0.003860723
-0.0050000004 -0.0079899607 -0.018297229
0.0099883527 0.0009564088 -0.0048740818
0.014038213 0.0077660973 0.0071789171
0.011708882 0.0018119271 0.0074282186
0.0098657906 0.006806172 -0.0050834953
-0.0018445166 0.0021782608 -0.021407939
0.008958281 0.003278462 0.0081882793
0.0094831148 0.0022637164 0.0072808596
0.0098659769 0.011825183 0.0038361249
-0.00053015037 -0.019074177 -0.0074297441
0.0050000004 -0.00025871475 0.01611129
-0.0050000004 0.0031872017 0.018767608
0.0049188929 0.013754396 -0.018813567
-0.0050000004 -0.00023184209 -0.016900662
0.0050727082 -0.0030378497 0.012100083
0.015000001 -0.0029883396 -0.0051520844
0.0050000004 -0.011461779 -0.0067710401
0.0024029319 -0.02070271 0.0087310504
0.0092629567 -0.0063410355 -0.0080227433
-0.0050000008 -0.0068576965 0.013888276
0.0091807321 -0.0040868474 0.0075129401
-0.0050000004 -0.0089729959 -0.01700419
0.0095769428 -0.0094706118 -0.0077087572
0.012432554 -0.0034511278 -0.0036002444
-0.0049999999 -0.013106648 0.0077501265
-0.0050000004 0.0091859559 0.010352439
0.015000001 0.0093012881 0.0045080003
-0.0050000004 0.0094984844 0.0032496597
-0.0050000004 -0.0047043841 0.0050851195
0.012000002 0.0077266437 -0.0088247191
-0.0050000004 0.011384369 0.020277746
0.00057529751 -0.019998783 0.0049780705
-0.0029807859 0.0013183858 -0.02332644
0.0050000004 -0.0015496603 -0.015119774
0.0019294518 0.021158105 -0.0051933699
-0.0014432286 -0.004792281 0.020580234
0.01181969 0.0076332209 -0.0099700997
0.0072329915 -0.011815647 0.0038591477
0.013852883 -0.011965228 0.0034980332
0.014204514 0.004996805 -2.4261923e-05
0.014029331 -0.01208074 0.0031847584
-0.0047556623 -0.0017932421 -0.023263929
0.0062166564 0.00050000002 -0.011819725
-0.0023071873 -0.012146168 -0.018792996
0.0050000004 0.01532614 0.012191388
0.0050000004 -0.016443364 0.00049589539
-0.0013462272 -0.017233262 -0.011928265
-0.0017486936 0.0070033008 0.020202305
-0.0026004624 -0.010714347 0.020248357
0.0033733305 0.020992748 0.010202148
-8.8336608e-05 0.020230275 -0.0022286598
0.0044315411 0.0048198057 -0.0013177461
-0.0027861353 -0.022765698 0.0042534051
0.015000001 -0.0036339809 0.0059175943
0.0050000004 -0.0031813683 0.015493359
-0.0019655218 -0.020961463 -0.0061435513
0.015000001 -0.0064450279 0.0038679405
0.0050000004 0.0047169314 -0.014673016
-0.0020965422 -0.0037585469 -0.0032448319
0.014707059 -0.0044873683 0.011333226
0.015000001 -0.003062278 -0.0085360967
0.0025449549 -0.00042913781 0.022851411
0.012380773 0.012426884 0.00055539783
-0.0050000004 -0.019056506 0.0040691085
0.0037729442 -0.023353018 0.0011165143
0.011018731 -0.003620042 0.01048199
-0.0050000004 0.0013270882 0.0050361515
0.010527211 0.0020747702 -0.012226876
-0.0049558347 0.022463888 -0.0066505396
0.01068043 -0.00050000002 0.011298377
0.015000001 -0.00162533 -0.0089931758
0.0090000005 0.00836669 0.0097789168
-0.0050000004 -0.0049141315 0.014168139
0.0050000004 -0.0062309266 0.02100338
0.011999241 0.012247304 0.0019195164
-0.0050000004 -0.0087836711 -0.018362695
-0.0043257358 0.013803544 0.018775852
-0.0013949634 0.014531025 0.015297011
0.015000001 -0.0047972263 0.0038531949
0.012728278 -0.0049491748 -0.00038599424
0.012584982 -0.00050000002 -0.0056127007
-0.0020786079 0.01395232 0.016912349
0.0050000004 -0.003355854 -0.02263126
0.011660837 0.0010147956 0.010296155
0.015000001 0.010746754 0.00047649792
0.0043291361 0.0049368259 -0.022850087
0.0050000004 0.011590104 -0.0044565857
-0.0050000004 -0.020810595 0.0013896327
0.0050000004 0.002648816 0.016425489
0.0041493117 0.020227212 -0.011912108
0.0050000004 0.0071498323 -0.013479308
-0.0017856607 0.017330119 0.012581469
0.00060952071 -0.0036543314 -0.0033806425
-0.0024859339 -0.014039863 0.017726814
0.0042959927 0.003006398 -0.023104222
0.0098522818 -0.0066707586 -0.010447424
0.0050000004 -0.012102708 -0.015783267
0.0028018802 0.011593812 -0.020258453
0.0094048465 -0.003590967 0.010119147
0.0080882199 0.011253897 -0.0052153091
0.0035142032 0.022704737 -0.0060409051
0.0050000004 0.021083146 -0.0078028948
-0.0050000004 -0.0017677846 -0.020661283
0.0050000004 -0.0016524468 0.021580182
-0.0050000004 -0.016557992 -0.0090291202
0.0022789796 0.0049801772 0.00015054586
0.0027232638 0.020888243 -0.0097205946
-0.0044250865 -0.022007238 0.0077529741
0.0050000004 -0.0031803122 -0.022406118
0.0025966645 0.020833654 0.0092842868
-0.0028671816 -0.00051775028 0.0049318336
0.0050000004 0.016306257 0.013895568
-0.0050000004 -0.0040321318 -0.0034855802
-0.0038902718 0.01692421 0.016216641
0.0050000004 0.0031264187 0.012577368
0.0050000004 -0.01245422 0.013726192
-0.0050000004 0.014147417 0.013932255
-0.0032877424 -0.0037593979 -0.0032437227
0.0050000004 0.018689724 -0.0081842104
-0.0050000004 -0.017952098 0.010678652
0.0092522698 -0.012385846 -0.00086713978
0.0050000004 -0.0089046201 0.012256573
0.0050000004 -0.019929808 -0.0059538223
0.00087925512 -0.010562736 0.017808013
0.0050000004 -0.021401875 0.0058041583
0.0050000004 0.0092268372 0.013500896
0.0080017019 0.00050000002 0.0083624441
0.015000001 -0.0070971972 0.0054396316
-0.0050000004 0.018050758 -0.0084044673
0.0041215774 -0.022233708 -0.0072062328
-0.00016918362 0.0083038546 -0.018608296
0.0060000001 0.0088123688 -0.0057353433
-0.0050000004 0.015389971 0.014333487
-0.0050000004 0.001602225 0.018927047
0.0049291067 -0.020227028 0.011912348
0.0050000004 -0.0035417539 0.0210949
0.01065042 0.0074044224 -0.0050198035
-0.0037056454 -0.00037980289 -0.023450002
0.0050000004 -0.010048958 0.0099678868
-0.0050000004 -0.0084162774 0.009910237
0.015000001 -0.0034964452 0.0049485303
0.00015972221 0.0038739643 -0.020032806
0.0017991167 -0.0063225287 0.020578021
0.0050000004 0.014033537 0.017356025
0.012759708 0.0069674137 0.011640014
0.0096312007 0.0029511824 0.010786439
-0.0015934984 -0.021224646 0.0010388201
0.010564866 0.0065508676 0.012491458
-0.0011558895 -0.0049656825 0.00026062448
0.010201683 -0.00083790784 0.010582157
-0.0043364069 -0.023156861 -0.0026065279
0.0060000001 0.00281476 -0.011243676
0.0078449622 -0.00098198431 -0.0048707123
0.0024586758 -0.022601126 0.001195193
-0.0050000004 -0.011607835 0.010679763
0.0076616453 -0.0015959006 -0.012289922
-0.0042907456 0.0050407122 0.022836411
-0.0026325048 0.0068981699 0.021888638
0.0050000004 -0.01900328 -0.0087727048
-0.0050000004 -0.013488925 0.00068066648
-0.0010273161 0.0060505499 -0.019809837
9.8364239e-05 -0.018852284 0.0076656612
0.0049665938 0.0048822681 -0.00089411112
-0.0050000004 0.010205481 0.016547119
0.0024617435 -0.022340858 0.0032125723
-0.0044678124 -0.020205935 -0.011939835
-0.0010724396 0.020369301 0.0035783572
0.010486606 -0.0041886796 0.0070017627
0.0060081268 -0.00050000002 0.0089228163
0.0050000004 0.017900307 0.0076842685
0.0018364739 0.021633044 0.00036261007
-0.0050000004 0.0030210493 0.010531046
0.0076608341 -0.00050000002 0.0074652215
0.0082694376 -0.0031848254 0.012080733
-0.0034175187 0.0093967216 -0.021326369
-0.0022367814 -0.021121334 -0.0069748349
0.0050000004 -0.0024314432 -0.014284999
0.0050000004 0.020870892 -0.0080334954
-0.0050000004 -0.019897366 0.0032049839
0.001168482 -0.012564016 -0.016523348
0.0026066564 -0.02233029 0.0051994263
0.0046651145 -0.003926897 0.0030254433
0.0050000004 -0.016158849 0.016824812
-0.0025577426 -0.0049623176 -0.00028617878
0.012551568 0.0072732777 0.011799715
0.0022288046 0.018960336 0.011706975
0.012492141 -0.0015349804 -0.0089402506
0.014802502 0.011708944 0.0033330084
0.0097359056 -0.011686706 0.0041704313
0.0073466278 0.0079308767 0.0075452249
0.0019817799 -0.020827677 -0.0065394891
-0.0050000004 0.004071861 0.012984038
-0.0050000004 -0.0039962502 0.0089139482
-0.0050000004 -0.014418549 0.00092335517
-0.0050000004 0.018853918 0.001973199
-0.00080532307 0.020194221 0.0039617079
-0.0049999999 -0.0018926323 -0.0085036689
0.0041611227 0.0042853882 -0.022935843
0.0050000004 0.0042602811 0.013645928
-0.0038096402 -0.018777311 0.013801645
-0.0025169225 0.01649827 -0.015728366
0.0050000004 6.1771043e-06 -0.01290229
0.00084839098 -0.002398995 0.020411523
0.0090624131 -0.0018428731 -0.012257406
0.001325749 -0.012397593 -0.016847555
0.0060174828 -0.00050000002 0.0065399352
0.015000001 -0.0053466829 0.0025820504
0.013021176 -0.0068914113 0.010333123
-0.0050000004 0.0023477613 0.0097275069
-0.0050000004 -0.0008746878 -0.01594598
-0.0050000004 -0.012881381 0.0099442694
0.0094380453 0.005052642 0.0051473426
0.0096689919 -0.0055000004 0.0099492138
-0.00017069312 -0.020134259 0.0031256578
-0.0018091956 0.018943328 0.010314185
-0.0040629427 -0.001441158 0.023310278
0.0050000004 0.018432103 -0.0079926057
0.014823265 -0.0023443943 0.0043945545
0.0050000004 0.0046816692 -0.014195775
-0.00054227735 0.0020455909 -0.0045183226
0.00033416302 -0.013798513 -0.015142579
0.0090188039 -0.005876848 -0.010979868
0.0096735535 -0.0014499013 0.012309142
-0.0050000004 0.016918363 0.011715097
0.0036602023 -0.0048941346 -0.00080398994
-0.0033737049 -0.0004812892 0.023436641
0.0050000004 0.010961029 -0.0090096593
0.0098945871 0.0059799696 0.0050797043
0.015000001 0.0085248454 -0.0040588439
0.0050000004 -0.014127238 0.0071838051
-0.0050000004 0.016448041 0.014119514
0.0050000004 0.0028849528 0.0073156939
-0.0014613784 0.0070787482 0.019849736
-0.0050000004 0.0019213001 0.022261301
-0.0050000004 0.011346793 0.008358852
0.012782125 -0.0092722168 -0.0082739741
0.011757036 0.0085000005 -0.0067741913
-0.0019556726 0.019233624 0.010270655
-0.0050000004 0.018259473 -0.0088521494
0.014124809 -0.012443743 0.00042733958
0.0060000001 0.0054567792 0.00064416637
0.0050000004 0.0089772884 -0.017274648
-0.0050000004 -0.0049557853 -0.017680468
-0.0050000004 -0.0062615513 -0.012112023
-0.0050000004 -0.0049757352 -0.0047853799
0.0050000004 -0.012906151 0.010520544
-0.0030872042 0.0046987254 -0.0016100601
0.0077895639 -0.0048345933 -0.0012561858
0.0050000004 -0.022125982 0.00019634629
-0.0050000004 -0.018310275 0.012963806
0.0050000004 0.020780031 -0.001664852
0.0050000004 -0.007313211 0.018928649
-0.0050000004 -0.019621061 -0.0095486362
-0.0025960924 0.0032846164 -0.022564072
-0.0050000004 -0.0086032394 -0.0073827566
-0.0050000004 0.020806836 -0.0059011728
-6.3759428e-05 0.020313837 0.0015438749
0.0060000001 0.0083592422 0.0052255872
0.0061063087 0.0047045513 -0.0015959943
-0.0037120311 -0.0035223747 0.023036294
-0.0050000004 -0.018964708 0.0046954197
0.01173726 -0.0030680601 -0.0038941947
-0.0016639248 0.0082634976 -0.019576304
0.0088907145 0.00050000002 0.005881987
0.0050000008 -0.011055275 -0.015105815
0.015000001 0.0060360883 0.0036023681
0.011175846 0.0043388242 0.011028319
0.012571469 -0.011339008 -0.0050098295
0.0020683457 -0.019765116 -0.0094931554
-0.0010306757 -0.0044522686 -0.020212475
-0.00031916265 -0.020322179 -0.0020002695
-0.0050000004 -0.0020387038 0.0066663125
0.011649285 -0.0021534071 -0.0079349857
0.0050000004 -0.010080332 0.020518124
-0.0050000004 -0.00065406325 -0.010599677
-0.0050000004 -0.0030325246 0.019139562
0.0086158123 -0.00084466545 0.0083672041
0.012085139 -0.0085524321 0.0088661835
0.0050000004 0.0038990027 0.0085571008
0.010342891 0.0049731946 -0.00020357622
-0.0030718227 -0.019387383 -0.01300659
0.0090595633 -0.0069788797 0.0096737863
-0.0033033788 -0.020647563 -0.011035494
0.0050000004 0.0043971632 0.020239318
-0.0050000004 -0.0093521355 -0.0090484358
-0.0021922269 0.020135807 -0.0091541484
-0.0050000004 -0.0008284119 -0.012807372
0.0016862095 -0.021219224 -0.0017841532
0.0062739491 -0.0098925903 0.0074655144
0.0045586112 0.0031731909 -0.023082262
-0.0050000004 0.0063684289 -0.0018948474
0.0097661 0.011851179 0.0037733652
0.0038572461 0.022414392 0.0067700278
0.0050000004 0.012920896 0.0021483542
-0.0050000004 -0.014593924 0.013706176
0.0016867685 0.017088434 0.012671536
-0.0050000004 -0.013981749 -0.00066811562
-0.0050000004 0.020471122 -0.0044019581
0.015000001 0.0071051936 -0.0032493721
-0.0050000004 -0.010551298 -0.020461343
0.01022759 -0.0048976527 0.010547999
0.0050000004 -1.4531017e-06 0.0090307789
-0.0035576969 -0.0053704567 -0.022793001
0.013593707 0.003934233 0.0030158833
-0.0049999999 -0.00018327619 0.006540677
0.002457832 -0.0026209438 -0.022411967
0.0026059987 -0.0039868825 0.022488771
0.008486934 -0.012211119 -0.0021943804
-0.0050000004 0.021482376 -0.00082679704
0.015000001 -0.0080938358 -0.0031243891
0.0010921465 -0.0019354702 -0.0045639365
-0.0045259688 0.0021105115 0.02322216
-0.0050000004 0.010341181 0.0072674626
0.014939695 0.0049106311 0.00067871495
0.0050000004 0.0035007643 0.021361934
0.0043812157 0.022520887 -0.0065129269
0.0060000001 0.006689914 -0.002621219
0.0043205144 0.017337991 -0.015677396
0.012128689 0.0045000003 -0.0068508415
-0.0050000004 -0.010159739 0.016772363
0.0015009821 0.0036965511 -0.020782236
0.0051433821 -0.012004521 0.0034031754
-0.0050000004 0.0057235332 -0.019947033
0.011723749 0.0042937235 0.0077521252
-0.0022271432 0.011637462 -0.01901008
0.011959705 -0.0075249323 0.00839811
0.0042701475 0.022987943 0.0038896517
0.0070169605 -0.0049853586 -0.00011119591
-0.0050000004 -0.0050834552 0.016500799
-0.0050000004 0.0061893393 -0.00072150381
0.0050000004 -0.0182709 -0.0050270092
0.014099131 0.00050000002 0.010860295
0.0097222999 0.012245951 0.0019297989
0.012266466 0.0045000003 0.0065667937
0.011476758 0.0045000003 -0.012131331
-0.0050000004 0.0030810654 0.019401534
0.0050000004 0.01157102 0.014941471
0.013571013 -0.00050000002 -0.0080798725
0.0050000004 0.001560308 0.017772291
0.012074374 0.002015966 0.0077944952
-0.001838987 0.018778468 -0.010844351
0.0050000004 -0.003384141 -0.013523255
0.0050000004 0.0066773226 0.0063527836
-0.0050000004 0.0015712228 0.013506419
-0.0050000004 0.017576028 -0.01150194
-0.0049999999 0.01683563 -0.0094276797
0.0027001363 -0.0031665755 -0.0038185979
0.015000001 -0.0034783473 0.0055388692
0.0018100605 -0.0087421238 0.019596117
0.0050000004 0.019096691 -0.0072733075
0.0082835993 0.0071352897 -0.0057019629
0.012144257 0.0048066676 -0.0053885435
0.012306777 0.0060022655 0.0060124639
0.0050000004 0.013696134 -0.016840434
0.010340498 -0.0040169507 -0.0029080876
-0.00061546668 0.0036882828 0.020179367
0.015000001 -0.0082685575 0.0060422937
-0.00083288184 -0.019118296 -0.0075333603
0.0068395608 0.0052991728 0.0074739954
0.0089790821 -0.00050000002 -0.0052323211
-0.0050000004 -0.0058760731 -0.0011346055
-0.00042661795 -0.01412968 -0.014919435
-0.0050000004 0.01586155 0.0036863505
0.0050000004 0.021242058 -0.0063595036
-0.0050000004 -0.016536068 -0.01274218
0.0075802938 -0.011301706 0.0050998814
0.0050000004 0.014310212 -0.0095464205
0.0086779604 0.0034513723 0.0036000563
-0.00044986847 0.013986223 -0.015037294
-0.0050000004 -0.0033379302 -0.0092391893
0.010988728 0.011824418 0.0038379745
0.0050000004 0.019468609 0.0017913786
-0.0043182024 0.023059558 0.0033456532
0.0061718822 0.012379697 0.00091384811
-0.0047588288 -0.0015318854 -0.0047311066
0.0060000001 0.010186022 -0.0023860172
0.0050000004 -0.017391246 -0.0040197172
0.010502304 0.01176207 -0.0039885142
-0.0050000004 -0.0031206731 -0.0042828065
0.014113564 -0.0047255661 0.0015452605
-0.00055054296 0.00020531667 0.020620517
0.0060000001 0.0056212763 -0.0081538092
0.0050000004 0.016587365 0.009086689
0.015000001 0.0097066881 0.0031469213
0.0060000001 0.0072562872 0.0067148684
0.010965008 -0.001103765 0.010496387
0.0050000004 0.0031782531 0.016881149
-0.0050000004 0.014987052 0.014150092
-0.0020377804 -0.0045997291 -0.0018490577
0.0084039308 0.0084299808 0.011536184
0.009274953 -0.00050000002 -0.012100562
-0.0050000004 -0.010415141 -0.0075789238
0.0087091234 0.0082970737 -0.0054492778
0.0088964254 0.0046415091 -0.0017481921
-0.0046577235 6.7473884e-05 -0.004991116
-0.0010573358 -0.014045256 0.015247882
-0.0050000004 -0.02034764 -0.01158394
0.0050000004 -6.5197921e-05 0.021534372
-0.0050000004 0.012700508 0.0025531212
0.012279735 -0.011080932 -0.0056328652
-0.0006039553 0.0046691736 -0.0016814049
-0.0050000004 0.0019205145 -0.01485144
0.0086079147 0.011661567 -0.0042311507
0.0050000004 0.014468081 -0.0025900488
-0.0049999999 -0.0018563657 -0.0088609699
-0.0050000004 0.0037879178 -0.017634401
0.0091774929 0.0049209408 -0.012208155
-0.0050000004 -0.012961072 -0.013331013
0.00057292503 0.013632795 -0.015349703
0.010043442 0.0076287063 0.0050601074
-0.0050000004 -0.010037359 0.01554267
0.0090765934 -0.0019887928 -0.0097373398
0.003497124 0.0050613545 -0.022833694
0.0050000004 -0.020424377 -0.0034476037
0.0015855208 0.0097487466 0.018876951
0.00064976577 -0.014695971 0.0145183
0.0050000004 -0.015068119 0.0064430283
-0.0050000004 -0.02150989 -0.00762437
0.012158473 0.0028246813 0.0084700463
0.0050000004 0.001536209 -0.021654492
0.001169372 0.00019892168 -0.0049738074
0.014625332 -0.0051878914 0.011130755
-0.0027909065 -0.011968026 0.019976735
0.01003724 -0.0062408997 -0.01082907
-0.0050000004 0.011525023 -0.0144778
0.013721423 0.0064717191 -0.0077095283
-0.0050000004 0.012743155 -0.0036917932
0.0050000004 -0.0041001951 -0.018589655
0.0050000004 0.012702649 0.0063627101
0.012110792 -0.0085051954 -0.0090380963
0.002460506 -0.0021362372 0.0044807754
-0.0050000004 0.0042983778 -0.016173447
-0.0032424259 0.023346039 0.0011695363
-0.004201483 -0.0022580677 0.023202734
0.0026708299 -0.00393403 0.022608019
0.0049808905 -0.021198945 0.0097043505
0.0073769093 -0.0097899251 0.0075993151
-0.0050000004 0.012247127 -0.0024153234
0.00077268103 -0.015409336 0.01364226
0.0091806771 -0.0015295299 0.0098949783
-0.0040995292 -0.0074795838 0.022120481
-0.0050000004 0.014853995 -0.0061125793
0.0088436184 0.003311503 0.0079013444
0.0089063765 -0.012230663 -0.0020459248
0.0054051261 -0.006385447 -0.010721367
-0.0044002724 0.017948601 -0.014881635
0.0049384474 0.021553025 -0.0088495295
-0.0050000004 0.0045651817 -0.01244779
0.0010529469 0.018407444 0.0095027043
0.0019664771 0.0084858434 0.019993015
-0.0022149112 -0.0079762079 0.020665897
0.010764377 0.0060919095 -0.0055348165
0.0090229139 -0.002042002 0.004519809
0.0060000001 0.0038900764 0.0037381116
0.0024916385 0.021461003 -0.0072984518
0.0017358429 -0.00032815305 0.021463282
-0.0050000004 0.013416411 0.00089946942
0.011877062 0.0070936196 -0.0058144405
0.012382124 -0.00050000002 -0.0085137645
-0.0030500451 -0.0017750759 0.023266319
-0.0050000004 -0.016319459 -0.0092325499
-0.0050000004 0.011357483 0.014309702
-0.0024734447 0.00069089449 -0.0049090274
-0.0034946601 -0.023173738 -0.0024783239
0.0050000004 0.020171205 0.0094235661
0.014924539 -0.00050000002 0.0080204401
0.015000001 0.0092542153 -0.0022186416
-0.0050000004 -0.013824053 -0.018742392
0.0071597658 -0.0055698468 0.011107036
0.0050000004 0.014788616 0.01006791
0.0050000004 -0.012826286 0.011903377
-0.0021718976 -0.019563343 -0.010444944
-0.0050000004 -0.00043118518 -0.016441906
0.0067233639 -0.00050000002 -0.01030145
0.0050000004 0.020395333 0.0053166538
0.0050000004 0.0069214776 -0.0065195877
0.0050000004 -0.0077424673 0.021441476
0.0060000001 0.0032471477 0.0051611457
0.0060000001 0.0037896216 0.0080644684
0.0060000001 0.0056307386 -0.0016963539
0.0050000004 0.011039845 -0.018422659
0.015000001 0.0098404251 0.0043093804
0.0050000004 -0.020678192 0.00095410936
0.0020974765 0.013343283 0.017420514
0.011024872 0.0078951912 -0.0075710062
0.0050000004 0.012166366 0.019100066
0.010180387 0.0011789459 -0.012344815
0.008953019 -0.0070235063 0.0087238001
-0.0050000004 0.008490595 -0.018414574
0.0050000004 -0.02286429 -0.0019100903
0.0050000004 0.0057540755 0.013714524
0.013683822 0.0035649354 0.0034971414
0.0050000004 0.010442347 -0.0063509592
0.0070841825 -0.00085232907 0.012387815
-0.0050000004 0.017507296 0.011505496
0.0050000004 0.016979497 -0.0098005747
-0.0050000004 -0.0072115529 0.012418057
-0.0037748802 -0.0097285574 -0.02118892
0.0090324292 0.00050000002 -0.01220773
0.0030639691 0.023078775 0.0031996761
0.014531388 -0.00050000002 0.010003356
-0.0050000004 0.0053420961 -0.022318037
-0.0050000004 0.014091598 0.0042349552
0.011802746 -0.00098324113 -0.0080884462
0.009027211 0.0045000003 0.0077560325
0.0099140573 -0.012222435 0.0021084198
0.0028623231 -0.0040015094 0.02293082
0.0047562178 -0.021989867 0.0077949096
0.015000001 -0.00061886304 0.0051811961
-0.0024504412 -0.020970495 -0.00829776
-0.0050000004 -0.0012911115 0.015830401
0.015000001 -0.0043953029 -0.010233704
0.010659913 0.0039097397 0.003047802
0.0050000004 0.020326259 -0.01038118
-0.0050000004 -0.010887343 0.018692909
0.0032996293 -0.0086921966 -0.021618195
0.0070686718 0.0078905718 -0.0095214564
0.010463865 0.0076375618 0.005504759
0.0050000004 -0.013780739 -0.0075526694
-0.0050000004 -0.0060111699 -0.013054416
0.014495516 0.0098190578 -0.007561333
0.002954718 -0.0022666238 -0.023201609
-0.00091080664 0.01107883 0.017422572
0.0045907311 -0.022204801 0.0072760237
0.014679579 -0.012140638 -0.0013655758
0.0089178253 0.010668932 -0.0053628287
0.0050000004 0.00053363049 0.01690284
-0.0050000004 -0.0096919788 0.016547788
-0.0050000004 -0.022015095 -0.00024954512
0.0087422188 -0.0052828593 -0.0092268838
0.0050000004 0.011378277 -0.0039883968
9.0574031e-05 -0.0048225787 -0.019889385
0.0050000004 -0.016761977 -0.00098321494
0.0050000004 0.012121902 0.018301481
-0.0050000004 -0.01102419 0.011371352
0.010150691 0.00089919061 -0.0070459587
-0.0034591458 0.023389308 -0.00084083044
-0.0050000004 -0.0050005908 -0.0099934675
-0.0011838146 0.0054300674 0.02023478
0.0050000004 5.505051e-05 -0.013082738
0.0050000004 0.011191234 -0.00040893749
4.8927726e-05 0.014599888 -0.014381275
-0.00047194213 -0.00088097452 0.020510491
0.0039196713 0.022958614 0.0041124425
-0.004538741 0.021892974 -0.0080288332
0.0041937013 -0.0049602529 -0.000301861
-0.0013995593 -0.0047361339 -0.001519748
-2.5248031e-05 0.02025222 0.0019335098
-0.0050000004 -0.0039364705 -0.0069718054
0.0088040987 0.0005087686 -0.0094110938
0.012560822 0.0077499468 0.0055825734
-0.0049999999 0.0046495735 -0.0059016375
-0.0050000004 -0.018610703 -0.0027322336
0.00077654771 0.018300029 0.0094697289
0.013959503 -0.010153946 -0.0071249097
-0.0037749289 -0.003376358 0.0036576195
0.014185805 0.0074032345 -0.0075352327
0.010612636 0.010018053 0.0050148298
0.015000001 0.0027934394 -0.0045556012
0.013104431 -0.012171865 0.0024925754
0.010669171 -0.0015645198 -0.0047175884
0.0060000001 0.011364289 -0.0039051159
0.014906136 0.0075856871 -0.0090000005
-0.0050000004 -0.018336343 -0.0067200302
0.014525606 0.0045530782 -0.0090000005
-0.0050000004 0.002129934 0.015007037
-0.0050000004 -0.018612683 0.0053888536
-0.0050000004 0.0057759746 0.0048828241
-0.0050000004 -0.0099552097 -0.012709526
0.0071940348 0.002401415 0.0043709357
-0.0025451328 -0.016834142 -0.015370234
0.0091769081 -0.0039652865 -0.002975415
0.0050000004 -0.0046812128 0.019962642
-0.0050000004 -0.0028039371 0.018517841
0.0089374976 -0.0063127768 0.0087817172
0.0038697359 0.023442999 0.00043299099
0.0086514764 0.0040374598 -0.0028813607
-0.00012490028 -0.020051075 -0.0036642218
-0.0050000004 -0.013023452 0.012841774
0.0025897189 -0.0082842922 0.021234954
0.015000001 -0.0095639359 0.0016093079
0.0039492175 0.022776749 -0.0054938979
0.0087642651 0.0031095531 0.0088915965
-0.0050000004 -0.0019693458 0.012218117
0.0089725368 -0.00640113 0.0086509651
0.0050000004 0.0015547505 -0.011369118
-0.0011280267 0.015942447 0.013255191
-0.0050000004 0.019857282 0.0088934768
0.011619314 0.0020339475 -0.010328019
0.012910202 -0.0052425615 0.011242606
0.0015460926 0.0021161581 0.02103542
0.011362283 -0.0046733734 0.010352018
0.0050000004 -0.014405988 -0.013741623
-0.0050000004 0.016731005 0.011555707
0.012 0.0082041277 0.0093622403
-0.0050000004 0.022103794 0.004512039
0.0050000004 -0.013322494 -0.010541408
-0.0050000004 0.0074791079 0.019755945
0.0050000004 0.0081426399 0.0047968598
-0.0050000004 -0.018851461 -0.010651242
0.0012222229 0.00097662734 0.020861616
-0.0050000004 -0.021113669 -0.0097253239
-0.0036309382 0.00070012128 0.023407832
-0.0050000004 0.012267976 0.0080249645
0.0077789724 0.0079057971 0.0060892035
0.0071687 0.00050000002 -0.010474816
0.0050000004 -0.015120286 0.0052292715
0.0050000004 0.014680475 -0.011073503
-0.0050000004 -0.0080511617 -0.021025935
0.0050000004 0.013030035 0.0066569936
-0.0050000004 0.019423492 0.011408359
-0.0050000004 -0.0094105769 -0.0076105669
-0.0050000004 -0.007059427 0.013346118
0.0066161491 0.0087384209 0.0081177643
0.0039933911 -0.017422931 0.015566699
0.0096185803 0.0009140984 0.007218787
-0.00087783643 0.0074041062 -0.019184759
0.0028442901 0.00057283166 -0.02335096
0.010270842 -0.0055000004 -0.0086003598
0.011184812 -0.0026718497 0.010862646
-0.0050000004 0.0079655545 0.011385797
0.013461903 0.010887614 0.0060996041
-0.0050000004 -0.0092039667 0.016711678
-0.0050000004 -0.0042159706 0.0093456786
-0.0050000004 0.0093729738 -0.00074176601
0.0047254222 -0.0085871918 -0.021661691
-0.0050000004 0.016374426 -0.0092150243
0.0017357003 0.018361013 0.011097028
-0.0050000004 -0.019425781 0.012458019
-0.0050000004 -0.0081063118 0.019628515
0.0056794439 -0.010679174 0.0064404365
-0.0041700536 0.0016749785 -0.0046718353
0.0050000004 0.016637348 -0.0010128069
0.0091493111 -0.0056624315 -0.0081363888
0.012466762 -0.0026629199 -0.0087473681
0.015000001 0.0028799952 -0.004454853
-0.0050000004 -0.020446882 0.0055940612
-0.0050000004 -0.0081243245 0.00037161019
0.0050000004 0.013108573 0.0043771416
0.00017680204 0.0099234562 0.017939614
-0.0050000004 0.0049136383 0.0095407637
0.0050000004 -0.00073368498 0.013395819
-0.0050000004 0.010617818 0.010612584
0.0010839507 -0.018179242 0.010133954
0.0060000001 0.0064422172 0.001162159
0.0050000004 0.012960319 0.0050665322
0.01338477 0.0046909037 0.0016289431
-0.0050000004 -0.014248475 0.015780101
0.0050000004 -0.00019407063 -0.02010062
-0.00077659695 -0.0032985979 0.0037172893
-0.00088071876 -0.014084487 -0.015106192
0.015000001 -0.0032413802 -0.0038048965
-0.0021572188 -0.017926505 0.012852348
0.0032103471 0.023375224 -0.00094782328
-0.0034983549 0.0042050611 0.022946417
0.015000001 0.010178364 0.0046211258
-0.0050000004 0.017396543 0.010432023
-0.0050000004 -0.012401109 -0.0075144111
-0.0043014139 -0.00556777 -0.022767024
0.010105773 -0.011840572 -0.0037989737
0.0023280364 0.020699844 -0.0084018921
-0.001582888 -0.021344947 4.4537119e-05
8.3432198e-05 -0.0047056535 0.0015933343
0.0016748185 -0.021439962 -2.0999965e-05
-0.0022238113 0.0040115914 -0.0029150713
0.009327895 -0.0013882091 -0.010600008
-0.0050000004 -0.018108943 -0.013151763
0.011446256 0.0085000005 0.01145001
-0.0022037455 -0.018996602 0.011589022
0.0050000004 -0.01856678 0.00019890303
-0.0046903854 -0.0093143675 -0.021360483
0.010466944 -0.0036239775 0.0073878583
0.0090612499 0.0045000003 -0.011069175
0.0050000004 -0.0058568185 0.019010004
0.0050000004 0.0018483697 -0.0098386006
0.0083993915 0.0040046144 0.011755397
-0.0050000004 -0.0043583838 0.014560146
-0.0050000004 -0.016572317 0.0082206847
0.0060000001 0.010109781 0.0019557825
0.0021630125 -0.020709615 0.0076377825
-0.0050000004 0.016013745 0.0055174357
0.0096504958 -0.0072028958 0.0076352041
-0.0019409927 0.011301654 0.018648369
0.0060000001 0.0019960639 -0.0072719255
-0.0050000004 0.0077789328 0.0039107394
0.0062860167 0.011611139 0.0043528597
-0.0050000004 0.012850888 0.0063058301
-0.0025799423 -0.010715141 0.020209884
-0.0023454796 -0.014730849 0.01689259
0.011507439 -0.0015139258 -0.010206862
0.0060000001 0.010085523 0.0060071643
-0.0050000004 0.00066267169 0.01793245
0.0043651597 0.013506632 0.019003682
0.0050000004 0.005586796 0.013006021
-0.0050000004 -0.0025625357 0.013951845
0.0014580952 -0.01769362 -0.011510463
0.0041204719 -0.021874856 0.0080725709
-0.0050000004 -0.0069427174 -0.017784175
0.0050000004 -0.0074380897 0.012437671
0.0048638256 -0.019886881 0.012355631
0.0050000004 0.0054407092 0.0048340741
-0.0050000004 -0.00024694993 -0.022905489
0.0060000001 0.0085654324 0.0035252392
0.0050000004 -0.01939594 0.0081223389
0.0089023905 0.003880858 -0.010175231
-0.0050000004 -0.0092136255 0.012992593
0.013356949 -0.0048693279 -0.011397208
0.011480879 0.0037564829 -0.0032475216
0.01277534 -0.012166633 0.0025323031
-0.0050000004 -0.0096827289 0.00029874136
0.0043391106 -0.0017074931 -0.023275217
0.0050000004 -0.01445197 -0.011104056
0.014217425 0.0047024032 0.0076115667
0.013630553 0.0047691003 -0.0014401585
-0.0050000004 0.012526467 0.014722879
-0.0042488854 0.0049056192 0.00071677583
-0.0050000004 0.014091983 -0.010233634
0.010801483 -0.0042852396 0.011639149
0.0050000004 0.019226158 -0.00061942247
0.0083391853 0.0080373827 0.0062841098
0.0050424184 -0.0019100626 -0.01224856
0.0050000004 0.0085561182 0.0013113328
0.0091061844 0.00050000002 -0.005462226
0.012465889 0.0025647928 0.0042803809
0.014443062 -0.0071127866 0.010163248
0.0034053761 -0.022829797 -0.0050909389
-0.0050000004 0.0043364335 -0.0076975585
0.010609781 -0.0045957905 0.0074084201
0.013505454 0.0041849925 -0.011680681
0.0044083754 -0.0044716676 0.0021582274
-0.0022651339 -0.0064629996 0.021386046
-0.0050000004 0.013252476 0.007088183
-0.0050000004 -0.01390725 -0.013719876
-0.0022559434 -0.016082093 -0.015534562
0.0094862627 0.011102099 -0.0051334617
0.0060000001 0.0073785377 0.0014246884
0.0020769786 -0.018419713 0.011983238
0.013885369 0.00050000002 0.0082936957
0.015000001 -0.01096091 -0.0013983906
0.0068437615 -0.0042691152 -0.0025794741
0.0089693163 0.0069453577 0.0053414996
-0.0050000004 -0.013426419 0.00096668152
0.012355275 -0.0098590013 -0.0075093554
-0.0039488669 0.0030722162 0.0038910054
0.0050000004 0.0046011158 -0.019711291
0.0050000004 -0.019062618 0.0046065482
0.0090640625 0.011628811 -0.0043102256
0.011983246 0.00013318134 -0.010324238
0.0027682225 0.020523686 0.010802452
-0.0019536391 0.0034295709 0.021432212
-0.0050000004 0.0016034264 -0.011016093
0.0067455312 0.0088438308 -0.0077009997
-0.0050000004 -0.00089289754 -0.011743558
0.0018002318 -0.010349959 -0.018911848
-0.0039142044 0.016895486 -0.016254077
-0.0050000004 -0.011748282 0.0100905
0.0036243468 0.020992255 -0.010203342
0.0050000004 -0.021177422 0.0060346089
0.014005499 -0.0086589437 0.0089768255
0.0036310451 0.0076745553 -0.022039721
0.012207855 0.0005680733 0.0086797308
0.015000001 0.0061105941 0.0039229272
-0.0050000004 -0.013341597 0.006792672
-0.0050000004 0.014979436 0.017039813
-0.0050000004 -0.015990172 0.008253485
0.0050000004 0.0070495987 -0.012315014
0.0050000004 0.0060214093 -0.0078957761
0.0077529992 -0.0021107921 -0.012222135
-0.0023183632 0.022302566 -0.0016170058
0.0050000004 0.013069008 0.013144039
0.0040371828 -0.0014934714 -0.02330339
-0.0014497367 -0.012957246 -0.016573032
0.0050000004 -0.0035698593 0.016714176
0.0050000004 -0.001006889 -0.01521752
0.0050000004 -0.0065930923 0.018794153
-0.00044937161 0.017903429 0.010200064
0.0050000004 0.023110585 -0.00098101702
0.0050000004 -0.0066709751 -0.01088242
0.0085182441 0.00054442766 0.0088613359
0.0019718411 0.012285361 -0.017960312
0.0050000004 -0.017311528 0.0037617104
0.014226818 -0.010869558 -0.0061431574
-0.00022293505 0.020209569 0.0026598203
-0.00263182 -0.0099353222 -0.020629331
0.010007608 -0.0031707445 -0.0070647839
0.007346143 0.00050000002 -0.0083929393
0.0050000004 -0.0073237764 -0.018793115
-0.0050000004 0.011865068 0.016534185
-0.0050000004 -0.0049327621 0.0084934728
0.0017013376 -0.016662389 -0.013250505
0.010420956 -0.00050000002 -0.0062164273
0.0050000004 -0.019981621 -0.0026933886
-0.0027745212 0.013476831 -0.018783513
0.012751107 0.0056668362 -0.0063533876
-0.0050000004 0.0054054782 0.0062774471
0.0077101178 0.0045000003 -0.0097917886
0.0027859733 -0.022081936 0.0071201902
0.0032445595 -0.015991643 0.017096857
0.0029996405 0.022935934 0.0042847134
0.011466383 -0.0040551024 0.011734478
0.015000001 -0.0037972881 0.0068299011
0.012202433 0.0014891606 0.009361458
-0.0050000004 0.0058580069 0.016614417
-0.00016927725 0.014273154 0.014723157
0.0006798773 0.0039864504 0.020157348
2.3433269e-05 0.017936667 -0.0098240757
0.011969432 -0.012154349 0.0026256174
-0.0020834329 -0.016277112 -0.014793788
-0.0044584181 0.018479897 0.014189242
0.0050000004 0.018266896 -0.011857136
0.0050000004 0.0001587328 0.011653793
0.0117954 0.0034569595 -0.01050538
-0.0050000004 0.0072280117 -0.021777906
0.0086729946 0.0085000005 0.010130513
0.0050000004 0.0061398745 -0.019881539
-0.0050000004 0.0021455334 -0.012542611
-0.0050000004 -0.0094571197 -0.010827595
0.0088913264 0.0040786918 0.0096501382
0.0050000004 -0.014398543 0.0085998923
0.0020631005 -0.0041767703 -0.021523437
0.0018538507 -0.0019061039 0.021459935
0.00036367754 -0.010763569 -0.017481232
0.0012365005 0.0049950937 -0.020346815
-0.0050000004 -0.0050487993 0.017767813
-0.0050000004 0.015579359 0.014916755
0.009635915 0.00683387 -0.0056137932
0.014579514 0.011421915 -0.0046036667
0.0050000004 0.0053179045 0.013590286
0.015000001 0.0098605128 0.0035484014
0.0065563475 0.0067039374 0.008572001
0.0050000004 0.0054385797 0.0031027677
0.0075672842 -0.0010533276 -0.0048613143
0.0095004709 0.0066437181 0.0056580789
0.0050000004 0.019972226 0.012159284
0.0098017696 0.006323013 0.007671108
0.0027980283 -0.011565048 -0.020263206
0.0060000001 0.0049062008 0.0058458806
-0.0050000004 0.0049322899 -0.014884498
-0.0050000004 0.0032334195 0.0038879542
0.0028171518 -0.014131202 0.018373678
0.002057658 0.0049309083 -0.00052471698
-0.0050000004 -0.012186371 -0.0077585117
-0.0047526667 -0.021746514 -0.0083824126
0.0073111155 0.0045085554 0.0076309671
-0.0050000004 0.0090919081 -0.020285178
-0.0050000004 -0.0014637673 0.0088003064
0.0021603897 0.021778161 0.0035219307
-0.0050000004 0.014821114 -0.0078443391
0.0060000001 0.005392286 0.0059840917
-0.0050000004 -0.0018993029 -0.013751076
0.0019409412 -0.019694129 -0.0090928124
0.0063223965 0.0082035698 0.0090000005
0.0036292074 -0.018354451 0.014352726
-0.0050000004 0.016113114 -0.0039079208
-0.0014461312 0.0035940539 0.0034591947
0.011568464 0.0085000005 -0.010793664
0.0015274592 0.020592311 -0.005340266
0.015000001 0.006774331 -0.0079833772
0.0050000004 -0.01252877 0.0058985846
0.010627766 0.0043292553 -0.0025011012
0.0050000004 0.0072799395 0.0080073494
0.012931107 0.00050000002 -0.010309118
0.0050000004 0.016065564 -0.0063277804
0.00066027383 0.0066093584 -0.01945137
0.0021073036 -0.0044442718 0.0022243652
0.015000001 -0.0089682685 0.0050126598
-0.0017480083 0.0060669356 -0.020588895
0.00096434454 -0.0048701661 0.020117229
-0.0050000004 -0.018830312 -0.011827589
0.0049999999 -0.022293003 0.0064821523
0.0064572501 0.011393727 -0.0048777279
-0.0050000004 0.014856194 0.0032381355
0.0070476085 0.0064734505 -0.0086384844
0.0050000004 -0.0041255159 -0.013172528
-0.0050000004 -0.018604375 0.004299371
0.0050000004 0.010699081 -0.015365157
-0.0050000004 0.010372931 -0.0073283957
0.012191396 0.0036993572 0.0085546663
0.0086488156 0.0047344123 -0.0015239032
0.0093833478 -0.00050000002 -0.011715669
0.002673029 -0.021349154 0.0083824443
-0.0050000004 0.0083711781 0.016616201
-0.0050000004 0.0084527927 -0.00016666032
-0.0050000004 -0.0072909044 0.015626004
0.0050000004 0.000585792 -0.016282687
-0.0050000004 -0.011199139 -0.0076080416
0.0024424628 0.0098493239 0.020312982
0.0081180921 0.004989035 -8.327933e-05
-0.0050000004 0.0063037081 0.014457511
-0.0030661386 0.0033012407 -0.0037152616
0.0060000001 0.00073626387 -0.0087669538
0.0013320233 0.018308155 0.010465328
0.0050000004 0.0024233565 0.021146202
-0.0025590672 0.022364998 -0.0043096705
0.0046600979 0.0056637228 -0.022754392
0.015000001 -0.0041632126 0.0036859193
0.011359893 0.0054839156 -0.01238676
0.01152957 -0.010345261 0.00687561
0.0021027033 0.020563008 0.0077210814
0.0050000004 0.0012436922 0.0081547154
0.0028247992 -0.019576734 0.012584925
-0.0050000004 0.0041627875 0.017600384
-0.0050000004 -0.0095481416 0.0071437526
-0.00083808129 0.020060813 0.0050416971
0.0049720863 0.021465497 0.0090608466
0.0050000004 -0.0033207363 0.012326369
0.0050000004 0.016723843 -0.0010653781
0.0050000004 0.0020082986 0.0082881767
0.0044593913 0.013774553 -0.0187981
0.0026834987 0.022892714 0.0019382251
-0.0050000004 -0.010676888 -0.020165091
-0.0050000004 -0.0020106784 -0.013657467
0.0050000004 -0.015139529 -0.0048835953
0.012476468 0.0031386295 0.0091788564
-0.0050000004 0.01390734 0.010850622
-0.0050000004 0.018585453 -0.0089017954
-0.0050000004 0.020558739 0.0015916302
-0.0030676923 -0.0039508408 0.022979885
-0.0007345397 0.020208534 -0.0037090594
0.014401261 0.00050000002 -0.011954817
-0.0050000004 -0.0020315296 -0.015083659
-0.0050000004 0.016267575 -0.0008738566
-0.0050000004 0.0049234824 -0.0065663857
0.0023431261 -0.021146664 0.0073908935
0.013208596 0.0085000005 -0.0093139363
0.0060140886 -0.0044521345 -0.0022053842
0.0050000004 0.017519884 0.0071740919
0.0098894006 -0.0069544027 0.0075426307
-0.0050000004 0.017577618 0.0095621282
-0.0022851638 0.017171167 -0.014197653
0.0050000004 -0.0080189882 0.021288933
0.0050000004 0.01590029 0.0074605048
0.0050000004 -0.011583466 -0.014566123
0.011389967 0.0073457533 0.0051171668
0.0050000004 0.015000561 -0.0030772835
0.010849382 0.0033984787 0.003640645
-0.0050000004 -0.006155225 0.020199059
0.0050000004 0.0068573672 0.011137064
-0.0011937233 0.011031801 0.017730583
0.0050000004 0.011542113 -0.0024030285
-0.0050000004 0.013153314 0.0066568698
0.013053376 0.0073892968 -0.0066273767
-0.0050000004 -0.0058494485 -0.012695189
0.010159777 0.0083505902 -0.010535602
0.0050000004 -0.016674411 0.0012235489
0.0050000004 0.019037373 -0.010194929
0.015000001 -0.0096760504 -0.0014185973
0.0092921229 -0.0029914638 -0.007993577
0.00765154 0.012177589 0.0024490831
-0.0023854452 -0.018316831 0.012987475
0.003873758 -0.0094406232 -0.021308187
0.0050000004 0.01823396 -0.0076721348
0.0050000004 0.0017816256 0.017473476
0.0090000005 0.006619324 0.0085552083
0.0089007802 -0.0018084813 0.0090812743
0.0051417598 -0.012147322 0.0026789992
-0.0008474075 0.0204999 0.001725663
-0.0050000004 -0.0081692692 0.0084378459
0.0022272018 -0.022014577 0.0026052005
0.0060000001 0.010889343 -0.0019578803
-0.0050000004 0.0018600326 0.018727111
-0.0050000004 0.0051265899 -0.0026829566
0.00677606 -0.00050000002 -0.012214444
0.0048143743 0.022497123 0.0065702968
0.0050000004 -5.8067057e-05 -0.0063852468
-0.0050000004 -0.0076532834 -0.016123455
0.0050000004 0.0087274201 0.021282084
-0.002160409 -0.017128548 -0.013901315
-0.0034575602 -0.020682434 0.010951309
-0.004432993 -0.021349926 0.0093398541
0.013960614 0.0045000003 0.0097685
0.002417088 -0.019284744 0.011815335
-0.0038430693 -0.017601397 0.015334118
