# .PCD v0.7 - Point Cloud Data file format
VERSION 0.7
FIELDS x y z
SIZE 4 4 4
TYPE F F F
COUNT 1 1 1
WIDTH 1000
HEIGHT 1
VIEWPOINT 0 0 0 1 0 0 0
POINTS 1000
DATA ascii
0.011651993 0.00089052704 -0.0048827589
0.0060000001 0.0055313176 -0.0030958955
0.0050000004 -0.0079160007 0.011213343
0.0035399073 -0.0048112846 0.024366552
0.0050000004 -0.018803939 0.014999769
0.009040867 0.0035983864 0.0099484539
-0.0050000004 -0.013643847 0.012412371
0.0050000004 0.016135236 -0.0033968212
-0.0050000004 -0.012004475 0.0059730471
-0.0050000004 -0.0010111097 -0.0048776199
0.0024770736 0.017509498 0.016741129
0.0050000004 0.0076856334 -0.0052998597
-1.3706387e-05 0.019720353 0.0093974052
0.008304433 -0.0067777839 0.010420312
0.0050000004 -0.0059602889 -0.015180088
0.0050000004 -0.022085264 -0.010140163
-0.0050000004 0.0066252528 0.0017789355
-0.0050000004 0.0036336908 -0.018706128
0.014795337 0.011126149 0.0047585866
-0.0050000004 0.018962789 -0.0064071151
0.0050000004 0.01773647 -0.014194783
0.0095239896 0.0024344125 -0.0075620152
0.0050000004 -0.015363833 -0.01492492
-0.00070047361 -0.012328105 -0.01826801
0.0028096773 0.012224084 -0.021621546
0.010759087 -0.001958386 -0.012242198
-0.0037426045 -0.023684243 -0.0075903516
-0.0050000004 -0.0089797061 0.008533732
0.015000001 0.0011948274 0.008740643
0.012836701 0.0072019896 0.0057942793
0.010710867 0.0071534659 0.0055277697
0.0075993682 0.0045000003 -0.0067208237
0.0050000004 -0.0047821943 -0.012561244
0.0093899956 0.0041137496 0.01171019
0.0071335523 0.005156666 0.0080596888
0.014727411 0.011939314 -0.0025314903
0.0023442646 -0.023705315 0.0026962527
0.0050000004 0.002339924 0.021668402
-0.0050000004 -0.0060404437 -0.0058268211
-0.0012654749 0.0007611459 -0.0048997765
-0.0050000004 -0.0020088227 -0.020677093
0.014427292 -0.012101571 0.0030265343
-0.0023508752 -0.0085273292 -0.022300012
0.0050000004 -0.019495837 0.00058639818
-0.0022159687 -0.014447595 0.018704198
0.0066177314 -0.010426113 -0.006770262
-0.0050000008 -0.01211211 0.015886595
0.0074271099 0.0072749075 0.007350903
-0.0050000004 -0.009545777 -0.018089516
0.012697719 -0.011804203 -0.0038867737
-0.004827816 -0.021971211 -0.01172598
-0.0049999999 -0.017385546 0.008046763
-0.0050000004 0.0097723259 0.011013215
0.015000001 0.0064572548 0.0075738789
-0.0050000004 0.010104801 0.0034570983
-0.0050000004 0.0010676465 0.0059919264
0.012000002 0.0063817198 -0.0096646529
-0.0050000004 0.012111035 0.021572027
-0.0012602032 -0.017474076 0.013917243
0.0050000004 0.00028777984 -0.022808542
0.0050000004 -0.019939527 -0.0083122998
-0.0034225432 0.018356716 -0.01679277
0.0031610376 0.010120885 0.022636062
0.011174028 0.0083488058 -0.012308884
0.0098572429 -0.0022120066 -0.010448753
0.0097601609 -0.0063713514 -0.010422736
0.01017725 0.011421416 -0.004810927
0.0050587477 -0.00050000002 -0.012024667
0.0035098444 -0.015552468 -0.019308414
0.015000002 0.011504075 0.0029608505
0.0050391937 -0.0037846121 -0.0032108643
0.0050000004 0.020596879 0.0097990287
0.0050000004 -0.0093559157 0.022289632
-0.0026962887 -0.024221009 -0.0034104502
-0.001519507 0.016164022 0.016046893
0.002018438 0.00098288816 0.023366548
0.00095713796 0.022081815 -0.0013269299
0.00079957873 0.0042599081 -0.0025914728
-0.0017547421 0.011194817 -0.020087099
-0.003256432 -0.0047229561 0.0015515614
0.002200535 -0.0016619645 -0.0046772258
0.0050000004 0.0012097079 0.021759726
-0.0019655218 -0.023303382 0.00076651317
0.0026800353 -0.0033870607 -0.024195936
0.0050000004 -0.013369639 -0.0026972552
-0.0044068182 -0.024271773 -0.0055311592
0.013853764 -0.00050000002 -0.0072809793
-0.0019536123 -0.0083621182 -0.02163006
0.0016756412 0.0075668041 0.02148718
0.012756113 0.0047438489 -0.0015011211
-0.0050000004 -0.023282012 0.003402272
0.0015977079 -0.018290848 0.01340248
0.0093984082 -0.00098418794 0.012370455
-0.0050000004 -0.0064652795 0.023683276
0.015000001 0.0032409946 -0.0070392503
0.0017562333 0.010954573 -0.020189378
0.0075192233 -0.011869431 0.0037293041
0.0005203053 -0.0035373764 -0.021673748
0.010080586 0.005862955 0.010367106
-0.0050000004 0.001227152 0.016785672
0.0050000004 0.0051980405 0.00089913566
0.010372532 0.011776819 -0.0039529051
-0.0050000004 -0.0097717084 0.0021418391
-0.0021005331 0.023557534 0.00061230158
-0.0038599425 0.023043813 0.0091364896
-0.0027498389 -0.0072956383 -0.023551749
0.0041296608 -0.02340317 0.0082689328
0.010489611 -0.0059675076 -0.010942316
0.00095186237 0.020046799 0.0092604961
0.0050000004 -0.019540578 -0.0044978596
0.011781394 0.0045000003 0.0054514771
0.015000001 0.0036360025 0.0076816371
0.0050000004 0.0012184974 -0.020871278
0.0050000004 0.015664181 -0.0036051858
-0.0050000004 -0.0016584899 -0.0085173408
0.0050000004 0.0090290513 0.0021797982
0.00096669269 0.007923075 -0.020605044
0.0050000004 0.0087720612 0.015038209
-0.00060342456 0.021669071 0.0037418923
0.0036004898 -0.0049522067 -0.00036296406
0.0027586024 -0.0041667214 0.024229376
0.0050000004 0.0032721683 -0.020404844
0.010270605 -0.0065699136 -0.010579852
0.0050000004 -0.013167492 0.019999534
0.0050000004 -0.006907139 -0.023670923
0.0095579093 -0.0046162172 0.011502051
0.01329382 0.0054592611 -0.0061450633
6.7895057e-06 0.018015848 -0.012354041
-0.0050000004 -0.0043019988 0.022292493
-0.0050000004 0.0056404192 -0.017519102
0.0050000004 0.0020740924 0.011609385
-0.0050000004 -0.017614923 -0.0096054692
-0.0018664292 0.017422579 -0.015131862
0.0036161183 0.013233301 -0.021087933
0.0040846504 -0.013908637 0.020569742
0.0050000004 -0.019702936 -0.0038288261
-0.00074873521 0.021754555 -0.0033883459
-0.0026405235 0.013931569 0.020019088
0.0050000004 0.018031534 0.012732653
-0.0050000004 -0.0059512961 -0.020454856
0.0023384807 0.023985816 -0.00048967777
0.0050000004 0.008896431 -0.019629791
0.0050000004 -0.014093162 -0.0074433074
-0.0050000004 0.015050463 0.014821555
0.0023477455 -0.0049854117 -0.00011079165
0.0050000004 0.023467448 0.00093142298
-0.0050000004 -0.0243003 -0.0030001674
0.014776196 -0.011583041 -0.0037051016
0.0050000004 -0.0042291665 0.02241133
0.0050000004 0.0034359845 -0.0097381081
-0.0016437027 -0.0056653391 0.022165757
0.0050000004 0.0053601218 -0.012009555
0.0050000004 0.013504401 -0.0052551362
0.0073391241 0.0027654101 0.01213595
0.015000001 -0.0029722468 0.0073784916
-0.0050000004 0.022324825 0.0080234725
0.0011451894 -0.022120276 0.0022246582
0.0050000004 -0.003856594 -0.022233335
0.0060000001 0.0060979594 -0.00045760299
-0.0050000004 0.016372338 0.015248417
-0.0050000004 -0.0056603225 0.00054390909
0.0017075394 -0.0059474749 0.022192152
0.0050000004 0.003594989 0.017823059
0.006072646 0.0062573426 -0.0090000005
0.003018759 -0.014182989 -0.020359227
0.0050000004 0.0038486302 0.0045753065
-0.0050000004 -0.0089535294 0.010542756
0.010383093 -0.0013533356 -0.0048050638
0.0050000004 0.0010334826 -0.02348718
-0.0018941882 0.0056799818 0.022532957
0.0050000004 0.017826336 -0.0022183897
0.012552737 0.0045000003 0.006804788
0.010861948 0.005756069 0.010192234
-0.0026637921 -0.018096561 0.016502745
0.012145911 0.0041980743 0.010272217
-0.0045744134 -0.020086868 0.014537943
0.0060300161 -0.0011408376 0.012349831
0.0043364069 -0.023077797 0.0090544438
0.0060000001 0.0030126874 -0.01065312
-0.0036428014 -0.014535062 -0.020089079
0.0019590063 -0.018903762 0.013462653
-0.0050000004 -0.01373781 0.011162445
0.015000001 -0.005048099 -0.0096319066
-0.00016439526 0.012560387 0.017910289
-0.0011612279 0.018768713 0.012068897
0.0050000004 0.0037529515 -0.0079751192
-0.0050000004 -0.014349935 0.00072408677
0.0050000004 -0.0066868146 -0.022199504
0.013032716 -0.0030440178 0.0039126435
0.0020890024 0.016684696 -0.016712822
-0.0050000004 0.011447167 0.0094145928
0.0023420039 -0.019487953 0.013781685
-3.9004328e-05 -0.021821674 -0.0014339767
-0.0036005545 0.02274128 -0.0098668709
0.0094754407 0.0040095211 0.0072524101
0.0073118401 -0.0089721233 0.0086650755
-0.0050000004 -0.0049391463 0.0016867901
-0.0010436465 0.019527839 -0.010659841
-0.0050000004 -0.0084193209 -0.016157234
0.0063475836 -0.010516101 0.0066529559
0.014325037 -0.012353427 0.0011133983
0.0050000004 -0.004771899 -0.019916847
-0.0022367814 -0.023679761 0.0014763491
0.0050000004 -0.018706182 -0.011553042
-0.0050000004 -0.0048673097 0.021941399
-0.0050000004 -0.024479326 0.0023807194
-0.0019978371 -0.021513963 -0.0088408478
0.0027296755 -0.020494293 0.013563735
0.0053348853 -0.001906009 0.0045761392
0.0050000004 -0.012537636 -0.001776455
-0.0031448489 -0.022202902 0.01116663
0.0076353019 0.0045000003 0.0080877841
-0.0006780838 0.022099592 0.00062384526
0.0081361905 0.0085000005 -0.010080157
0.011445023 0.0049896329 -7.8738638e-05
0.0099409278 -0.0037425754 -0.010471178
0.0090000005 0.007447592 0.0087377988
0.0001522581 -0.021337761 -0.0053403159
-0.0050000004 -0.0092965048 -0.0016070319
-0.0050000004 0.002194047 0.011674595
-0.0050000004 -0.019755432 -0.014074753
-0.0050000004 0.02005735 0.0020991354
-0.004317252 0.0047323583 -0.0015288611
-0.0049999999 -0.0049803625 -0.023068577
0.0050000004 0.0019115243 -0.019786205
0.0050000004 0.0095212283 -0.020794095
0.0040771603 -0.0099583138 0.022703402
0.0047932579 0.0078120027 -0.023592431
0.0050000004 -0.021653138 -0.011589978
0.0023691817 0.012773919 0.02032005
0.015000001 -0.0010309037 0.0078360494
-0.0022120341 -0.020705841 -0.011753012
0.0084443605 -0.010076757 0.007225526
-0.0014782936 -0.0061509018 -0.021861905
0.010942398 -0.008940611 -0.0074975551
-0.0050000004 -0.0064100833 0.01199166
-0.0050000004 -0.0024071871 -0.022449333
-0.0050000004 -0.017446993 0.0096360287
0.013802106 0.012039595 0.0033185019
0.0080132214 0.00050000002 0.0095572341
0.0032179598 -0.0037263671 0.0032867682
-0.00016368921 0.021970324 -0.00055860291
-0.00076305319 0.006855899 0.020988533
0.0050000004 0.022864446 -0.0048613022
-0.0037096289 0.0011385488 0.0048500826
0.0050000004 -0.013621053 -0.0013046109
0.0050000004 -0.0035470123 -0.022164306
0.0025009422 -0.021519197 -0.011085803
0.015000001 -0.0055468054 -0.0031099841
0.0082992334 -0.012290478 0.0015915666
-0.0050000004 0.017998291 0.012462894
0.011234736 -0.004546389 0.0019778332
0.0026958906 0.0013895239 0.0047900747
0.0050000004 0.016276507 -0.01306228
0.0091169374 0.011801772 0.0038926445
0.015000001 0.0070889387 -0.0063065952
0.0050000004 -0.015469954 0.0095695844
-0.0050000004 0.017497955 0.015020796
0.0050000004 0.0074256738 -0.016442249
-0.0036682361 0.020394046 0.014137612
-0.0050000004 -0.0053384188 -0.008185368
-0.0050000004 0.016173394 0.0093318773
0.015 -0.0089013716 -0.0040928456
0.013555091 0.0053039398 0.0073079229
0.0031610525 0.024835056 -0.0012528149
-0.0050000004 0.019424977 -0.0094172033
0.0082701975 -0.00050000002 -0.010025332
0.0094167609 -0.00051029021 0.0073651988
0.0050000004 0.010111538 0.000521863
-0.0050000004 0.00474056 -0.0051523326
-0.0050000004 -0.0066612964 -0.012885081
-0.0050000004 -0.0050352458 -0.0050216573
0.0050000004 -0.014466933 0.016507169
0.0014002455 0.0068942332 -0.021470258
0.0083755199 -0.0046495195 0.0017288534
0.0050000004 -0.016413281 0.0036233207
-0.0050000004 -0.021804327 -0.0023326424
-0.0050000004 -0.0046577305 0.015501522
0.0050000004 0.0042128726 0.0033566565
-0.0050000004 -0.020873446 -0.010158123
0.0050000004 -0.0021157579 -0.018794568
-0.0050000004 -0.011047961 0.0029916726
-0.0050000004 0.022134883 -0.0062778294
-0.0043624062 0.0044750283 -0.0021501132
0.009889557 -0.002445736 0.0075425887
0.01051223 0.0062124864 -0.0050016101
0.0010948757 0.0019924711 0.0045403256
-0.0050000004 -0.00032550463 -0.012499273
0.0027089575 -0.004411587 -0.0023032732
0.0050000004 -0.0076267626 -0.011025266
0.01243447 0.00050000002 0.011543728
0.0050000008 -0.017365763 -0.0044102506
0.0060000001 0.002216819 0.0074869054
0.012948711 0.0045000003 0.0096067311
0.015000001 -0.0074629453 -0.0058246781
0.00082394603 -0.0048995093 -0.00076317752
0.0018819635 -0.015575458 -0.01711582
0.0075434381 -0.0048027937 0.0013588152
-0.0050000004 0.0020719913 0.0070462292
0.0063582775 -0.011361014 -0.0049567064
0.0050000004 0.0057462258 0.017151628
-0.0050000004 -0.0041746106 -0.02013074
-0.0050000004 0.0032373087 0.0209009
0.0087201884 -0.00084466545 0.0098848045
0.014619356 -0.00050000002 0.0055822534
0.0050000004 0.0079838792 -0.010662081
0.0088006901 0.011836356 -0.0038091703
0.0030718227 -0.02429346 -0.005366439
0.0066024489 -0.0059497589 0.010949668
-0.00019713159 -0.021958334 0.00071780954
0.0050000004 0.010829563 -0.020737015
-0.0050000004 -0.0099491104 -0.0096259844
0.0041872524 0.01362311 -0.020788826
-0.0050000004 -0.0028785747 -0.013173676
-0.0025864898 -0.021954279 0.010419276
0.0090161599 -0.0056940289 -0.0084881792
0.0050000004 0.0030947265 -0.021981645
-0.0050000004 0.006774995 -0.0020157844
0.0094057964 0.0048600179 -0.0010630932
0.0037864295 0.0049217474 -0.00059429015
0.0050000004 0.016493488 0.01008061
-0.0050000004 -0.018211246 -0.0010713147
0.0036830795 0.024626244 0.0028388158
-0.0050000004 -0.017160241 0.0018626433
-0.0050000004 0.021777749 -0.0046829307
0.0060000001 0.00094033749 -0.006327223
-0.0050000004 -0.011224801 -0.021767335
0.0054429765 -0.0052367211 0.011245024
-0.0050000004 -0.001934961 0.0046212082
-0.0001170207 -0.012462212 -0.017969748
0.010661772 0.0079338867 0.0050212978
-0.0049999999 0.0036371027 0.0053915377
0.0063815932 -0.0022617355 -0.0044287927
0.0012370577 0.0071307593 0.021197183
0.015000001 -0.0067995642 0.0033098471
-0.0050000004 0.022853529 -0.00087953574
0.001244224 -0.0049187806 -0.021864604
-0.0040107272 -0.020440428 -0.014077165
-0.0021327788 0.018952724 0.01388903
-0.0050000004 0.011001276 0.0077313427
0.0060569555 0.012294617 -0.001560117
0.0050000004 0.0099409316 -0.0095763747
-0.0042400467 0.0028819072 -0.0040370403
0.010429306 -0.0043155141 0.007397946
-0.0018804641 0.001980602 -0.022996217
0.01392013 0.0079442421 -0.0083935056
-0.0050000004 -0.010808253 0.017842893
0.0050000004 -0.00017967829 -0.016538251
0.0051530679 -0.00050000002 -0.012222117
-0.0050000004 0.0055438769 -0.02411809
0.010446611 0.0051077511 0.0050070295
-0.0042932099 0.003696467 -0.024513328
0.01483915 -0.00050000002 0.0065881638
-0.001546219 0.0046495371 -0.0017288103
-0.0030683777 -0.022862082 0.0095752273
-0.0050000004 0.0010512173 0.01899237
-0.0050000004 0.0065844762 -0.00076755258
0.0050000004 0.0041369009 -0.012253596
0.0087691499 0.0043726261 0.0088544767
0.01323491 0.011723544 -0.0040814793
0.01309841 0.0085000005 0.0096715055
0.010110695 0.0045000003 -0.0056204791
-0.0050000004 -0.0059759901 -0.0063868347
0.0050000004 0.013197633 0.0149842
0.008875669 -0.00070722855 -0.012406918
0.0050000004 0.0080172885 -0.011846964
0.011425893 0.0040846504 0.0071774968
-0.00099963369 0.010636835 -0.01949043
0.0050000004 -0.017828722 -0.013153733
0.0050000004 0.013043663 0.0062413234
-0.0050000004 -0.0073494464 0.0017652279
-0.0050000004 0.018697921 -0.012236136
-0.0049999999 0.020989684 -0.011897807
-0.0042471155 -0.023186548 -0.0087918993
0.0085086189 -0.0013751774 -0.004796017
-0.0024318984 0.0058646416 0.02343997
0.0050000004 0.023308884 -0.003898761
0.0084817726 0.0045000003 -0.0079388851
0.014493687 0.0069150319 -0.0089520486
0.010859381 0.0084349327 0.005735829
0.0050000004 0.014827054 0.0057277088
-0.0037196062 -0.02480153 -0.0015074658
-0.0041874042 0.016078502 0.018904783
-0.002786099 -0.0056024478 -0.024087969
0.0026938287 -0.024296723 0.0028030018
0.0071277088 0.0074169151 0.0068803541
0.0080260951 -0.0046305973 -0.011496094
-0.0050000004 -0.0090617202 -0.0047331974
0.0014544931 -0.0046165045 -0.0018085586
-0.0050000004 0.016874023 0.0039216713
-0.0050000004 -0.00379002 0.021319544
-0.0050000004 -0.021194816 -0.009625826
0.008023791 -0.00050000002 -0.010940444
0.0050000004 0.016348237 9.9649435e-05
0.0093863234 0.0065059159 0.0051687653
-0.00089945941 0.00018127427 -0.0049761306
-0.0050000004 0.004431033 -0.010147532
0.0095112724 0.012414846 -0.00064684096
-0.0050000004 -0.00293443 0.017904304
0.0023672692 0.019589521 -0.013720595
0.014848654 0.011384551 -0.0039965599
0.0033289734 -0.020867206 -0.013520965
0.0060000001 0.0059283758 -0.0066695749
0.0050000004 -0.00096600514 0.014899001
0.008733307 0.0032564907 -0.0037496006
-0.0050000004 -0.0057915621 -0.016954182
-0.0045598708 -0.016828794 0.018329076
-0.0049182265 0.015550906 0.01930961
0.0081222309 -0.00050000002 0.0051904656
0.0050000004 0.018580617 0.010603965
0.015000001 0.0041223112 0.0054980032
0.010740348 -0.0029703486 0.010556592
0.005360669 -0.0019654233 0.012241271
0.0050000004 0.0094975606 -0.0034998795
-0.0050000004 0.0159437 0.015053311
0.0040275012 -0.024413971 0.0044511147
0.011071705 -0.0028527339 0.010909492
0.0066748336 -0.0076029566 -0.0097871181
-0.0050000004 -0.011079956 -0.0080626812
0.01365912 0.0045000003 -0.0086164763
0.010833186 0.0070586451 -0.0050438656
0.0050000004 0.00022147014 -0.012764348
0.0019147816 -0.004544822 0.022718078
-0.0050000004 -0.024131002 -0.0063671335
0.0050000004 0.0053808033 0.023341214
-0.0050000004 0.013511187 0.0027160952
0.015000001 -0.0079765553 -0.0049094302
-0.0021029608 0.0085576465 -0.021826668
-0.0050000004 0.0058031534 0.0020608723
0.013605348 0.0069586937 -0.0065324991
0.0050000004 0.017385669 -0.0018431998
-0.0049999999 -0.0048730937 -0.023291608
-0.0050000004 0.0040297462 -0.018667357
0.0092471391 -0.00052741746 -0.010538028
-0.0050000004 -0.013788384 -0.014181919
0.0050000004 -0.010956278 -0.014349931
0.0061787008 0.0046093245 0.0018258916
-0.0050000004 -0.010678064 0.01653471
0.012267595 -0.0091007352 -0.0084974635
0.0050000004 0.0010860189 -0.015967205
0.0050000004 -0.015970247 -0.017891875
-0.0049684024 0.018473145 0.016641034
0.0014930286 -0.0077761007 0.021204529
0.0050000004 -0.013062106 0.0068210079
-0.0050000004 -0.0013251477 -0.014483076
0.0082241325 0.0045000003 0.0073057758
0.0050000004 -0.022281406 0.0072423923
0.0050000004 0.00099460839 -0.020080766
0.014306182 -0.00050000002 -0.0091287773
0.0018994231 -0.0054904665 0.022566978
0.015000001 -0.0055332542 -0.0054789991
-0.0050000004 0.013259038 -0.01416637
0.0077600684 0.0045000003 -0.0078946445
-0.0050000004 0.013556558 -0.003927419
0.0050000004 -0.01981199 -0.011398999
0.0050000004 0.016818702 0.011416491
0.014158445 -0.012094119 -0.003083138
-0.00030165268 0.0035909289 0.021608086
-0.0050000004 0.0041059088 -0.017676819
0.0019541355 0.017150544 -0.015733797
-0.0012212901 0.0017418006 0.0046441569
-0.0014851826 0.0069264462 0.021548063
0.00036092487 -0.011089568 0.019104717
0.009023929 -0.0024526007 -0.009540814
-0.0050000004 0.015876433 -0.015448553
-0.0011723324 -0.0058527812 0.021657092
0.013147344 -0.0035664698 0.01193688
-0.0044789957 0.0027571905 0.024636991
-0.0050000004 0.015802149 -0.0065027261
0.0082771061 0.0044509629 0.0090369619
0.015000001 -0.0069136089 0.0050937734
0.015000001 -0.002860094 -0.011373942
0.0025590954 0.0023270622 -0.024126021
-0.00011745406 0.0030357495 -0.0039189882
-0.0050000004 0.0029727928 -0.016508497
-0.0030396308 0.024302492 -0.005297848
0.0038922285 0.018484106 0.016626747
0.002403989 0.0039484673 0.023643896
0.011731043 -0.0024525619 -0.007445226
-0.0012020232 0.0011893514 0.0048433924
0.011981822 -0.0074720783 0.0095193582
0.0044804867 0.014271915 -0.020290993
0.0016889271 0.011460437 0.01988866
-0.0050000004 0.016584566 -0.0064111571
0.012091645 0.0013922948 -0.0078169992
0.0050327824 -0.0019341841 -0.012245385
0.0042274981 0.0016460392 0.0046838224
-0.0050000004 -0.020795135 -0.0081634037
-0.0050000004 0.012082433 0.015223064
0.0050000004 0.0016348079 -0.013333773
0.0034946601 -0.023130441 0.0089273509
-0.0050000004 -0.0043824296 0.0049820305
0.0090750353 -0.010859347 0.0061678081
0.015000001 0.0069413949 0.0010496778
-0.0050000004 -0.014706456 -0.019938711
0.010684262 -0.00088929443 -0.010571621
0.0050000004 0.020158103 0.00846323
0.0050000004 -0.014844581 0.016349711
0.00051315757 -0.022037152 -0.00076239184
-0.0050000004 -0.0023744965 -0.023643306
0.010154887 -0.0036449698 -0.011904364
-0.0050000004 -0.0051656547 0.0076691415
0.0050000004 0.0094660334 0.016495351
0.0050000004 0.0052365591 0.0072834035
0.01144663 -0.0081812516 0.0077323308
0.012073417 -0.0034494945 0.0088224383
0.0060881847 -0.00050000002 0.011945004
0.0050000004 0.012039781 -0.01603448
0.015000001 0.0045087719 0.0034563558
0.0050000004 -0.01542519 -0.01448775
0.001500445 0.020113749 0.010428723
0.011353955 0.0045000003 -0.011572825
0.0050000004 0.01778912 -0.015499424
0.015000001 0.0062157894 -0.0069967397
0.0071665482 -0.0061269626 0.010876265
-0.0050000004 0.0090325903 -0.019589912
0.0050000004 -0.01643531 -0.011345896
0.0050000004 0.0067497138 0.0073837731
0.010651405 0.0047534937 0.005019933
0.0050000004 0.015965635 -0.014663628
0.0062237228 -0.012406563 0.00070976274
-0.0050000004 0.019097149 -0.009868023
0.0050000004 0.018821709 0.013760167
-0.0050000004 -0.012273818 0.013116189
-0.0014709936 -0.018197892 -0.013317239
0.015000001 0.008028999 -0.0081480583
0.0041616089 0.0045928732 -0.0018656098
0.011175148 -0.011036726 0.0057395874
-0.0050000004 0.0064324504 0.018896088
-0.0050000004 0.014991081 0.0045052967
0.0051111015 -0.011038003 -0.0057365047
0.0078169294 0.0036138808 0.0034333565
0.0063123135 -0.00050000002 -0.0079659168
0.0012491272 0.0059416955 0.021702664
0.0043614283 -0.016710401 0.018419921
0.0049207094 -0.011371251 -0.022118146
-0.0024504412 -0.024076646 0.0012726715
-0.0050000004 0.004062505 0.022965498
-0.00039437902 -0.0082952594 -0.020286316
0.012454862 0.0079359375 0.0055172034
-0.0050000004 -0.00028566035 0.023807583
-0.0050000004 -0.012756451 0.013112094
-0.0024894134 -0.017967142 -0.016179506
0.0098821465 0.0054015117 -0.0088578397
0.0090322839 0.0027476922 0.0076555288
0.0050000004 -0.0081947437 0.013812279
-0.0050000004 -0.011021165 -0.01358764
0.0068387138 0.0061965664 -0.0074760402
-0.0012492989 -0.011406854 -0.019386757
0.0019231717 0.023254963 0.00057712593
0.00098304031 -0.012102181 0.018536
0.015000001 -0.00093982334 0.0087946774
0.013314418 0.0045000003 -0.0083306879
0.0050000004 0.0069995071 -0.0085269287
-0.0050000004 -0.013092308 0.0014286059
-0.0050000004 -0.0017456604 -0.018046696
0.0070675416 0.0081100063 -0.0094925351
0.0050000004 0.015615786 -0.0048559178
-0.002782214 -0.017071931 -0.017916141
0.0050000004 -0.0035255551 0.017540811
0.0050000004 0.017888663 -0.016578546
-0.0050000004 -0.013680588 0.0071381209
0.010668291 0.00089919061 -0.0070221419
0.0018917311 0.015827373 -0.016943669
-0.0050000004 -0.0051361816 -0.010582115
-0.0044694217 0.021644741 0.012507638
0.0050000004 -0.021673208 -0.011213703
0.0050000004 0.015170312 -0.0029012037
0.0042193751 0.0024409979 -0.0043545398
-0.0040026926 0.010642656 0.022419941
0.0017614394 0.0044124755 -0.0023011293
0.0019841427 0.0097077899 -0.02112942
-0.003379724 -0.023582602 0.0078357337
0.004604578 -0.024154147 0.0064245737
-0.0047475197 0.0045119603 -0.0020609503
-0.0050000004 0.0040624002 -0.0077025304
0.008709006 0.00050000002 -0.010094795
0.0066607795 0.0049163601 0.00063520495
-0.0049999999 0.001157566 -0.0082639223
-0.0050000004 -0.021147849 -0.0001909342
0.0021939841 0.021052344 -0.010835488
0.015000001 -0.0097478125 0.0030530479
-0.0033410112 -0.0054760724 0.024279026
0.014528783 0.00050000002 -0.012222377
0.012854125 0.012453665 0.00035197238
0.0060000001 0.0086933943 -0.0079192268
0.0077315182 -0.00050000002 -0.0054083942
-0.0033443959 -0.021619989 -0.012539899
0.0060000001 0.0040352787 -0.0094682975
0.012065505 0.00050000002 -0.010359728
-0.0050000004 -0.02042201 0.0025916335
0.014820164 0.00050000002 -0.011857093
-0.0050000004 -0.0080124773 -0.0020696677
-0.0050000004 -0.022567486 -0.0061050542
-0.0050000004 0.0092806788 0.010863549
-0.0050000004 -0.010590672 -0.013520752
0.0087971203 0.0045000003 0.01150522
0.0090821469 -0.0045629083 -0.0019379508
-0.0044722725 -0.024539225 -0.0034997889
0.0050000004 0.0042033284 0.022325797
-0.0050000004 0.0034793273 0.020264665
0.0080148028 -0.0056958804 0.01105483
0.00053485919 0.020208167 -0.0085814893
0.011685425 0.0028490727 -0.0040622358
0.001220491 -0.0045478446 0.0019743186
-0.0050000004 -0.018458638 -0.014358861
0.0026828337 0.0016647306 0.024427544
0.0047632298 -0.0028106624 -0.024629952
9.6725227e-05 0.017313154 -0.013309021
0.012710753 0.0036748592 0.011891985
-0.0050000004 0.002847119 0.023986882
0.0079093538 -0.0062090419 0.010842266
0.0050000004 -0.023533791 -0.0046455539
-0.0038834112 0.024698846 0.0022873974
-0.0050000004 0.021124739 0.0094611431
0.011240363 0.0013912533 -0.012316864
0.0090001225 -0.00062664831 -0.010059191
-0.0034237097 0.014469026 0.02013975
0.0058291401 -0.0015133633 0.012300787
0.0050000004 -0.011477049 0.013628308
-0.0050000004 0.017798979 0.012293333
0.012825985 0.0075387978 0.0064108404
-0.0050000004 0.023514595 0.0048000966
0.0050000004 -0.0083532603 0.012635811
-0.0050000004 0.0079565542 0.02101689
0.0050000004 0.012200912 0.0060330196
-0.0050000004 -0.020419795 -0.00085375982
-0.0043585557 0.013408724 0.020953329
-0.0050000004 -1.018193e-05 -0.011490701
-0.0018650173 0.019251609 0.012744194
-0.0050000004 0.013051042 0.0085371891
0.010553348 0.011912237 0.0036259627
0.015000001 0.011121661 0.0034463508
0.0050000004 0.00039796586 0.018785685
0.0050000004 0.020069826 -0.0084542623
-0.0050000004 -0.0085651139 -0.022367945
0.0050000004 0.017172469 0.0087668002
-0.0050000004 0.020663271 0.012136558
-0.0050000004 -0.010011284 -0.0080963448
-0.0050000004 -0.012243611 0.014290923
0.013422385 0.0053134561 0.0062940745
0.0033428303 -0.010643784 0.022419469
0.0076056211 0.0069017117 0.0070718117
0.0050000004 -0.0055761705 -0.017976252
0.0050000004 -0.00049722736 -0.02366657
0.010119771 0.0085000005 -0.0068172659
0.012354781 0.00079063274 0.009703801
-0.0050000004 0.0084740436 0.012112517
0.01331451 0.01240947 -0.00068768108
-0.0050000004 -0.013097174 -0.002336699
-0.0050000004 0.0019611202 0.012132386
-0.0050000004 0.0099712797 -0.0007890921
0.0014085346 -0.017138921 -0.014595654
-0.0050000004 0.01741964 -0.0098032346
0.0010022827 0.022211822 0.00044405376
-0.0050000004 -0.023528965 0.007690704
-0.0050000004 -0.0086237844 0.020881331
0.0089058317 -0.0083457418 -0.0091001261
0.0050000004 -0.0058821393 -0.021116577
0.0050000004 0.021664206 -0.00074897369
0.0068327282 -0.010219502 -0.0070395158
0.0092323935 0.0085000005 -0.010863351
0.0060000001 0.0089458525 0.002769507
-0.0050000004 -0.0009424375 -0.0056875814
-0.0050000004 -0.0086429454 0.00039531375
0.0050000004 0.016958345 0.0083605787
0.0018138962 0.02044753 0.010590082
-0.0050000004 -0.008562671 0.0067720925
0.0050000004 0.0016291944 0.0086283861
-0.0050000004 0.011295566 0.011289971
0.0017994184 -0.015799712 0.016765082
0.0090670623 -0.0070152096 0.0082982313
0.0050000004 0.018665675 0.0048817531
0.012974506 0.012115925 0.0029175016
-0.0050000004 -0.017995009 -0.0019382618
0.0050000004 -0.021591464 0.0047551109
-0.0038165045 -0.0049901749 0.024342999
0.0099262474 -0.0043896809 -0.0023561588
-0.0025550018 -0.012181276 -0.021165913
-0.0006318363 -0.015622046 0.015717462
0.0019105686 0.0036571594 -0.003376957
-0.00098025682 0.0032358293 0.0037654554
0.015000001 0.005118927 0.0032230755
-0.0050000004 0.018506981 0.011097915
-0.0050000004 -0.01476209 0.015185032
-0.00033058229 -0.014484431 -0.016489498
0.015000001 -0.0064647561 -0.0011349914
0.0030191485 0.015329785 -0.01947928
-0.0019578764 -0.016570304 0.016500548
0.0049537336 -0.0032723057 0.003737465
-0.0028822888 -0.021838466 0.012026212
0.0015288553 0.0019140621 -0.022544794
0.0083263079 0.0066222399 -0.01170601
-0.0050000004 -0.019446656 0.005385011
0.014248757 0.00050000002 0.007639295
-0.0005915431 -0.014210425 0.016787181
0.0050000004 -0.0059878868 0.018636484
-0.0013102302 -0.018032527 -0.013270931
0.0077335439 -0.0087332176 0.0089198202
0.01396466 0.006283002 -0.0087316483
0.0050000004 0.0063343407 -0.010907926
0.0050000004 -0.012249542 -0.0048737009
0.011767823 0.0016291254 0.0078022438
-0.0050000004 0.0018189481 0.017003397
-0.0050000004 -0.018685523 0.0096978117
0.0060000001 0.0075558857 -0.0051775677
-0.0025037837 -0.012383064 0.020911302
-0.0050000004 0.017035935 0.0058696372
0.0096139545 -0.0066819228 0.010493882
0.0048240521 0.023696287 0.0075612753
0.014475186 -0.00050000002 0.012121741
-0.0050000004 0.0082755135 0.0041603586
0.014213984 0.012342108 -0.0011993671
-0.0050000004 0.013671167 0.0067083351
0.002038958 0.00095972209 0.023405137
-0.0025696056 -0.0012559165 0.024285251
0.012247727 -0.012215474 -0.0021613126
0.0060000001 0.0072657932 -0.0057367315
-0.0050000004 -0.0055031404 0.0060444823
-0.001390729 0.0044992594 0.0020916145
0.0050000004 0.0098759457 -0.015814023
-0.0050000004 0.0037279401 0.015968829
0.0024546275 -0.024087938 -0.0012420518
0.0010476123 -0.013087131 0.017845394
-0.0050000004 -0.0079913819 0.016943906
0.0050000004 0.0061544906 -0.0038788153
0.0047370419 -0.012138253 0.021800444
0.0050000004 0.007056185 -0.0089289499
-0.0050000004 -0.00025468224 -0.024365388
0.0095038656 -0.0071512363 0.0077818348
0.0050000004 -0.0057311747 0.022287663
0.008023913 0.0065693129 -0.011473354
-0.0050000004 -0.013569756 -0.0058524981
0.015000001 -0.0018976034 -0.0077712294
0.0065982165 0.0073288251 -0.0082539227
0.0058186343 -0.00050000002 -0.010543759
-0.0050000004 -0.015159776 -0.014345936
-0.0025626344 -0.015175843 -0.018895749
0.0050000004 -0.011008952 0.013997857
0.011888434 0.008528132 0.0052825762
0.009622233 0.010473207 -0.0051155607
-0.0050000004 0.013326035 0.015662622
-0.0023716651 0.020579511 -0.012442786
-0.0050000004 0.014991491 -0.010886823
0.014825854 -0.002091316 0.011898823
-0.0050000004 -0.0024805658 0.022138642
0.0085385935 -0.0049144682 0.0087066656
0.015000001 -0.0019068412 0.0046060481
0.0050000004 0.012155108 0.002893076
0.015000001 0.0099515421 8.4058527e-05
0.0084481649 0.0063478155 0.0055756774
0.011719115 -0.0038560366 -0.0080048144
0.001552444 -0.020137491 0.010506116
-0.0050000004 0.0014982353 -0.019485636
0.0098383529 -0.00050000002 0.012035271
0.012555025 0.00050000002 -0.0050389045
0.0055916249 -0.0032420217 0.0037607038
0.0023537662 0.0055388939 0.023347527
-0.0050000004 0.014098391 0.0075406288
-0.0050000004 -0.015427995 0.0037329914
0.0040732403 -0.0046347915 -0.0017644102
0.011855631 0.0045000003 -0.0077522467
0.0090422081 -0.0057195993 0.0083909752
-0.0025419218 -0.011136151 0.021574507
0.011593968 0.0013656211 0.012320239
2.1353961e-05 -0.00061381253 -0.0049191769
0.0039107758 -0.02493462 -0.00049660768
0.0072255619 0.011612883 0.0043486501
-0.0050000004 -0.014283438 0.0010283585
0.015000001 -0.0095918914 -0.0040492332
-0.0024915603 0.023957627 0.0027177078
0.0050000004 -0.024792552 0.00070537615
0.0050000004 -0.0022513254 0.013199346
0.0063418867 0.0031701096 -0.0038158861
0.013297546 0.0058064242 -0.011054394
0.0010751804 0.021704109 -0.0048539182
-0.0015916404 0.014227267 0.017650394
-0.0050000004 0.0054949769 0.0046037855
0.0087662917 0.0011931511 -0.0091238003
-0.0050000004 -0.00314182 -0.011637439
0.0027164468 -0.021179412 -0.012633535
-0.0022934969 0.00048249564 -0.023908844
-0.0050000004 -0.013805367 0.011722283
0.0024502126 0.010017497 -0.021867413
0.0050000004 -0.01514129 -0.0071873814
0.011341716 -0.0027317533 -0.0076274159
0.0050000004 -0.0041107698 -0.019560479
0.014188632 0.0045000003 0.0076710423
0.0060000001 0.0023274387 0.007675956
-0.0050000004 -0.017490767 0.0062592877
-0.0050000004 0.015935598 0.018127477
-0.0050000004 -0.018735001 0.0050930851
0.0050000004 0.0074996343 -0.013101038
0.0050000004 0.010364559 -0.008143235
0.015000001 -0.0014246904 0.0067390264
-0.001371701 0.018634755 -0.012586243
0.0050000004 0.018418325 -0.013721717
-0.0026032659 -0.015783187 -0.018517675
0.0019108959 -0.021629224 -0.0081724599
0.0050000004 0.0020083652 0.021849517
0.0050000004 -0.02072617 -0.0072273575
0.0050000004 0.0054398417 -0.0013718308
-0.0038834929 0.024981022 -0.0001441576
-0.0050000004 -0.0015511761 0.014690001
0.0050000004 -0.01780629 -0.010877511
0.0090006357 0.00054442766 0.010303237
0.00020762194 0.0016022809 -0.021844694
0.0050000004 -0.0034506777 0.019744681
0.015000001 -0.0083972216 -0.0080648772
-0.0027706493 0.0045790472 -0.0018989886
0.0089998525 -0.0027286585 -0.004154637
0.010525208 -0.0031707445 -0.0070033167
0.015000001 0.0018055878 0.010614087
0.0050000004 -0.018608047 0.015648857
-0.0050000004 0.012622414 0.017589526
-0.0050000004 -0.00036557016 0.0059899846
0.0022327295 -0.023456126 -0.003121783
0.0069067893 -0.0057115788 -0.011048327
0.0050000004 0.0051201805 -0.011389667
-0.0038842715 0.00062916928 -0.024917165
0.013522537 0.0069885934 -0.0072388393
-0.0050000004 0.008433789 0.020965192
0.0091327969 0.001981237 -0.0079317512
-0.0018329272 -0.015476624 0.017085522
0.0032445595 -0.0056391102 0.024257561
0.00094660209 0.019810865 -0.0098264385
0.0054500047 -0.012384173 0.00087984238
-0.0024771972 -0.0092779147 -0.022223905
0.008719719 0.0045000003 0.010180147
-0.0050000004 0.011067302 0.020773418
0.0028184436 0.02417391 0.005375192
0.0025171544 0.020154808 0.013406679
-0.004765667 0.0034456383 -0.0036044565
0.005709955 -0.00050000002 -0.0099777272
0.0010852619 -0.0047637578 -0.0014530569
0.00025628539 0.021885114 0.0013944276
0.0050000004 0.022753963 -0.007873131
0.0050000004 0.0064828377 0.018594891
0.012939099 0.005354756 -0.011502372
-0.0050000004 0.0076894341 -0.023167904
0.0077052177 0.00050000002 0.0091274688
0.0050000004 0.0069029168 0.023528365
-0.0050000004 0.0056219869 0.0068227076
-0.0050000004 -0.011451841 -0.0036991492
0.010452298 0.0027904222 0.0072562778
0.0050000004 -0.015044696 0.0078203473
0.0025558001 -0.01500822 -0.019009575
0.00089456077 0.008155195 0.02048816
0.0024668619 -0.023197234 -0.0068817162
0.0050000004 0.0005130535 -0.016470501
-0.0050000004 0.0010903375 0.020157779
-0.0050000004 0.016573817 0.015868917
0.011477733 -0.0019155489 -0.0072586779
0.011979779 0.0086298762 -0.005320413
0.0050000004 0.0097963456 -0.0031789734
0.015000001 0.0040098345 0.005206408
0.013726185 0.0074184951 0.0066899462
0.0050000004 0.0072801909 -0.010725502
-0.0036721409 -0.014069888 -0.020446012
0.0087457383 0.00027122785 0.0080535095
-0.0050000004 -0.0049787941 0.0037015681
0.0085663497 -0.0035057671 0.0095042922
0.00092312135 -0.015636271 -0.015804103
0.011349485 -0.0033022517 0.010364817
-0.0050000004 0.003805706 -0.018214567
-0.0050000004 -0.0065049473 0.009118665
-0.0022476313 -0.0058248783 0.023126051
0.0024186056 0.015702702 -0.018179744
-0.0050000004 -0.014523553 0.016927985
0.0031341335 -0.024493832 0.0038445208
0.0074680699 0.0061333394 0.010747995
-0.0050000004 0.0096722767 -0.021579916
-0.0050000004 0.0029267306 0.0089359842
0.0012715431 0.020025868 -0.010047907
-0.0050000004 0.015767168 -0.0083450284
0.011420184 -0.0031960669 0.010294117
-0.0050000004 -0.0027516035 -0.020235641
-0.0013827635 -0.0049087801 -0.00069276843
0.014095185 0.010513493 0.006656352
0.00035131886 -0.0082095889 0.020309424
-0.0050000004 0.017141646 -0.0041573625
-0.0023913458 0.023863332 -0.0021155467
0.012388313 -0.0030947896 0.0083771618
-0.0044093062 0.021523941 -0.012665072
0.0060000001 0.010437903 0.0016583577
0.0050000004 -0.016127575 0.0070302389
0.010627766 0.0035343992 -0.0035363452
0.0050000004 0.01175701 0.012807794
0.015000001 0.0090165054 -0.0073139053
0.0050000004 0.021200467 -0.0044916808
0.0050000004 -0.0070541794 -0.019116633
-0.003369818 -0.017021203 0.018181439
0.0037760315 -0.0048317751 -0.024363855
0.0050000004 -0.0070327208 -0.023659084
0.0018812128 0.015962113 0.01681751
-0.0050000004 -0.020259967 -0.00050389289
0.0049999999 -0.016909637 0.010969711
0.01287707 0.0091224518 -0.0058252574
-0.0050000004 0.015804488 0.0034448644
0.0090000005 0.0073708212 -0.008390056
0.0050000004 -0.018171506 -0.0076356824
-0.0050000004 -0.022684423 -0.0070488993
0.0050000004 0.012102092 -0.013456902
-0.0050000004 0.011035051 -0.007796139
0.011628933 0.0045000003 0.0074246097
0.010392591 0.009329089 -0.0050141406
0.006226033 -0.0072127427 -0.010086547
-0.0019458712 -0.014511541 0.01807051
-0.0050000004 0.0089055533 0.01767676
-0.0050000004 0.0089923758 -0.00017727853
-0.0050000004 -0.013336081 -0.018766891
0.0050000004 -0.021891141 -0.0043084365
-0.0050000004 -0.016085666 -0.0097935777
0.0035045603 0.020121798 0.014492419
0.0065791784 0.0037225042 -0.003291802
-0.0050000004 0.0067061437 0.015380273
0.0050000004 -0.011086793 -0.011445553
0.011069357 -0.0054710344 0.0075315777
-0.0038451822 0.024162499 -0.0063611339
0.0050000004 0.0088728582 -0.0030334678
-0.0015243116 0.017148757 -0.014771398
0.0050000004 0.00044519376 -0.022930797
-0.0047808238 -0.0023309826 -0.0044001094
0.010008687 0.0014482748 -0.01093536
0.0099865571 -0.0058181579 -0.0075165941
-0.00102418 0.021776093 -0.0039198808
0.0050000004 0.0068650385 -0.010410709
-0.002675975 -0.01098086 0.02188799
-0.0050000004 -0.010226111 -0.008621579
-0.0050000004 -0.010157628 0.007599703
0.0033808127 0.0047992691 -0.0013673255
-0.00025538256 0.0048318515 -0.0012770059
0.0050000004 0.0050437162 -0.00045918659
0.0050000004 0.022880279 0.0091610737
0.0050000004 0.0074732639 -0.020668432
-0.0033984911 0.0007557862 -0.0049004825
-0.00017606425 0.019793823 -0.0093327211
-0.0050000004 -0.011442211 -0.013014022
-0.0050000004 -0.0029898942 -0.02385976
0.0050000004 -0.010036286 0.017027196
0.012983514 0.00050000002 0.0058154515
-0.0050000004 0.014795062 0.011543226
-0.0050000004 0.019771757 -0.0094700148
-0.0050000004 0.02187096 0.0016932302
-0.00035042572 0.0071405871 0.020751962
0.0023453971 0.0039900062 -0.0029432012
0.015000001 0.0084381625 -0.0083716083
-0.0050000004 0.0055620112 -0.015268312
-0.0050000004 0.019591741 -0.00060054689
-0.0050000004 0.0019720313 -0.0092422869
-0.0022757743 -0.015624645 0.017930482
0.011192522 0.0054706451 0.0087124836
0.0034030806 -0.024322726 0.0051441542
0.0050000004 0.023953851 0.0038108325
0.0052814526 -0.0070742657 0.010192806
-0.0050000004 0.018699612 0.010172493
-0.00037785282 0.0085092317 -0.020192936
0.0050000004 0.0053117028 0.008351394
0.0050000004 0.021065556 0.0059608691
0.0050000004 -0.018598095 0.011275826
0.0095542818 0.012133887 0.0027810482
0.0050000004 0.020180294 -0.013074033
0.0093370471 0.0081348578 0.0051891766
-0.0050000004 -0.012241605 0.021199733
0.0050000004 0.011746382 0.016040595
-0.0031574855 0.023487231 0.0080659837
0.0050000004 0.015405484 -0.0020068409
-0.0050000004 0.015597977 -0.0090793949
0.013562378 0.0045000003 -0.010027695
-0.0050000004 -0.010522938 -0.017020497
0.0087670414 -0.0035588983 -0.0099979248
0.0050000004 -0.00028019876 0.019009313
0.0050000004 -0.00037321061 -0.0075901784
-0.0033516122 -0.00059473136 -0.0049216892
0.0082690716 -0.00985914 -0.0075091757
0.0081868973 0.004354421 -0.0024412849
0.006316273 -0.0027302385 0.0041534249
0.0012982985 -0.016167611 -0.015681932
0.0050000004 0.023245776 0.003045873
0.0050000004 0.0082366886 -0.014697528
0.0091835447 0.0055880533 0.012210662
0.0053166128 -0.0035375124 0.011948875
0.0145662 -0.00050000002 -0.005618277
0.00026359881 0.0047533801 -0.0014781114
-0.0050000004 -0.0086907595 0.008976385
0.002226695 -0.018572571 0.014649384
0.0060000001 0.0038268825 -0.0036312495
-0.0050000004 -0.0057330392 -0.00021688557
-0.0050000004 0.0018968816 -0.0071076616
0.0055899243 -0.0082480004 -0.0092921471
0.0041388264 0.0048445682 -0.0011804248
-0.0050000004 -0.0019857071 0.0068233474
-0.0050000004 -0.0081418445 -0.017152561
0.0050000004 0.0125409 -0.0017521492
0.0025117332 -0.0046443227 -0.0017414003
0.0044292402 -0.013229627 0.021090753
0.003453807 -0.014701739 0.019961184
0.013666728 0.0036902586 0.0033338231
-0.0022018126 -0.011368684 0.020846035
-0.0044000838 -0.0080598053 0.023489792
