# .PCD v0.7 - Point Cloud Data file format
VERSION 0.7
FIELDS x y z
SIZE 4 4 4
TYPE F F F
COUNT 1 1 1
WIDTH 1000
HEIGHT 1
VIEWPOINT 0 0 0 1 0 0 0
POINTS 1000
DATA ascii
0.0021616495 -0.0053224498 -0.039043307
0.0029823121 -0.038645279 -0.012923709
0.0050000004 0.029796163 0.0087617356
0.0050000004 -0.017443884 -0.01856296
0.0050000004 0.022907143 -0.031229269
0.012584071 0.0026808169 -0.012147088
-0.0050000004 -0.0081960438 -0.039408691
-0.0050000004 -0.026461767 -0.0055707647
-0.0050000004 -0.00071307272 -0.018110845
-0.0050000004 0.0093874894 -0.03092142
0.0050000004 -0.0090915039 -0.028804131
-0.0050000004 -0.012604422 -0.0086917784
0.0050000004 0.0001454467 -0.0076380884
0.0016098467 -0.036484607 0.012641689
0.0050000004 0.011163291 0.014224244
0.0050000004 0.021977834 0.028501404
-0.0050000004 0.015432242 -0.035783548
-0.0050000004 0.016164711 0.025608113
0.0088872332 -0.0040512141 0.0090307221
-0.0050000004 0.03109896 -0.010507651
-0.0050000004 -0.021443717 0.033925168
0.015000001 -0.0077925716 -0.00080980401
0.0050000004 0.02158756 -0.004489325
0.0012192833 0.038127199 -0.0027343016
0.0050000004 0.0015308342 0.0084515149
0.00046680827 0.0059946273 0.03733588
-0.0001857287 0.023718044 -0.029350912
-0.0050000004 0.0036747816 0.037652113
0.0013113258 -0.018075047 -0.033913713
0.010979746 -0.0062375511 0.007507564
0.009049234 0.0034482952 0.0099593569
0.0075826994 -0.0086463261 -0.0089865308
0.0050000004 0.014392864 0.031123105
0.015000001 0.00061904779 0.0070562107
0.014929181 0.0077947164 0.0090000005
0.0081809387 -0.0077893203 0.0096441424
-0.0047602551 0.0049858568 -0.040343624
-0.0050000004 -0.01388856 0.0027379114
-0.0050000004 -0.005577249 0.021800911
0.0050000004 0.016427623 -0.034153841
-0.0050000004 0.016988916 0.02277137
-0.001726497 -0.033323858 0.020078827
0.0046726712 0.037067488 0.016732739
0.0050000004 0.024385959 -0.0029553701
0.0050000004 -0.02835167 -0.00016508199
0.0024777774 -0.0028370575 0.039918046
-0.0050000008 0.0024857128 0.011914387
0.0080627343 0.002613547 0.0042429692
-0.0050000004 -0.00050585135 0.023294775
0.0019511627 -0.0079123564 0.038337741
-0.00087162771 0.01976257 -0.032615699
-0.0049999999 0.0039593419 -0.014494296
-0.0050000004 0.018435886 0.0025261021
0.0015966111 -0.021393588 -0.032152709
-0.0050000004 0.025618197 0.031579539
-0.0050000004 -0.010010713 -0.0256637
0.011583836 -0.0029848334 -0.010667756
-0.0050000004 0.01991117 0.030681942
0.0050000004 -0.028403096 0.0039145406
0.0050000004 0.012755023 0.035556752
0.0050000004 0.022679798 -0.011634935
0.0050000004 0.0054449462 0.0087417187
0.0050000004 -0.014373382 0.0042630276
0.0070397719 0.00536549 -0.009302007
-0.0045032888 -0.027234009 0.030339882
-0.0030307465 -0.028251113 0.029559439
0.011238863 -0.0009899945 -0.010422998
0.0018073124 -0.010617535 0.037594002
0.00041045903 0.037725527 -0.0029201878
-0.0016902538 -0.018796256 -0.034021597
0.0015970027 0.030546959 -0.02348689
-0.0050000004 -0.030053247 0.0055471784
0.0050000004 0.035274547 -0.00047320273
0.0026962887 0.015123067 -0.037380148
0.0050000004 -0.0068747401 -0.010710613
0.0050000008 -0.018997923 0.017275048
0.0050000004 0.00094068667 0.013164555
0.0050000004 0.0068984027 0.018176297
0.0050000008 0.010501565 -0.035877027
0.0050000004 -0.027178474 -0.025327642
0.0042391913 0.040029161 0.0073744911
-0.0050000004 -0.012155649 0.015673075
0.00088153733 0.0019939658 -0.037973657
-0.0026800353 0.031786196 0.024765862
0.0050000004 0.02676904 -0.0023722602
0.0021929664 0.0023249362 -0.0044026137
-3.5563295e-05 -0.013961146 0.035006378
-0.00080816488 0.036119506 0.01181012
0.0050000004 -0.011787608 -0.025140392
0.0073685492 -0.011859715 0.0037527611
-0.0050000004 0.0086655943 0.0057074903
0.0050000004 -0.026989412 -0.019883612
0.0057401937 -0.0048597641 0.0010650173
-0.0050000004 -0.010528307 -0.038689107
0.0037833415 -0.01942854 -0.035950821
0.0050000004 0.001386116 0.0084273964
0.00026518138 -0.036147267 0.011366151
-0.001102382 0.034684159 0.015673745
0.01342541 0.0048082327 0.0013456867
-0.0050000004 -0.0094536012 0.0078641279
-0.0050000004 -0.01109337 -0.032595303
0.014647103 -0.011558463 0.0040989029
-0.0050000004 0.0051495759 0.037770577
0.0050000004 0.0035189814 -0.016023343
0.0050000004 0.0048867106 -0.027755186
0.0034481639 0.036109254 0.019046063
0.0050000004 -0.023032751 0.025497373
0.002399348 0.0094472375 0.038911976
0.0050000004 0.0069164047 -0.031537056
0.0050000004 0.024151996 -0.029948415
0.015000001 0.0074522775 -0.004038855
0.0040101851 -0.023010692 -0.033580508
0.0050000004 0.015612951 0.024158271
-0.0050000004 -0.025689241 -0.0059124827
-0.0050000004 0.0089701405 -0.012533245
-0.0050000004 -0.01998115 0.0055879224
0.0050000004 0.0074459109 0.014623493
-0.0050000004 -0.022099508 -0.0205492
0.0050000004 0.0081436811 -0.024832927
-0.0022286496 0.0029762997 -0.039468225
0.0050000004 -0.037383724 -0.0086014466
0.0050000004 0.018906519 0.00025488093
0.0033368128 -0.0021312509 0.040719427
0.0050000004 0.029334145 0.018913036
0.0050000004 0.019772781 -0.034545843
0.0004580793 -0.036904216 0.0092557305
0.012866016 -0.00050000002 -0.0083448105
0.0050000004 0.0022052326 0.0047144946
-0.0050000004 -0.036783319 -0.013613595
-0.0050000004 0.017379912 0.02137682
-0.0050000004 -0.012484172 -0.026569977
-0.0050000004 0.0082032513 -0.039483581
0.0050000004 -0.0082929442 0.020951197
0.0050000004 0.0072126188 0.032724522
0.0050000004 -0.030764025 0.009588873
0.0050000004 0.024307366 -0.028226523
0.0050000004 -0.012676417 0.028993409
0.0050000004 -0.011365457 -0.011949534
-0.0050000004 -0.029571693 0.02088153
-0.0050000004 0.010996185 -0.023767142
0.0050000004 -0.012166405 0.023717977
-0.0050000004 -0.014590137 -0.032192916
0.0050000004 0.023938794 0.027227961
-0.0050000004 0.025638158 -0.0030028822
-0.0021563221 0.0009084898 -0.039615177
-0.0050000004 -0.033731278 5.8988575e-05
-0.0050000004 0.0070061134 -7.1692471e-06
0.0040541161 0.0087060267 0.039853867
0.0050000004 0.040079668 0.0037611343
0.0050000004 0.019383179 0.016793206
0.0050000008 -0.040831324 -0.00030696118
0.0050000004 0.016470291 0.0054071867
-0.0050000004 -0.022147212 -0.0086184191
0.012998302 0.00050000002 -0.0094502894
0.0022418711 0.029427335 0.026604028
-0.0050000004 0.036612753 0.013158491
0.0011400251 0.00025664459 -0.0049662068
0.0050000004 0.014549235 -0.024571586
-0.0025374249 -0.035671424 -0.018535314
-0.0050000004 0.027523415 0.013246816
-0.0050000004 -0.0083485609 0.021225354
0.0050000004 -0.035505749 0.019122899
-0.0050000004 -0.015442683 -0.023641136
0.011836776 -0.0049668099 -0.011356827
0.001045716 0.037806805 -0.0038497285
-0.0050000004 -0.011197468 0.021273699
-0.0050000004 -0.00015705626 -0.015435527
4.9121441e-05 0.037777867 0.0017872733
0.0050000004 0.01328011 0.027155129
0.0050000004 -0.019111941 -0.03196045
-0.0050000004 -0.029235162 -0.0036381576
0.014851572 0.0091901962 -0.0078083468
0.013600948 0.012384166 0.0008798886
0.0050000004 -0.022139953 -0.023271292
0.011127169 0.0045788917 -0.0018993638
0.0050000004 -0.023842214 -0.021265052
0.012831546 -0.0048695235 0.00099090172
0.0050000004 -0.023166498 -0.0071199886
-0.0026379442 -0.0043650153 -0.0024157073
-0.0042439988 0.040152084 -0.0064407801
0.0050000004 -0.025316948 -0.020416867
-0.0050000004 -0.0079339789 -0.038943615
-0.0034788619 0.027968252 0.029776484
0.0050000004 -0.0032580122 -0.035263207
0.0050000004 -0.001253156 -0.034405794
0.0050000004 0.016929939 0.022678889
-0.0050000004 -0.0059292386 -0.033814341
0.0050000004 0.019193511 -0.033092838
0.0050000004 -0.029632304 0.0063390429
0.0050000004 0.0041696914 0.015698424
-0.0050000004 0.026677428 0.023815112
0.0050000004 -0.028110864 0.00095902639
0.0044678124 0.02011431 -0.035666764
0.0050000004 -0.0060288212 0.022745615
0.0072612376 0.0045000003 0.0068971282
-0.0043449127 -0.037872668 0.014788911
-0.0050000004 -0.031230329 0.013406618
0.0050000004 -0.0031350954 0.013760182
-0.0050000004 -0.0071817804 0.028273329
0.00087630359 -0.0043544755 0.0024411525
-0.0028655338 -0.031087711 0.026199421
0.0050000004 0.013095018 -0.01214692
0.0014121232 0.00206906 -0.038407639
0.0050000004 0.022125015 -0.029466506
-0.0050000004 -0.036842272 0.012582049
-0.0050000004 0.0099290675 -0.0039902176
-0.0045136786 0.033884555 -0.022614442
0.0050000004 -0.027835941 0.014037482
0.0050000004 -0.037585437 -0.0043311506
0.0050000004 0.028244277 -0.022894992
0.0050000004 -0.021536913 0.027678968
0.014368827 0.010415903 -0.0067835473
0.0050000004 0.0051708235 -0.0061279261
0.013025143 0.0045000003 0.010166381
0.010747524 -0.0046094721 0.011504845
-0.0043444573 -0.022098957 0.034280095
0.0097781606 0.0089129796 0.005095032
-0.0010468333 0.0084085763 -0.037207764
-0.0050000004 -0.0056379843 0.0052100471
-0.0050000004 -0.008396755 -0.011733978
-0.0050000004 0.0055496129 -0.024007997
-0.0050000004 0.035193477 0.0036492036
0.0050000004 -0.0072391275 0.017200267
-0.0049999999 0.012750202 -0.018978791
0.0050000004 0.017458245 0.015787905
-0.0050000004 -0.015614804 -0.034102373
0.0050000004 -0.035408221 0.0024664546
0.0050000004 0.0067975284 0.0049367486
0.0050000004 0.028688848 0.029164664
0.0050000004 -0.010406226 -0.025044305
0.004366627 0.0030926974 0.0038752891
-0.0041216803 0.031890526 -0.025213139
0.0095992088 -0.0043819048 0.0023749324
-0.0048962161 0.038384154 0.013554097
0.0022565273 -0.02352252 0.031823549
-0.0050000004 -0.0081585925 -0.017716311
-0.0050000004 0.016578466 0.013388996
-0.0050000004 0.0044317571 -0.012494211
0.0091125937 -0.0015860341 0.0081731062
0.014842437 0.0061866869 -0.0090000005
0.0050000004 -0.026951727 0.0036013043
0.0050000004 -0.012851106 0.0062091076
0.0050000004 -0.016505105 0.010378299
-0.0050000004 -0.032158136 -0.013944551
0.0050000004 -0.011887571 -0.03844694
0.0050000004 0.026978584 -0.001148408
0.0050000004 0.015019576 -0.02372548
-0.0032087497 0.0038010261 -0.0031894743
0.00054680544 0.022426015 0.030463193
0.0046602837 -0.032301635 0.024677372
-0.0050000004 0.030401204 -0.023845619
0.0050000004 -0.024176862 0.019316355
0.0050000004 -0.014193858 0.0050473865
-0.0050000004 -0.02669345 -0.021422116
0.0090060122 -0.0027234775 0.008526043
-0.0020297749 -0.019925289 -0.034092985
0.0050000004 0.028767677 0.0059671556
-0.0050000004 0.035042781 0.018986773
-0.0050000004 -0.012178089 -0.026965352
0.0050000004 -0.00048820983 -0.021449769
-0.0050000004 -0.0073798196 0.035807993
-0.0050000004 0.028387323 0.011681806
0.0035012751 0.012769061 0.038709335
0.013821647 0.00050000002 0.0053287232
0.0050000004 -0.013803879 0.012014548
-0.0050000004 0.036487315 0.0099143265
0.0027798784 -0.010954194 0.039262347
-0.0029441759 -0.039778851 -0.0092758546
-0.0050000004 -0.016582914 0.00085589412
-0.0050000004 0.011955082 -0.010424418
-0.0050000004 0.0006354666 0.032579787
-0.0050000004 0.010705449 0.027425135
0.0050000004 0.030085085 -0.0013428584
0.0050000004 0.0091412943 0.014076053
0.0050000004 -0.025930066 0.0078188758
0.0050000004 0.018085206 -0.0082261758
-0.0050000004 0.0075443098 -0.013080722
-0.0050000004 -0.036254473 -0.0029046538
-0.0050000004 -0.010896424 -0.02165434
-0.0050000004 0.0085358229 -0.036250044
0.0050000004 0.015951708 -0.017450063
-0.0050000004 0.0064335791 0.019769691
-0.0050000004 0.036301244 -0.010295644
0.0050000004 -0.0026775745 0.033630073
0.013514335 -0.004970598 -0.00022329437
0.0058987788 -0.00050000002 -0.0062311641
0.0050000004 -0.014530475 -0.0090692937
-0.0050000004 0.0085276561 0.0049732248
0.0032315413 0.024333147 -0.032565758
0.0050000004 0.011532439 -0.0088861566
0.012227851 0.0023835108 -0.0091683147
0.0050000008 0.023743967 0.0065883831
0.0036848451 -0.032476794 -0.024449093
0.010768289 0.011513977 -0.0045874631
-0.002177394 0.012203013 0.037625194
0.0025420776 0.0073669772 -0.039433058
-4.1900843e-05 0.037788544 0.0016914611
0.0050000004 -0.025825568 0.0087555833
-0.0050000004 -0.0093563404 0.028893383
0.00057101838 -0.012495938 0.035767253
-0.0050000004 -0.01728701 -0.033966601
-0.0050000004 0.013650707 -0.0016881143
-0.0050000004 -0.0056921751 0.025704935
0.0099524101 0.0097236792 0.0050720917
0.0029551594 -0.039795119 0.0091522792
-0.0050000004 -0.013093547 -0.01748584
0.00949811 -0.00068288401 -0.010480349
0.0030718227 0.017946955 -0.036564533
0.0027718046 -0.038739607 0.012179974
-0.00019713159 0.008608928 -0.036919449
-0.0050000004 -0.018089198 -0.014834387
-0.0050000004 0.0064726826 0.030397123
0.0050000004 0.0045969542 0.026049467
-0.0050000004 0.014856579 0.031942822
0.0050000004 -0.026250714 0.026642965
0.0041550165 -0.025862208 0.031392489
0.0050000004 0.017406464 0.0028236676
-0.0050000004 0.016442072 -0.033601627
0.0085895155 -0.0070438283 0.010216168
0.0050000004 0.00015704818 0.021511616
-0.0050000004 -0.027049299 0.016532199
-0.0050000004 0.0014250966 -0.025848182
0.0050000004 -0.0099568209 0.025945462
-0.0050000004 0.0049952487 -0.020850068
-0.0050000004 0.03848049 -0.012241056
0.0044674342 -0.030251972 -0.027348567
-0.0050000004 1.1025371e-05 0.033384785
0.001722032 -0.0048789266 0.00091949367
-0.0050000004 -0.039607067 -0.00076423964
-0.0014996736 0.038198106 -0.0043256674
0.011937739 -0.0037711828 0.0083161453
-0.0049999999 -0.0097140251 -0.021567749
-0.0042149522 0.040398005 0.0045727547
0.0050000004 -0.015352635 0.0025513584
-0.00031123712 0.0031641216 0.037666824
-0.0050000004 0.037479848 -0.0014424482
0.003924604 0.031164965 0.026158724
-0.0022726613 0.032601122 -0.022554683
0.0050000004 -0.0061694277 -0.026899677
-0.0050000004 0.026383562 0.026834568
0.0089786621 -0.009075758 0.0085300393
-0.0050000004 -0.018992286 -0.0047423746
0.0050000004 0.0016232505 0.018063586
0.0043138978 -0.0049355091 -0.00048977899
0.0050000004 0.0095282448 -0.021780441
0.012489584 0.0079442421 0.011847273
-0.0050000004 0.0047611725 0.0066536469
0.0050000004 0.016946539 0.013902812
1.5092851e-05 -0.026433626 0.027210072
-0.0050000004 0.01908391 0.0253527
0.0060000001 0.0053238277 -0.00012510346
0.0050000004 0.016260646 -0.010771441
0.0033323234 -0.039684188 0.0099949297
0.0050000004 -0.0062648221 0.031057751
0.0050000004 -0.021229627 0.0066017639
-0.0050000004 -0.0095104259 0.016504087
-0.0050000004 0.015890209 -0.036074098
0.0050000004 0.014990758 0.0092788935
0.01422933 0.0013788617 -0.012318495
0.0091602178 -0.012088759 0.0031238501
0.0065954896 0.0055148811 -0.0082746949
0.010716334 0.0052852007 0.0093773063
-0.0050000004 -0.0056867632 0.024440769
-0.0050000004 -0.021644115 0.024574099
-0.0010554667 0.0040406906 0.037791423
-0.0050000004 -0.015535754 0.0193456
0.008432053 0.0026607381 0.012149731
0.0050000004 0.01009421 -0.035922568
0.0050000004 0.020822784 0.026272621
-0.0050000004 -0.021391602 0.010235778
-0.0050000004 -0.0090647014 -0.0020942574
-0.0050000004 0.036180705 0.015088614
-0.0049999999 0.034423091 -0.019512398
0.0049392888 0.023769248 -0.032998454
6.7233865e-05 0.037684817 0.0025309178
0.0050000004 -0.014507202 -0.033194799
-0.0050000004 -0.03451591 -0.005431436
0.0082283309 -0.0098810075 -0.0074806772
0.0054400084 -0.0051382626 -0.011285808
0.0098011401 0.0018558889 0.010588485
-0.0050000004 -0.024316356 0.009393461
-0.0041671945 0.01429926 -0.038075488
0.0050000004 -0.005987539 -0.030707777
-4.6945599e-05 0.032107744 0.02006471
-0.0041553867 0.0017733915 -0.040766537
0.0060000001 0.0059225652 -0.0077706925
-0.0018987379 0.0032152729 0.038865324
-0.0050000004 -0.00024648747 0.020438798
-0.0043180184 0.025368817 -0.031771075
-0.0050000004 0.033085566 0.011107219
-0.0050000004 -0.03706057 -0.011095343
-0.0050000004 0.0093942005 -0.039164636
0.00027160987 -0.022038769 0.030668229
-0.0050000004 -0.026811086 0.00016343786
0.0059999996 0.0060797543 0.0012155734
0.0050000004 0.011996743 -0.0033969611
-0.0050000004 0.013768317 0.035127193
0.0058360263 -0.0083211996 0.0092359781
-0.0050000004 -0.03744334 -0.0039015319
0.0050000004 -0.0052651814 0.030305857
0.011816531 -0.012082713 0.0031697799
0.00098794152 0.036207043 -0.011723582
0.0036808713 -0.036745723 -0.017509541
0.0050000004 0.036334772 -0.010001662
0.01194028 -0.012370654 -0.00098253251
-0.0050000004 0.010857491 -0.01272961
0.0050000004 -0.034149956 0.019698655
0.0050000004 -0.0092249652 -0.022720048
0.002456537 -0.040108833 0.0011084198
-0.0050000004 -0.030472195 0.01739048
0.00067174103 -0.021564491 -0.031166097
0.0015150008 -0.038317099 -0.0035382444
0.003525405 -0.0049935309 4.9130667e-05
-0.0050000004 -0.015575989 -0.005739775
-0.0050000004 0.026923209 0.0079861255
0.0050000004 -0.025083642 0.02147194
0.013546667 0.012346937 0.0011626849
0.0033887068 -0.00093926553 0.0048763393
-0.0050000004 -0.00081753707 -0.029939698
0.012947351 -0.0087480936 -0.0089084283
0.0052062306 -0.00050000002 -0.0076251579
0.0050000004 0.011127178 0.036958795
0.0050000004 -0.0364758 -0.014803502
-0.0050000004 0.010605647 0.039102707
-0.0050000004 -0.018740719 -0.025907604
-0.0050000004 0.025719259 -0.020178331
-0.0015609993 0.017489018 0.034424368
0.0050000004 0.0088092946 -0.0079358025
-0.0050000004 0.016012413 -0.014942493
0.01043767 -0.012496575 -2.6024423e-05
-0.0050000004 -0.028512469 -0.0030228407
-0.0049999999 0.012936843 -0.018278355
-0.0050000004 0.017631331 0.0075313579
0.0084855342 0.0082012909 -0.0062057395
-0.0050000004 -0.0045956192 -0.016128808
0.0050000004 0.012845008 -0.0048509636
0.0090004168 -0.0044294987 0.0094530769
-0.0050000004 -0.00072761363 -0.0097848913
-0.00016580157 -0.0089588249 0.036864992
0.0050000004 0.019303767 0.024083409
0.0050000004 0.017239092 0.034656402
0.0050000004 -0.0006068456 -0.035213914
0.0050000004 -0.035352722 0.0059393304
0.0050000004 0.033324465 -0.010216605
-0.0050000004 0.015490247 0.033101782
0.015000001 0.0054424182 0.0021849575
0.0050000004 0.023913231 0.018242991
0.0050000004 0.015919467 0.026488494
-0.00041782192 -0.016017713 0.034264423
0.0050000004 -0.039349627 -0.0094607864
-0.0013439145 0.027278317 0.027321408
-0.0050000004 0.021744819 -0.023232864
0.010735819 -0.0010131389 0.010968974
-0.0050000004 0.027089637 -0.018618749
0.0050000004 0.021687841 -0.0063799513
-0.0050000004 -0.027582647 0.018723037
0.01477902 -0.0024433201 0.0043535782
0.0050000004 -0.016811378 -0.013932494
-0.0050000004 0.016886365 0.034919802
0.0050000004 -0.0076922276 0.020166734
0.0050000004 -0.016775949 0.0073869918
0.0050000004 -0.015668625 0.0035333578
0.0050000004 -0.031343043 -0.010604387
0.0035899484 -0.024169689 0.032691188
-0.0050000004 0.026037332 -0.025335617
0.0050000004 -0.035454385 0.010780246
0.00010988123 -0.036775723 0.0095230499
0.0050000004 -0.016286386 -0.014006996
-0.0050000004 0.031316038 0.0096696289
0.014372643 0.007987747 0.00803262
-0.0013239508 0.00053213071 0.0049299323
-0.0028475525 0.02793522 0.029716877
0.0050000004 0.0086107422 0.0030035335
0.0050000004 0.0058057182 0.02286144
-0.0050000004 0.015154705 0.026984235
0.0050000004 -0.013813273 0.0092991143
0.0050000004 -0.004012926 -0.017351223
0.0050000004 -0.014746205 -0.035701808
0.0086564515 -0.0024525619 0.0082690846
0.0050000004 -0.014367192 -0.016824506
-0.0023892354 -0.040042929 -0.00072363555
0.0050000004 0.0031418677 0.025756616
0.0050000004 -0.012965651 0.0019655328
-0.0050000004 0.027198665 -0.010514298
0.0085380133 0.0013922948 0.0092889154
0.0013482282 3.4831541e-05 0.038611539
0.0050000004 -0.012566877 -0.008815119
-0.0050000004 0.0083266487 -0.037702966
-0.0050000004 0.027764875 0.024593044
0.0050000004 0.015890822 0.019474147
0.0050000004 -0.023960005 0.011201364
-0.0050000004 -0.035192266 0.016441118
-0.0023600098 -0.032058284 0.02350851
-0.0020903079 -0.023067003 -0.031813301
-0.0050000004 -0.0028717143 -0.01748923
-0.0049652234 -0.0037161475 0.0033000857
-0.0050000004 -0.03055042 -0.0046330458
0.0050000004 0.030045267 -0.0052694948
-0.0012788394 0.0086664548 -0.0374058
-0.0050000004 0.016757742 0.01066624
0.00054261973 -0.0085265441 0.037022859
-0.0050000004 -0.035583302 0.0092758629
-0.0050000004 -0.02175739 -0.0097771324
-0.0050000004 -0.013182498 -0.035420526
-0.0026916144 -0.040116765 -0.0041410164
-0.0019850682 -0.038997378 -0.0033479978
-0.0014514852 -0.0049566622 -0.00032912882
-0.0050000004 -0.019745238 -0.026296549
0.0011470211 -0.02486987 -0.028923418
0.0050000004 0.016198143 0.027410099
0.0050000004 0.0033577804 -0.025985006
0.0095849317 0.00073107268 0.010767277
-0.0050000004 -0.02917413 -0.025419032
-0.0034113498 -0.015636785 -0.037521455
-0.0019483134 -0.035025276 0.017451804
-0.0050000004 0.021185754 0.010540106
0.0050000004 0.022249682 0.0051770522
-0.0050000004 -0.01750182 0.033460408
0.011959857 -0.00082357432 0.0098081902
-0.0050000004 -0.026183622 -0.024048336
-0.00078061246 -0.027801324 0.025997043
-0.0050000004 0.031319313 -0.016183538
-0.0050000004 -0.029623831 -0.017098894
-0.0050000004 0.0031021391 0.013115315
-0.0036404813 0.037881643 -0.014767235
-0.0046181339 -0.00041380775 -0.0049455119
0.0050000004 -0.0087893121 0.023535937
-0.0019407338 -0.030059276 0.024930989
-0.0050000004 0.020244135 0.026759777
-0.0050000004 0.027572734 -0.002183446
0.000829675 -0.011346511 0.036317732
0.0060000001 0.0031889209 0.010432352
0.0026916773 -0.015297554 0.037299279
0.0050000004 -0.016965486 0.0091950661
0.0050000004 -0.033538103 0.012233569
0.0027139618 0.039366253 0.010135943
0.0012766592 0.0042135101 -0.037989862
-0.0050000004 -0.0041082394 0.034520153
-0.0022866894 0.038718987 0.0094309049
0.011617692 -0.0091609079 0.0079033924
-0.0050000004 -0.039370175 -0.0091213621
-0.0050000004 -0.0092319064 -0.03364449
-0.00080464268 0.034411356 -0.015931515
0.013186467 0.0045000003 -0.011045706
0.0086939549 0.0045000003 0.009910048
0.0050000004 0.031195162 -0.021537689
-0.0050000004 -0.0006811315 0.031953946
0.0078031207 -0.011457867 -0.0047228816
0.0017692118 0.038566858 -0.0037782833
0.0050000004 0.0033024889 -0.0074155987
0.0050000004 -0.034134608 0.021305189
0.00063535263 0.0028719059 0.0040447148
0.0081337485 -0.010450095 -0.0067389864
-0.0050000004 -0.014632665 0.031706873
-0.0050000004 -0.0073600616 -0.02538266
-0.0050000004 0.017101403 0.03277564
0.013703953 0.0061399327 -0.0076673506
-0.0050000004 -0.025609871 -0.0079636844
-0.0018386295 0.037969694 -0.0092274165
0.0050000004 0.037457108 0.0065116328
-0.0050000004 -0.029337384 -0.027188785
-0.0050000004 -0.0025967527 -0.012179678
0.0098971408 0.0069295112 0.005579392
0.0050000004 0.0024105969 0.014432972
-0.0050000004 0.011157052 0.011719141
0.0050000004 -0.0025436787 -0.012207177
0.0050000004 0.028612822 0.028757086
-0.0050000004 -0.024879297 -0.0047579538
0.0049999999 0.010448107 0.034573808
0.0050000004 -0.01281401 -0.01509311
0.0050000004 -0.0068826084 0.034981955
0.0050000004 0.0061129988 -0.0094939955
0.0050000004 -0.022480698 -0.0043827486
0.0050000004 -0.027402492 0.017426515
0.0050000004 -0.0032628309 0.030067338
-0.0050000004 0.012588586 0.034202781
0.0027827427 -2.3262111e-05 -0.040816706
0.012305002 -0.00050000002 0.011563849
-0.0049999999 0.012300702 -0.023572018
-0.0050000004 0.0099014761 0.0076924022
0.0050000004 -0.0033376855 0.016901959
0.0045284531 0.017158126 0.036891282
0.0050000004 -0.018980289 -0.031786643
0.015000001 -0.0043690419 0.010861493
0.0068395091 -0.0029376252 0.012113278
-1.4948607e-05 -0.0025604041 -0.004283749
-0.0019971561 -0.018347772 0.034744922
-0.0026367598 0.035081744 -0.020348892
-0.003798868 -0.036167692 -0.018904991
0.015000001 -0.0059047155 0.0074806726
-0.0050000004 0.0088762511 0.0091089327
0.015000001 -0.005983986 -0.0094943196
-0.0050000004 -0.0078978017 0.0047990177
-0.0050000004 0.0079987068 0.0079152584
-0.0050000004 0.01770192 -0.0035684262
-0.0050000004 0.0074903145 0.0333644
0.015000001 0.0044102585 0.0028714018
-0.0035120805 0.024457697 -0.032470193
0.0025027082 0.0019463518 -0.0045594284
-0.0050000004 -0.016825533 -0.015995575
-0.0050000004 -0.0053593991 0.023355264
0.0026745663 -0.037984803 0.013565861
0.0050000004 -0.0055495063 0.038062703
0.0082025016 -0.012230954 -0.0020437206
0.0050000004 -0.023141034 0.024610821
-0.0050000004 0.0020858778 -0.014144801
0.0050000004 -0.017955912 -0.024016904
0.0017766262 0.0038806594 0.0030856987
0.0050000004 0.0027949677 0.0079446901
0.015000001 0.0026065761 -0.0091866506
-0.0050000004 -0.0060100649 0.037681047
-0.0020700369 -0.035533566 0.016770914
0.0050000004 0.026902778 0.015772298
0.0050000004 -0.01096814 0.017513461
-0.0050000004 0.034644581 0.015516276
0.0041896161 -0.0071538547 -0.040058207
0.0049697673 -0.0041971263 0.0026732883
0.0050000004 -0.0061256997 -0.032317881
0.0058446485 -0.0049851281 0.00011294633
0.0050000004 0.032547049 0.018717214
-0.0050000004 0.030153453 -0.026225379
0.010978574 0.00050000002 0.011018042
-0.0050000004 0.039088286 0.0039855898
0.0050000004 0.030678151 -0.023069829
-0.0050000004 0.013563802 -0.020877754
-0.0050000004 -0.023586916 0.008537028
-0.0050000004 0.0088731237 0.020055974
0.0050000004 -0.0075145075 -0.018422205
-0.0050000004 0.0068656891 0.012543619
0.0050000004 -0.0089698974 -0.032471828
-0.0050000004 0.023892343 -0.026733119
0.010228728 -0.0020559016 0.0074516963
-0.0013519789 -0.011173526 -0.036816034
0.0050000004 0.033503305 -0.0052567734
-0.0050000004 -0.027079234 -0.0044534323
-0.0050000004 0.0037108602 0.039831262
-0.0050000004 -0.028162824 0.014377544
-0.0050000004 0.033887766 0.01990395
-0.0050000004 0.00039080923 0.026089296
-0.0050000004 0.0028455702 0.012363194
0.0060000001 0.0042535532 -0.0039705108
0.0050000004 -0.032403339 -0.015696989
0.011119145 0.0045000003 0.011367062
0.0050000004 0.011819603 -0.0017913514
0.0050000004 0.019901754 -0.028348494
0.013839688 0.008359028 0.00936234
0.013414752 0.011381025 -0.0049084104
-0.0050000004 0.016191725 -0.013694336
0.0077864239 -0.010704479 0.0064074616
-0.0050000004 -0.0068669152 -0.021974057
-0.0050000004 -0.0087334281 -0.010086759
-0.0050000004 0.024796361 0.026909666
0.0043406095 0.03731731 -0.016129635
-0.0050000004 0.030479068 -0.014801434
0.0050000004 0.0042910227 -0.0026921318
-0.0050000004 0.0092204669 -0.02810503
-0.0050000004 0.0048255972 0.0041703922
0.002928402 -0.021548988 0.034702092
0.0050000004 0.011432284 -0.020819856
-0.0050000004 -0.029026896 -0.0017670265
-0.0012525286 -0.0043683965 0.037945323
0.012705117 0.0045000003 0.0076480736
0.013922205 -0.0029031516 -0.0040207384
-0.0050000004 0.0093144281 -0.027233925
-0.0050000004 0.0044569192 0.022789326
-0.0050000004 -0.027811658 0.013711344
0.0050000004 0.0018761526 -0.019310737
-0.0050000004 -0.003437524 0.013009376
-0.0050000004 -0.011503702 -0.031160161
-0.0050000004 0.027057508 0.028487604
0.0050000004 -0.029738551 -0.019935807
-0.003170294 -0.04015822 -0.0063941646
-0.0050000004 -0.02772055 0.015547475
0.0067049661 -0.00076859829 0.012398839
-0.0050000004 0.00084753131 -0.023369012
0.0050000004 0.02638698 -0.010265987
0.0050000004 -0.018237725 -0.021448048
-0.0034228929 0.021512866 -0.034729812
-0.00028734602 0.035702668 0.012454896
0.0050000004 -0.033108193 0.002966099
0.0050000004 0.0044575371 0.0091815358
0.0050000004 -0.006993494 -0.03051259
0.0011832626 -0.020341408 -0.032443535
-0.0050000004 0.030351432 0.018200567
-0.0050000004 0.0054517128 -0.0067845862
0.0016701792 0.038048491 -0.0067570359
0.0019480312 0.015246017 0.035938412
0.0050000004 0.004893058 0.038101181
0.0050000004 -0.027331095 -0.029784949
0.0050000004 -0.030647481 -0.002024139
0.0050000004 -0.028327009 0.024222303
0.0050000004 0.0083622383 0.0017394009
0.0088968705 0.0059958557 -0.0059080715
-0.0050000004 0.0074985954 0.014008689
0.00911697 0.0033263832 -0.0079523753
0.0050000004 -0.032845657 0.018838849
0.0050000004 0.037892688 0.0134596
-0.003794909 0.036107127 -0.019051205
-0.0017022415 -0.036464497 0.012929573
0.012806145 0.0082407556 0.011557247
-0.0050000004 -0.017331341 -0.018772576
0.0050000004 0.023997888 0.016895179
0.015000001 0.0022258654 0.0052653803
-0.0050000004 -0.0084516853 0.0091668405
-0.0050000004 0.0026918876 -0.04031511
0.0015156425 -0.036080308 -0.013373677
0.0050000004 -0.028639188 -0.010028627
-0.0050000004 0.027938908 0.0096261883
-0.0028108896 -0.036569346 0.017594704
0.0050000004 0.00088353764 -0.035727855
-0.0010259915 -0.037479058 0.0061895335
-0.0050000004 0.017511133 -0.015486058
0.0073361676 -0.00787907 0.009575244
-0.0050000004 0.02517467 -0.018804664
0.0050000004 -0.019033326 0.016027726
0.0050000004 -0.038807973 -0.0067009404
-0.0042985477 -0.018155644 0.036478087
-0.0012726358 -0.036042411 -0.012835701
-0.0050000004 -0.010124276 0.016203765
0.0050000004 0.0038300143 -0.020029085
-0.0050000004 -0.016196541 -0.025935024
-0.0050000004 -0.0054040574 0.0064662336
0.0026955558 0.014146935 -0.037783124
0.0050000004 -0.032795165 0.0036722594
-0.0050000004 0.0028298248 0.010058934
-0.0050000004 -0.015287464 -0.012935082
0.0050000004 -0.035087138 0.014850926
-0.0050000004 -0.014638499 0.031036913
-0.0050000004 0.020045454 0.034118038
-0.0035479886 -0.040015709 -0.0074767005
0.0050000004 0.039002407 0.0097426008
0.011403968 0.0060230056 -0.0056190453
-0.0050000004 -0.0059079318 -0.022169054
-0.0021219775 0.023676572 0.031414121
0.0081433691 -0.011585803 -0.0044140276
0.0019417282 -0.017637925 0.034935921
-0.0050000004 -0.0031136686 -0.025875855
-0.0022015092 0.038829532 -0.0074706338
0.0050000004 0.03260861 0.015426612
0.011013813 -0.0094932579 0.0075166933
0.0061410917 -0.00050000002 -0.0056606266
-0.0050000004 0.022904648 -0.024411477
0.0050000004 -0.0090236655 0.025983403
-0.0050000004 0.03062273 0.013481587
0.0036228166 -0.029258689 0.02864306
-0.0050000004 -0.037918609 -0.010173209
0.010943936 0.0030868389 0.0038797848
-0.00011059495 0.0035308765 0.0035390481
-0.0050000004 -0.024206379 0.0032922698
-0.0019989817 -0.014643712 -0.036282573
0.0060000001 0.0048305262 -0.0073124343
0.0028591638 -0.023312625 0.033289008
0.0050000004 -0.022583777 0.022334399
-0.0050000004 0.012901246 -0.0011540337
0.0012996765 -0.037846994 0.0054733758
0.015000001 -0.0026976974 0.0061025792
0.0050000004 -0.030838033 -0.0041218121
0.0050000004 -0.015176294 -0.013193326
-0.0050000004 0.025647821 -0.013657316
-0.0050000004 0.0052657723 -0.0202634
-0.0040413216 0.025679691 -0.031532533
0.011393161 -0.0068090153 -0.010396346
-0.0034121019 -0.040518679 -0.0036561096
0.0050000004 -0.034812093 -0.0135328
0.0069445185 0.00050000002 -0.0090601323
-0.0017592915 0.035868611 0.014567557
-0.0048378133 0.015708465 -0.037491761
0.0099888407 -0.0085687628 0.0075159823
-0.0050000004 -0.006039497 -0.033612736
0.003414026 0.01634963 0.037226178
0.0050000004 0.0065696947 -0.023992833
0.0050000004 0.027494684 -0.013723476
0.0050000004 0.035833281 0.0071366574
0.011147793 -0.012483822 -0.00012289672
0.010814934 0.0068435292 -0.010550236
0.0050000004 -0.011350489 0.035310376
0.0050000004 -0.0078638485 -0.027518382
-0.0050000004 0.013940077 -0.01950313
0.015000001 -0.0078059449 -0.0060657808
-0.0050000004 0.014291061 0.032802623
0.0019024533 0.037714433 -0.01075373
0.0050000004 0.010193152 -0.004047438
-0.0050000004 -0.0079345731 -0.039943188
0.0050000004 0.004056789 0.030642053
0.0050000004 0.015655948 0.012533799
-0.0025860297 -0.020664496 0.034729771
0.0050000004 0.014094182 -0.0091026286
0.015000001 0.0077666021 -0.0035755855
0.0045730458 -0.031642139 -0.025536848
-0.0050000004 0.0064022974 -0.014589809
-0.0050000004 0.026308294 0.0074235387
-0.0050000004 0.0028240453 -0.035991725
-0.0050000004 -0.014473936 0.025882244
-0.0050000004 -0.019944539 -0.010126208
0.0020087736 0.0032354232 0.0037657667
0.0050000004 -0.0049589397 0.032850083
-0.0050000004 -0.02280126 0.02293211
0.002360695 0.039745729 -0.0026056559
0.0011431032 0.004207063 -0.0026603388
-0.0050000004 -0.013395455 0.0070278114
0.0050000004 0.022700094 0.0022718732
-0.0050000004 -0.012371336 -0.029278232
0.0050000004 -0.016052904 0.016838161
-0.0050000004 -0.038276639 0.0029122387
0.0050000004 0.020774836 0.021722587
0.0074176784 0.0084708463 0.0065024807
0.0050000004 0.012664649 0.018365435
0.0050000004 0.038130175 0.0045222989
-0.0028535957 0.020120807 0.035602357
0.0050000004 -0.0048004105 0.031829517
-0.0006999927 0.037901614 -0.0021717811
0.010365177 0.0034631337 0.0070177391
0.0016120144 -0.01368349 -0.036055405
0.0050000004 0.022488458 -0.032341488
-0.0050000004 0.021478718 -0.033385158
-0.0050000004 -0.010060796 -0.013044328
-0.0023376509 0.014443482 -0.03699505
-0.0024488138 0.0020259931 0.039974652
0.0050000004 0.019520372 0.0070878156
0.0050000004 0.011573116 0.0026145298
0.0090000005 0.005936645 0.0092673553
-0.0050000004 0.01431658 -0.01494518
0.015000001 -0.0080803474 -0.00087496929
0.0050000004 -0.022864273 -0.022611631
0.0050000004 -0.01882592 -0.027075907
0.0050000004 -0.0087960828 0.018005213
0.0034615041 -0.029300038 0.028589172
0.0046847039 0.037538905 0.015594658
0.015000001 0.0056959987 0.0014086455
-0.0050000004 0.018451475 0.017784478
0.0050000004 0.0093524773 -0.033544634
0.0050000004 -0.0026674916 -0.030828789
0.0050000004 0.000360968 0.037828356
0.0020396842 -0.017994061 0.034970477
-0.0043570315 0.027872099 -0.029850259
0.0050000004 -0.016006596 0.02786129
-0.0050000004 -0.031869907 -0.020686932
-0.0050000004 -0.010631833 0.030495714
0.0099585755 -0.0029406159 -0.010922031
-0.0050000004 0.020593207 0.021858666
0.013159537 0.0041002934 -0.011715764
-0.0050000004 -0.011320764 0.038586635
-0.0050000004 0.01479416 -0.012819867
-0.0050000004 0.0066172867 0.031823404
0.015000001 0.0034362986 -0.0080873547
0.0050000004 0.028651072 0.0020905905
-0.0034925595 0.03998867 0.0076820874
0.0050000004 -0.015041217 0.0079868939
0.0039192908 0.0038244785 -0.0031589121
0.0050000004 0.018089676 0.030874627
-0.0050000004 -0.0093220538 0.02116465
-0.0050000004 0.027701844 0.015639989
0.0087165395 0.00683387 0.0059945737
0.0064326702 -0.00050000002 -0.0080530802
-0.0050000004 -0.016065994 -0.0052134823
0.00054091506 -0.021149397 -0.031440809
0.0060000001 0.0037739312 -0.011406695
-0.0050000004 -0.014619036 0.028406695
-0.0042146593 0.040026572 -0.0073941452
0.013548294 0.0045000003 0.010201644
-0.0050000004 -0.035521839 0.016222365
0.014033804 0.0046288092 0.0071682739
0.0028220946 0.035713635 -0.019710783
0.0018079721 -0.038433768 -0.0052991025
-0.0050000004 0.016427588 0.029461917
-0.0050000004 -0.010550976 -0.014923273
0.0050000004 -0.035754062 0.0015985511
0.0050000004 0.0064528785 0.036146052
-0.0050000004 0.0017397631 -0.0079986611
0.0050000004 -0.021493854 0.00086226634
0.0089353966 0.0045157354 0.0053555495
-0.0050000004 0.020743553 -0.00035280557
-0.0050000004 -0.0082469573 0.0084431637
0.0050000004 -0.0032459272 0.022301503
-0.0050000004 0.025858138 -0.013685852
0.0019455686 -0.038806614 -0.0042773318
-0.0050000004 0.015816426 0.015045254
0.0024774978 0.0085088601 -0.039170872
0.0060000001 0.0051038088 0.0048249275
0.0050000004 -0.034764804 -0.0070631956
-0.0050000004 0.031558849 -0.0034864552
0.0049999999 -0.016396279 0.034346174
0.0097958772 0.0085000005 0.011752265
0.0050000004 0.008658981 0.029488191
-0.0019572841 -0.029941294 -0.025131432
0.0050000004 0.026891151 0.027585197
0.014489899 -0.012281004 -0.0016635273
-0.0050000004 -0.022294432 0.013126206
0.0094288858 -0.00074361957 -0.0049021104
-0.0050000004 -0.033572733 -0.012377139
0.0050000004 0.017140653 -0.030140106
0.0050000004 -0.030480685 -0.010327226
-0.0041107689 0.033856854 0.022650542
0.0050000004 0.019568335 -0.034801703
0.0050000004 -0.010734495 -0.00946014
-0.0050000004 0.0086473729 0.021200648
0.0049999999 0.019033147 -0.022609634
0.011112464 -0.00050000002 -0.0055203903
-0.0050000004 0.033148933 0.023565819
0.013886994 0.0059366473 -0.0081418874
0.0050000004 0.021555424 0.014854065
-0.0050000004 0.0079862233 0.011711913
-0.0050000004 -0.019847428 -0.022069326
-0.0050000004 0.023335867 0.0032872974
0.015000001 0.0055633523 -0.0015007509
0.0068431436 -0.00050000002 -0.012109839
-0.0018358612 -0.00070450362 0.0049072467
0.0050000004 -0.025661772 -0.0070340056
-0.0050000004 0.015723558 -0.0088060498
-0.0050000004 0.019514106 -0.00621334
-0.0050000004 -0.004483189 -0.0086712409
0.0050000004 0.026829669 0.025065664
-0.0050000004 -0.0027174456 -0.036721379
0.0050000004 -0.0021262586 -0.029504025
0.010690747 -0.0012599896 -0.010569884
-0.0050000004 0.020831861 0.022503797
0.0050000004 0.012523879 0.0071591213
0.0046963361 -0.0046809865 -0.0016528843
0.0050000004 -0.011778788 0.018560972
-0.0050000004 -0.01867085 0.0079702726
0.0050000004 -0.0075862799 0.039765581
0.0050000004 0.012882479 0.033776335
0.00085984106 0.038063064 0.0012706963
0.0070326058 0.0069332509 -0.0087524094
-0.0014637763 -0.020006865 0.033050776
0.0050000004 -0.017062074 0.03564889
-0.0050000004 -0.011258644 -0.017073605
0.0050000004 -0.030530872 -0.019499311
-0.0050000004 -0.0040019248 0.017560815
-0.0050000004 -0.0019067622 -0.016840586
0.0050000004 -0.0097878352 0.036574613
0.0050000004 -0.011709702 0.019259134
-0.0050000004 -0.010852601 -0.039078899
-0.0050000004 -0.032199439 0.023637591
-0.0050000004 -0.012256136 -0.033896312
0.0050000004 0.016386669 -0.016947996
0.0050000004 -0.0037275041 0.020660993
-0.0050000004 0.0086204419 0.039364755
-0.0050000004 0.015849607 0.0027469599
0.0050000004 0.033529062 0.0072038742
0.012179058 0.0045000003 -0.0070863874
-0.0050000004 0.025900614 -0.0056616366
-0.0050000004 0.032425676 -0.015530811
-0.0050000004 0.035868395 0.0027768956
0.0050000004 -0.011958151 -0.022685656
0.0050000004 0.0049707228 0.013450085
-0.0030177021 -0.00074568199 -0.040901836
-0.0050000004 0.016427804 0.034498505
-0.0050000004 0.03213045 -0.0009848862
-0.0050000004 0.012837445 0.0088581201
0.0050000004 -0.026823834 -0.014773257
0.010948029 0.00050000002 0.0061986153
0.0050000004 -0.022574553 -0.005192562
-0.0050000004 -0.035000231 0.01124824
-0.0011805637 -0.034532629 0.01624207
-0.0050000004 0.031805035 -0.014778519
0.0050000004 0.0079238275 -0.0092937527
-0.0050000004 -0.013643224 -0.035021875
-0.0050000004 -0.030894373 0.0059982329
0.0050000004 0.022467183 -0.023548191
0.010527569 -0.00088396284 0.01238365
-0.0050000004 -0.03309568 -0.021441406
0.0060000001 0.0069552711 0.002467548
-0.0050000004 0.0013586892 0.0068277172
-0.0050000004 -0.019264063 0.026306599
0.0050000004 0.0013592673 -0.033279587
-0.0050000004 -0.02526498 -0.0032911978
-0.0050000004 0.025580667 -0.014890213
0.0098761972 0.0057778154 0.010124167
-0.0050000004 -0.0010424535 0.028805112
0.011535755 0.0082991403 -0.0057302997
0.0050000004 0.03765206 -0.01469123
-0.0050000004 -0.033854783 -0.0039186287
-0.0021657937 0.03660617 0.014611118
-0.0013074959 -0.0075103412 0.037586655
0.012191608 -0.010886104 0.0061032097
0.0050000004 -0.031820387 0.0053892899
0.0048740786 0.037934061 -0.014640687
-0.0050000004 -0.033152971 0.0058162026
-0.0050000004 -0.015293326 0.016861981
0.007565238 0.011696666 0.0041463845
0.0018863725 -0.034417134 0.018642034
0.0016171607 -0.011653552 0.036901742
0.0050000004 -0.0084231962 0.029939402
-0.0050000004 -5.0592866e-05 -0.016842294
0.0050000004 -0.028987674 -0.0041583749
-0.0029951702 -0.036964107 -0.016982319
-0.0050000004 -0.0079190228 0.020571206
-0.0050000004 0.011777157 0.038669359
0.002450943 -0.0005396271 0.0049289726
0.0050000004 0.00011144451 0.037823044
-0.0050000004 -0.039765242 -0.0054376931
-0.0050000004 0.0031103732 0.035892081
-0.0050000004 -0.020567076 -0.0028735255
-0.0012441338 0.0035306746 -0.0035392034
0.0050000004 -0.029909562 -0.0063564782
0.0050000004 -0.030739646 -0.0066134827
0.0060000001 0.0034810568 0.010333486
0.0050000004 -0.032273874 -0.020736393
0.0050000004 -0.032558549 -0.013535433
