# .PCD v0.7 - Point Cloud Data file format
VERSION 0.7
FIELDS x y z
SIZE 4 4 4
TYPE F F F
COUNT 1 1 1
WIDTH 1000
HEIGHT 1
VIEWPOINT 0 0 0 1 0 0 0
POINTS 1000
DATA ascii
0.0028637866 -0.006455278 -0.0021926088
0.003 -0.008593427 0.0031395212
0.012000002 -0.011263353 0.009917899
0.0034701214 0.015244057 0.0020237723
0.012 -0.0064728353 -0.0050829099
0.0076475795 0.0013198379 0.0026899781
0.002220918 0.0018838559 -0.010071225
0.010888658 -0.0073004127 0.003259954
0.0056938916 -0.0045071742 -0.0083607566
1.0757446e-06 -0.0031112854 0.0089718886
0.0057269451 -0.00043597634 0.013009142
0.012 0.013825743 0.0039617587
0.006783674 0.0098507162 0.0087284921
0.0072191688 0.0087632099 0.0036599194
0.011826308 -0.009074118 0.013172538
0.012 -0.0092527205 -0.0012092504
0 0.015206398 0.0043901103
0 0.0075873132 -0.0071933498
0.0020000001 0.0079695461 0.0041729081
0 -0.012763578 -0.0046633733
0.011710964 -0.0066570155 -0.0044360794
0.003 0.0087181842 -0.0011216035
0.012 -0.0011902961 -0.014922951
0.0049174423 0.0025508353 -0.0015704439
0.0088096298 0.0057679112 -0.014779594
0.0090000005 -0.0086843614 0.00063409487
0.00057821954 0.0053936378 -0.015057583
0.0085226493 -0.0092983022 -0.001919576
0.0035000001 0.006429824 0.0018895786
0.0020000001 0.0085049691 -0.0028882467
0.016407268 -0.00036954289 0.0029714194
0.003 -0.0037939555 0.0086493455
0.0097741475 -0.011295449 0.011329077
0.0048323073 0.0027070739 -0.0012862213
0.016146056 0.002677961 -0.0013502557
0.0025451796 -0.0038095021 -0.0074709621
0.00035320138 0.0096291201 0.012770913
0.012 0.0076214285 0.0094447499
0.0076012532 0.0021633254 0.0092454879
0.010168892 0.01440339 0.0069548334
0.0016416938 -0.0090671908 -0.0028235312
0.0086586708 0.00061994424 0.0094783511
0.0085000005 0.0027090737 -0.0045222985
0.012 -0.0055419467 -0.011021436
0.0015391315 -0.00092334236 -0.015971726
0.0052128118 -0.0025714857 -0.0091437222
0.003820949 -0.0085927965 -0.0040426725
0.019817781 0.0025431353 -0.001583781
0.0084055737 -0.0068798242 0.0065431907
0.0034426204 -0.0031128952 -0.0089713661
0.0024599258 0.005975476 -0.014839511
0.0022787442 -0.0050222292 0.0089294557
0 0.011893449 0.0036350768
0.0035000001 -0.0061177523 0.0040215394
0 0.0019845623 0.011914453
0.0033397526 0.0093315495 -0.0017631558
0.0090000005 -0.0030018794 -0.00098813639
0 0.0098655662 0.0010300525
0.0011065116 -0.013819067 -0.0080531407
0.011861537 -0.015941888 0.0013156477
0.012 -0.0098182065 -0.0066941828
0.008024794 0.0072459481 0.012564597
0.0069363182 0.01277048 0.00347804
0.010117407 -0.0037334012 -0.0014217697
0.0075824079 -0.0091748489 0.002448081
0.0082292231 -0.0090474878 0.0028922432
0.0020883875 -0.0084409844 0.00295571
0.0084324619 -0.0094465194 -0.0010032584
0.0055164788 0.0028592658 -0.00089232012
0.0035000003 0.0078734802 0.0011279099
0.0030307968 -0.00017703522 -0.0031627417
0.0090000005 0.0086697834 0.0032257871
0.012 -0.0053812028 0.01055372
0.0014723277 0.013933917 -0.0078542139
0.0057884753 -0.013012337 -1.7325674e-05
0.0032886511 0.0074238544 -0.0138267
0.0079979021 -0.009827449 -0.010606515
0.008217074 0.010261022 0.010716706
0.0090637272 0.0016983844 -0.01590916
0.0021771577 -0.015995543 -0.00028964068
0.0090000005 0.0013830437 0.0035582548
0.012 0.0099970764 0.0090971487
0.00062934082 0.01243764 0.010062234
0.0085000005 -0.0014765972 0.0073907995
0.012 -0.011401751 0.00085189193
0.0017873901 0.015914362 0.0016252698
0.005728276 -0.0085274726 -0.0041853478
0.0085000005 0.0043185344 -0.0061244597
0.0051122685 0.0098884478 0.0087529244
0.0022493212 0.0067721461 0.0033533589
0.00079733483 0.0037074995 0.0087419115
0.0025417474 -0.013278291 -0.008919307
0.0052439389 0.0094860252 -0.00044864023
0.0030683985 0.0038661144 0.0086776502
0.0035000001 0.0046151816 0.0043424098
0.0087950965 0.0033117228 -0.01548979
0.0072680209 0.0045181452 0.0083544208
0.0085000005 0.0052890447 -0.0043592309
0.0061500911 -0.00098049315 -0.0013017363
0.0065841745 0.0094029028 -0.0013136148
0.012 0.014625477 0.005450774
0.0027008846 -0.0053468132 0.0028258252
0.0085747531 -0.0083681038 -0.0044850791
0.0046636937 0.012452523 0.0052404655
0.007543873 0.010843815 0.0084169311
0.0085000005 0.0031296457 -0.0065344134
0.00035362199 -0.014375699 0.0070131873
0.008732779 0.004262418 0.0084795626
0.0076222997 0.013051838 0.0045908652
0.012 -0.0089392066 -0.0074643744
0.004267619 0.0013052023 -0.0026955211
0.0035000001 -0.007026874 0.0012708222
0.0098750945 -0.015013549 0.0055209175
0.010917987 0.0057531595 -0.0055510402
0.00097603985 -0.0048662573 0.0081534376
0.012 0.011981376 -0.0022106739
0.01014002 0.012135632 -0.010426059
0.012 0.0021457849 -0.014329886
0.0053130472 -0.0068649161 0.011184022
0.0017744756 0.015415223 0.0042687207
0.0041397517 0.010957509 0.0090587549
0.0099239238 -0.015103363 0.0052634529
0.0076154554 8.026158e-06 -0.0094997203
0.012 -0.01311872 0.0083980327
0.009115709 0.0078557786 0.013937242
0.0058908113 0.0094508324 0.0009519158
0.0021508795 0.0025575126 -0.0096664876
0.0077398908 0.012115629 0.0070328168
0.0084431451 0.0063057644 -0.0070979884
0 0.0035268948 -0.010168707
0.012 0.0076238089 0.0052097095
0.0027730458 -0.0085563613 -0.0056366692
0.0085725561 -0.0043669883 0.014823674
0.0087232152 0.013906841 -0.0073145945
0.0034273947 -0.010866413 -0.010984086
0.012 -0.0087723592 -0.0067734928
0.0076626595 0.0040863655 -0.013280245
0.0064347745 0.0097679729 -0.0086547453
0.0090000005 0.0012161721 -0.0092845736
0.00040388765 -0.00077021215 -0.0094655575
0.0045598326 -0.012656145 -0.0050199176
0.012 0.012772687 -0.00037347717
0.012 -0.014846643 0.0033361202
0 -0.009544774 0.0085227741
0.0028467143 0.015537038 0.0038014629
0.0090000005 -0.0073224222 -0.003808894
0.00035731294 -0.00011851319 0.0094958618
0.0090000005 -0.0049553802 0.0070490586
0.012 0.0028836813 0.011700387
0.010807689 -0.013510011 -0.0085635344
0.0041815364 0.013425597 0.0044616484
0.010607249 -0.0091968803 -0.013085839
0.009581957 0.0032634826 -0.0072978856
0.0080547361 -0.0015234041 0.0025806651
0.0085000005 -0.0039061594 0.0053740586
0 -0.0050734212 -0.013308442
0.0024958325 0.0081201121 0.013779859
0.010760281 -0.0082321018 0.013713181
0.003 0.0063870731 0.0061687836
0 -0.0096788639 0.0055095204
0.0075852913 0.0023296417 0.0092040198
0.0042292112 -0.008898857 0.010894587
0.012 0.0086419489 0.0084532183
0.003 -0.00036487772 0.008915537
0.0069447537 0.0026944806 -0.0013159744
0.012 0.0059182211 0.014349578
0.0047427006 -0.0049645398 -0.008096694
0.0090000005 0.00086618122 0.0043285494
0.0092296451 -0.015005457 0.005544113
0.0042009326 0.0094291102 -0.010500606
0.0090000005 0.0028821328 -0.008987546
0.0045000003 0.0015273767 -0.00098362297
0.0077506965 0.0012847885 -0.00066269888
1.1862241e-05 -0.01438156 -0.0070041046
0.021000002 -0.00016185734 -0.0020336625
0.0024862578 -0.0086256322 -0.01346931
0.0081145177 0.0094942134 0.00010429386
0.0017790655 -0.013072231 0.0092172557
0.003 -0.001785907 -0.0080774454
0.0052318606 0.002662787 0.0013700433
0.0011542892 -0.015723154 -0.0029437849
0.003 0.010031295 0.00084282173
0.0085000005 -0.0070926626 0.0012061575
0.0068201204 -0.012032492 0.0053712511
0.0062858984 -0.013018754 4.7787296e-05
0.011372786 -0.012313705 -0.010207959
0.0030000005 -0.0099541461 -0.00066935079
0.0092980843 0.0013684515 0.015939385
0.0032268302 -0.015783235 -0.0006839945
0.0080889538 0.014372142 0.0026459827
0 0.0061172973 0.0094625894
0.0014688543 -0.015770033 -0.0026902505
0.00078404043 0.015591778 -0.0035873111
0.0081220632 -0.012841133 0.0070976103
0.019876657 0.0027658937 0.0011603421
0.0047448049 0.0062592416 0.0071398788
0.0090000005 -0.0027901046 -0.0075480253
0.0088512199 -0.015936196 -0.00014467556
0.0081075532 -0.00097392139 0.0094441464
0.0071133985 0.0057119862 0.0075856363
0.0068415827 0.0015348544 0.0093700411
0.011218125 -0.0059396601 0.014850631
0.00071033795 0.012623269 0.0098219914
0.012 -0.009888337 -0.009959545
0.0083711911 0.0062671234 -0.0071327812
0.0007776157 -0.000324427 0.0094886711
0.003 0.00086708431 0.0035514219
0.00033167831 -0.015420885 -0.0042497879
0.0036991779 -0.00062514329 0.014970284
0.012 -0.0085118702 0.0020737704
0.00030829967 -0.015272425 0.0047617131
0.003624016 0.0027151192 -0.00028878247
0.0069511035 -0.0090205353 0.0096940724
0.014737338 -0.0016841344 -0.0018947235
0.0029391558 -0.0071379524 -0.003201301
0.0070248484 -0.0091266949 0.0026160141
0.020415321 0.0016150625 -0.0024882245
0.00019915772 0.013787984 0.008111489
0.005812177 -0.00095448893 0.0094461907
0.0042523155 0.009478109 -0.00056185352
0.0020000001 -0.0082303872 0.0054234732
0 -0.0089352494 -0.0076703858
0.0088079143 -0.012691608 0.0095108571
0.00054314238 -0.0056128544 -0.0076630875
0.01108028 -0.015408738 0.0042911107
0.012 0.011852598 0.0015086526
0.0037636883 -0.006230149 0.013499724
0.0095794182 0.0059513375 -0.014849795
0.012 -0.012494876 -0.0094496431
0.0068255817 0.0019072219 -0.013039049
0.0085000005 -0.005976236 0.0030156479
0.003 0.0014485212 0.0038361207
0.0081399502 0.0059653809 0.0073876637
0.00882666 0.0021137421 -0.0042484323
0.0062474958 -0.0066471826 0.0067840968
0.0046334947 0.0032744515 0.0089168753
0.0012068416 -0.0069218026 -0.0064997203
0.0022324594 0.0015533065 0.010126983
0.0020000001 0.0075819194 0.0064149834
0.0048907665 -0.0024616329 -0.0017089702
0.0012792277 -0.0052606119 -0.015106002
0.0075799837 0.00027475605 -0.013772774
0.0049881521 0.0075998744 -0.010887967
0.0090000005 -0.0027637025 0.0083197942
0.0070955236 -0.013092499 -0.0024920143
0.012 -0.0097094169 0.00058842328
0.0094390614 -0.0081423232 0.013766635
0.003 -0.0036788194 0.0021511847
0.0085000005 -0.0063913427 -0.0020405266
0.0060434537 -0.0007687005 0.0094657158
0 -0.011805081 -0.0098767737
0.0017651804 -0.015603032 0.0035173509
0.0074071926 0.012476027 -0.0053710458
0.011605745 0.0079021286 -0.0012181973
0.0020000001 0.0078574643 0.0052739922
0.0035000001 -0.0046769963 0.0065828077
0.012 -0.012397748 0.0031795832
0 -0.0096876053 -0.00097298762
0.012 0.0146763 0.0012535967
0.0063136783 0.00088929513 0.012991701
0.0048273099 0.0050036348 0.0080741234
0 -0.0043484489 0.01002172
0.0086090909 0.0068281349 0.0044409991
0.015555897 -0.0029149081 -0.00069675769
0.0078819096 -0.0010723581 -0.014214479
0 -0.0058357231 -0.01320925
0.0084867338 -0.0093678636 -0.0015629221
0.0085533848 0.0031698097 -0.0089528728
0.012 0.007542294 -0.0092198523
0 0.0037365728 -0.014642492
0.0076105758 -0.0083091808 0.0045958948
0 0.0018419309 -0.015828487
0.012 -0.010887237 0.0040467009
0.010588791 0.0018780326 -0.015885806
0.0010311827 -0.015772054 0.002659359
0.010038889 -0.0027726905 -0.015753603
0.001216302 0.0091349408 0.0025872579
0.0066891471 0.0063861953 -0.0070255683
0.012 0.0063598477 0.014425875
0.0020000001 0.0071664229 -0.006455991
0.010318729 -0.010472937 0.012091151
0.0056688017 -0.0069150673 -0.0065066949
0 -0.0044070552 -0.01336863
0.0088131288 -0.012429263 0.0098651145
0.0037011297 0.0040111057 -0.0086069331
0.0027614648 0.0091211041 -0.0040890323
0.0044425097 0.0068870327 -0.011891601
0.00075421337 -0.00082855986 0.0094594248
0.0011999951 0.0075578801 -0.014098855
0.010079107 0.0012075752 0.015952414
0.0061747343 -0.0026592629 0.0013771211
0.012 -0.0019957318 -0.01278769
0.0034213588 -0.0038243982 0.0071905539
0.0045000003 -0.0017416612 -0.00029278596
0.0090000005 0.0065354486 -0.0061618323
0.00092942559 0.014865296 0.0059051332
0.0088469693 0.0015780851 -0.0025945448
0.0011607067 -0.015923839 0.0015472255
0.0081762085 0.0081374319 0.0048937267
0.0040720738 -0.0051914584 -0.0079504075
0.012 0.0036114275 0.0099641019
0.00061468116 -0.0080496445 -0.0050342144
0.007898137 0.0092664436 0.0020694535
0.019181764 -0.00019499376 -0.0029879734
0.0077827028 0.0090038488 -0.0030213513
0.012 0.013760509 0.0025122068
0.0028426892 -0.0081107663 0.0026133999
0.00053121342 0.015890401 -0.0018536968
0.0042108656 0.0093461489 0.0016944692
0.00061371963 0.0069540637 0.014406933
0.012 0.0075620818 -0.0033269683
0.0073748748 -0.0087671941 0.0036509682
0.0081761554 0.013654121 -0.0056213546
0.0018509756 -0.0053070071 -0.0078724688
0.00019514961 -0.0097301453 0.012694998
0.0067100278 -0.0083517181 0.0045158928
0.010510989 -0.01515471 0.0051162611
0 0.014473763 0.0059953914
0.0021785079 -0.0046559134 -0.006860577
0.0084024565 -0.010236776 -0.011180444
0.0097217355 -0.0036550788 0.0071116621
0.0020000001 -0.0054381476 0.0085634822
0.0066943611 0.00038130389 0.013120104
0.002558487 -0.0097673442 0.0031014963
0 -0.0019284954 -0.015545359
0.0030967351 0.0028325494 0.0076373522
0.0089488812 -0.0073995898 0.0059518861
0.003551797 0.0094942134 0.00013959876
0.0062247771 0.0083721355 -0.0044774953
0.0050143874 0.0023749312 -0.0018237819
0.0020000001 0.0095881391 -0.00056207448
0.0043572523 0.0066644899 0.0067661759
0.0090000005 0.0034057987 -0.0017634287
0.0045516156 0.011238268 0.0077029718
0.0090000005 0.0061411387 0.0063832412
0 -0.0042714789 -0.012137308
0.0085000005 0.0028328067 0.0058254553
0.007055121 -0.001240812 -0.0027251453
0.0069258381 -0.011619049 0.0063218544
0 0.00080433575 0.011466983
0.0020067005 0.0057049789 -0.0050847041
0.012 0.0093425773 -0.004022459
0.0078198034 0.0074153151 -0.01204818
0.0066562584 0.0041824342 -0.0085233701
0.0098877968 0.013069891 -0.0092229592
0.014770572 0.0023130437 -0.0011194521
0.0036247107 -0.0062960507 -0.0071067349
0.010988345 -0.014118711 0.0075161238
0.0086184992 -0.0094942134 0.00030460782
0 0.0065778671 -0.0080282157
0.0020000001 0.0011630026 -0.0098292558
0.0099280225 0.015740611 0.0028376782
0.0072477157 0.0090218587 -0.002971872
0.0084879436 -0.011565202 0.0100252
0.0028457418 -0.015097525 0.005280186
0.003622625 0.0094942134 -0.00013695394
0 0.015626714 0.0027766686
0.010750117 -0.012420261 -0.010077452
0.0070721079 0.0008057665 0.0028849056
0.0029655821 -0.00070454972 0.0081189796
0.0034491369 0.002584035 0.0010232215
0.014546704 0.0023009083 -0.00046587351
0.0078023197 0.0028306299 0.0090630781
0.0094042141 0.001187598 -0.0079106512
0.0090000005 -0.007516271 -0.0033380112
0.012 0.0094239339 -0.003119394
0.01890252 -0.001510951 0.0025873522
0.0088878926 0.0049906047 -0.015199735
0.012 -0.0080698626 -0.012341303
0.012 0.001055253 -0.015118937
0.0058259303 0.0008771515 0.0094543165
0 -0.0061308281 -0.013612032
0 -0.010146988 -0.011870442
0.0011986219 0.0063828025 -0.014665967
0.0090000005 0.00078496517 0.0045814798
0.0041899891 0.0097522857 -0.010225141
0.0090000005 -0.0080407485 0.0027608676
0.003 -0.0085057756 0.0036687802
0.003 0.0017220041 0.0089988103
0.018222196 0.00015575271 0.0029943101
0.011851277 -0.0017408851 0.0078026508
0.0018863269 0.015991326 0.00032388823
0.0069477237 -0.013116431 0.0018047091
0.0085000005 0.001464806 0.0049942164
0.0025929683 0.0095625287 0.012820952
0.0020000001 0.0061550513 -0.0062971665
0.0087529132 -0.0094476994 0.00089693576
0.0055785426 -0.0067741866 0.006652582
0.0010047222 0.0086016562 -0.013484472
0 -0.011903979 -0.00047394092
0.0081725726 0.005318549 -0.0078646839
0.0029019054 0.00067324011 -0.010227492
0.0072333072 -0.0094942134 0.00010151968
0.010578104 -0.0019434445 0.0077558411
0.0020000001 0.0029897303 -0.0093593281
0.010287304 0.014914578 0.0057850173
0 0.0052639619 -0.012888724
0.0021999388 -0.0023079026 -0.007944881
0.0072550485 0.0037186358 -0.0087374123
0.0082515823 -0.005290464 0.01392426
0.0022824702 0.0012642203 0.0078973444
0.0086348839 -0.0019643442 -0.0022626878
0.003 -0.0076529784 0.0043477416
0.012 -0.0015160271 0.0095339091
0.0026962995 -0.0042273342 -0.0090576038
0.00068114145 -0.0028176492 -0.0090672951
0.0042167706 -0.012753258 -0.0059796926
0.0045482721 -0.010785769 0.0083299167
0.0053121424 0.0056413384 -0.0076408321
0.0090000005 0.0048056021 -0.0077962927
0.0035000001 -0.0065004658 0.0028162641
0.0032500036 -0.0093083093 -0.0018408527
0.0056018587 0.00946943 -0.00068594026
0.012 0.011981117 5.1844458e-05
0 -0.0092746643 0.0039720661
0.0014327235 0.0040875715 0.015463936
0.0066682356 -0.00018954017 -0.0014334176
0.0089214789 0.0021820199 0.0091377795
0.0071987039 -0.0025769277 -0.0091423653
0.003 -0.005537814 0.0073335739
0.0026234414 0.0093918452 -0.0034196554
0.011893441 -0.015959762 -0.0011178396
0.0032959306 0.012228035 0.0098174894
0.0019884282 0.0088084871 0.0035581018
0.012000002 0.0058581629 0.0068858131
0 -0.0098405266 0.0072497162
0.0090000005 0.0011180689 -0.0086642904
0.0096315043 0.0012352814 -0.015946545
0 0.012752156 -0.005635913
0.0024276138 -0.00043238705 -0.009985053
0.01084462 -0.0029870339 0.0074153384
0.000562781 -0.0061292695 -0.0072569055
0 0.010305149 -0.0060503716
0.010978081 -0.0029750401 0.0026657134
0.003 -0.0091934688 0.0027921938
0.010216343 0.0091038356 0.01315261
0.0020000001 0.0080281952 0.003778971
0.0056264736 -0.0052003446 -0.0079444144
0.0082125599 -0.0012128053 -0.0094190389
0.011100848 -0.015283355 0.0047239773
0.010876834 -0.0058489866 -0.014891851
0.0054644812 0.0025634246 0.012819943
0.0038908753 -0.0094472338 0.011197267
0.012 -0.0086964266 0.0061959666
0.00098674139 -0.0078957342 0.0052805236
0.0064870222 -6.7299778e-05 -0.0029958494
0.012 -0.012273875 -0.0062588127
0.010079321 -0.015993241 -0.00034675768
0.0069098342 -0.0084084757 -0.0044091502
0.0032805719 0.011028489 0.011187345
0.0085000005 -0.0057668122 -0.0026210772
0 -0.0057966867 0.013883011
0.013866637 0.0019941302 -0.0011348603
0 -0.010725434 0.010008037
0.012 -0.0096518826 -0.010852959
0.01008492 0.0019794479 0.0077475207
0.0035538126 -0.0065938104 -0.0068386314
0.0066800336 -0.0025727756 -0.012865947
0 0.0093905227 -0.0072681615
0.008664716 -0.0081066424 0.013340765
0.0074868361 0.012469731 -0.0055913902
0.0058582043 0.007404441 0.010693396
0.003530009 -0.0091064265 -0.012266885
0.0069031985 -0.0086019505 0.0040221149
0 -0.014510674 0.0049478798
0.0040054638 -0.0098736752 0.010554249
0.0081066424 0.0094545446 0.00089883641
0.0045731016 0.0033178439 -0.013191382
0 -0.012969564 -0.0042040371
0.016775593 0.0017127194 -0.0024613473
0.0090000005 0.0042015295 0.0077426094
0.0085000005 -0.0028734931 -0.0075006443
0.010006406 0.014553782 -0.0066360724
0.0082958397 0.007849955 -0.01275154
0 0.0090219369 -0.0093754269
0.0078155613 -0.0049242922 -0.013255974
0.0043480662 0.0027599111 0.013602127
0.0042323628 0.0042733704 -0.013390943
0.013 0.0021115008 0.0019104475
0.0071056867 -0.01260834 -0.0043301824
0.003029427 -0.0057731858 0.0073146233
0.0080159251 0.013037056 -0.0063178446
0.0068838727 0.0059131891 0.011808566
0 -0.013057872 0.0043740221
0.013 0.0013052416 -0.003096875
0.0090000005 -0.0066803931 -0.0063119684
0.0048553064 0.0076776268 -0.010931402
0.0020000001 0.0079100225 0.0054635103
0 7.8192708e-05 0.0099866949
0.0097622732 -0.015943596 -0.0012893499
0.00094916584 -0.01402324 0.0076922379
0.0036540085 0.0025173451 -0.0091572199
0.0063836635 0.0022686864 0.009219218
0.0035000001 -0.0031803458 0.005982928
0.003 -0.0063893828 -0.0070231417
0.0033093898 -0.0037252947 0.0087347217
0.0090000005 0.0091363434 3.9336217e-05
0.012 -0.0096692573 0.0054092314
0.0027014234 0.013625799 0.0083757499
0.0012431009 -0.0084348209 -0.004359602
0.0088784192 0.00933199 0.001372967
0.0046695131 0.0059708236 -0.0073834113
0.012 0.0027898885 -0.014544532
0.012 0.0041735061 0.01327712
0.0030482514 -0.0016893296 -0.0092012389
0.0031293919 0.0058367387 0.007417141
0.0037152846 0.0046060304 -0.0083036795
0.012 0.0070775868 -0.0055618617
0.0035000001 -0.0066271368 0.0034316236
0.011566915 -0.0069998903 -0.014381244
0.0056517199 0.0051444615 -0.011971439
0.013629974 -0.0015544376 0.0016907952
0.011827489 -0.0023691959 -0.0076404796
0.0035000001 0.0030320215 0.0057211481
0.0045315116 0.0091835866 0.0024176096
0 -0.00074365438 0.015452028
0.010611479 -0.00068186206 -0.015981689
0.012 0.013868688 -0.007195951
0.0020000001 0.0095916027 -0.00088176702
0.011700165 0.0078004776 0.0017525498
0.0075153075 -0.0004319388 0.009484916
0 -0.0097018899 -0.01070353
0.0090000005 0.0026063775 0.0078616524
0.0041955467 -0.0094589116 -0.00083640276
0.0055693695 -0.0029669954 -0.00040698174
0.0035000001 0.0020181118 -0.0044375192
0.0078288605 -0.0093265995 0.010657952
0.0042756838 0.0027253234 0.0090972949
0 0.0095286658 -0.0038850717
0 -0.0084526604 0.0082069803
0.0033631527 -0.0051214369 -0.0079976385
0.0020000001 -0.0050562085 -0.0065823416
0.0051807538 -0.0094557749 -0.00088124338
0.0068618692 0.0055492958 0.011967653
0.0039190189 -0.0092143994 -0.011328344
0.0090000005 -0.0026292433 -0.0023336909
0.00061233947 0.012720467 0.0096961977
0.0085501103 0.0083244191 0.0045672362
0.0085429559 -0.0044835336 0.0015519429
0.0020000001 0.0085792076 -0.0013012679
0.0086996611 0.0038598264 -0.0086803669
0.0030000005 -0.0012276103 0.010135219
0.0062133255 -0.002786699 0.0011013013
0.012502206 0.0038335558 0.0011223038
0.020179618 0.0029688743 0.00041293047
0.012 -0.0059980345 0.0062009329
0.007528401 -0.0056778216 0.0076123294
0.0024934593 -0.0077653751 0.0037846307
0.0068611624 0.0020293512 -0.0022085041
0.0044518462 -0.0015403167 0.01364711
0.0042483658 -0.0081127398 -0.011446926
0.0085000005 -0.0052812188 0.0033056361
0.003 -0.0056550382 0.0069792676
0.012 0.010288362 -0.0023321453
0.003 0.0037125961 -0.0091649191
0.0018954843 -0.0094807325 0.00052432378
0.012529894 0.0032576907 0.0023113829
0.010805312 0.0065118717 0.0046446822
0.0042872885 0.00076362182 -0.0028992493
0.012 0.00060495816 0.0082830125
0.0091593023 -0.0011606271 -0.0079137273
0.005136434 -0.002057553 -0.0092718592
0.013 -0.0020343014 -0.0026105777
0.0087336404 0.015275616 0.0037549003
0 0.0011470355 -0.015594247
0.0050668539 0.0033989905 0.012791904
0.012 -0.013992022 -0.0075933654
0.012 0.0003908803 -0.011074292
0.011756972 0.010957598 -0.011657475
0.0072883549 0.013368219 0.0016849595
0.0082964348 -0.010128858 0.011029847
0.0087422077 0.0022592284 -0.01558206
0.0016821348 -0.015026267 0.0054844595
0.00058255065 0.0038349302 0.015533453
0.0084663425 -0.012411091 0.0088959914
0 0.0055178669 -0.013622888
0.0029098836 -0.008549558 -0.0051869135
0.0020000001 -0.00054185651 0.0090630967
0 0.0081863608 -0.012120062
0.0010676921 0.0021936633 -0.0092379237
0.0086287316 -0.015198919 -0.0032838557
0.0088310204 0.0072793476 0.0036563931
0.0032907103 0.015257504 -0.0036616782
0.003 0.0029136287 -0.0073572639
0.0020000001 -0.0051118946 0.008386571
0.0035000001 -0.0048902477 -0.0027200519
0.0079067294 -0.0093240282 -0.0017985409
0.0086583905 -0.0010075059 -0.0028216641
0.003 -0.0074283918 -0.0051278719
0.003 0.00044414843 -0.0098106107
0.00092076295 0.0086006774 -0.0040249731
0.003 0.00027204829 -0.0081056077
0.0063364711 0.00019903101 0.0094930502
0.0007342415 0.0074148141 0.005933743
0 0.012904226 -0.0012778866
0.0071000131 -0.009243275 0.0021784562
0.0047653415 0.0010517209 -0.001178366
0.0021920614 0.0092378994 -0.013056705
0.00090643676 0.015881849 0.001893023
0.012 0.0075920024 0.0066936542
0.0059696943 0.0093261907 0.001788369
0.0040211575 0.0092431493 0.0021790455
0.0082691498 -0.0090754302 0.011850661
0.0023682863 -0.0056276768 -0.0082600052
0.0003888456 -0.01594732 0.0012348454
0.0020000001 -0.00072467152 -0.010075174
0.004063983 0.007501679 -0.012231797
0.0085000005 0.005527155 0.0028629089
0.0078437403 0.012329163 0.0070214001
0.0069143297 0.0025450124 -0.0015805295
0.0056017954 0.008216029 0.004767946
0.0049537374 0.0091643194 0.0024848019
0.012 -0.013589538 -0.0030152777
0.0055644754 -0.0088501172 0.0095900921
0 -0.0098143052 -0.0030817047
0.0031917435 -0.00437694 -0.0018420356
0.0059918375 -0.003658552 0.0087616881
0.005777651 -0.012463227 0.0037410608
0.0062280553 0.0094137676 -0.0012362978
0.012 -0.0043971813 0.010368874
0 -0.0093982909 -0.0041591269
0.016008522 -0.0025561634 0.0015632528
0 -0.0022312389 -0.010921099
0.012 -0.0059511322 0.0060822815
0 0.0076366803 0.0061964123
0.012 0.0032642342 -0.012265694
0.0011966252 0.0082558468 -0.0046962029
0.0048024203 -0.011843716 0.0062722927
0.0019842642 -0.0028282229 0.0090638623
0.006486889 -0.011216811 0.0066964119
0 -0.0077338442 0.013205185
0.0020000001 0.0060735117 0.0065246038
0.0035000001 0.0063707754 0.00035224133
0.012 -0.0035348779 0.0098495595
0.010806333 -0.0070402469 -0.0037909064
0.0050843656 -0.0093574189 0.0016372508
0.0097890086 -0.0008475504 0.0079529481
0 -0.013105743 -0.0065141642
0.0071880417 -0.0081883203 0.0048122858
0.0040345043 -0.0079513835 -0.0051914658
0.0020000001 0.0074506099 -0.0061156428
0.003362434 -0.0079644127 0.013370775
0.018201271 0.0029683439 -0.00039829631
0.011619674 -0.0089747487 0.013239176
0.0091897156 -0.011796647 0.010807277
0.018295325 -0.001277226 -0.0027083922
0.0045000003 0.0015438931 0.00086060219
0 0.010070354 0.0044351732
0.0028605305 0.0021483477 -0.0076329531
0.003 0.0097243926 0.0013787346
0.0052171797 0.0092443535 0.0021733784
0 0.00014809305 0.012708371
0.0063133682 -0.002954229 0.00050705735
0 -0.014512888 -4.7242898e-05
0.0071075289 -0.0083361398 0.010410055
0.00053823396 0.0014840293 0.0093790032
0.0033290696 -0.0054177889 -0.0077977455
0.007926601 -0.0087749287 0.0036335958
0.011741618 -0.0072927997 0.014235715
0.0090000005 -0.005895467 0.0063985544
0.0051626614 -0.0020327566 -0.0092780422
0.014730729 -0.0023374022 -0.00095701078
0.0035000001 -0.0064623957 -0.0046503544
8.1167585e-05 -0.0030778204 0.0089827618
0.0060626813 -0.0084918039 0.0042524319
0.0098374197 -0.0014218418 0.007869849
0.007720123 0.0083469041 -0.011213696
0.0052663414 -0.0038451024 0.0086863162
0.012 0.0095965303 0.011884855
0 0.0023738849 0.010719281
0.0033129777 -0.0049597397 -0.014846646
0.0079755699 0.0029985537 -0.0090085166
0.0097460365 -0.0059764604 -0.0053136875
0.0020000001 -0.0071601579 0.0065465178
0.0020000001 0.0070669232 0.0073341504
0.012 -0.011307893 -0.011101456
0.0033774215 0.015254891 -0.002956562
0.0023234559 0.0082719177 -0.013692985
0.0085000005 0.0033380229 -0.0046476084
0.0038428309 -0.014583399 0.0021155477
0.0079088444 0.011440417 0.0085845646
0.0052986378 -0.010265897 0.0081844451
0.0035000001 -0.0065923026 0.003934518
0 -0.011044437 -0.0041195247
0.0021337802 0.010170847 0.0012317612
0.0069148559 0.0026400576 -0.0014159065
0.0090000005 0.0087842252 0.0019563849
0.008327988 0.012866183 -0.0077710939
0.0024787255 -0.014799662 -0.0060797976
0.0034067407 -0.015011496 -0.0038109065
0.0002435896 -0.009949143 0.012530431
0.011135704 0.015263633 -0.0047795684
0.011304338 -0.0024109636 0.0031848436
0.00079898338 0.00448626 -0.0083728302
0.0076184454 -0.0029413118 0.00056603935
0.0037963039 -0.014694619 0.0018673254
0.012 0.002545957 0.015301278
0.0056205504 -0.002954554 -0.00048713165
0.004716279 0.0084442012 0.004341959
0.015009995 0.002779095 -0.00038878416
0.012000002 0.0093727112 0.0048687099
0.012 -0.011222477 -0.0011780271
0.0065000001 -0.0004518835 0.0014411478
0.0066728648 0.0094753141 -0.0006018249
0.0020000001 -0.0077447458 0.0064176996
0.003 0.00075556734 0.008424758
0.0020805765 -3.5623205e-05 -0.015999043
0 -0.010578166 0.0020341622
0.0067943376 0.0088733714 0.003379833
0.0066398489 0.012746599 0.0030446062
0.005325425 0.0078883329 -0.0052923686
0 0.011658708 0.0031818545
0.0023707242 -0.0025349017 -0.0078916671
0 -0.012715912 0.0070199072
0.003284517 0.0074418359 -0.013824821
0.0034304434 0.010629195 0.011207984
0.0050924681 -0.0070161833 -0.0064019873
0.003 -0.004114076 0.0074802856
0.0072226049 0.0017517275 0.0093318
0.0049511297 0.012451596 0.0046701729
0.012 0.0087824957 0.0025358053
0.0059444439 0.0094942134 -4.8394129e-05
0.00051562412 0.013461136 -0.0086385729
0.0038624511 -0.0077408804 -0.012496283
0.0083975131 -0.0077775447 -0.0054476475
0.012 0.0095877238 0.0042672828
0.0041986713 -0.0063208286 0.012623467
0.012 0.012813762 -0.0082096243
0 0.00068875542 -0.009774277
0.0071047219 0.0032599277 -0.0089227427
0.012 0.0027030967 0.014879483
0.009307256 -0.00039199638 0.0039751842
0.003 0.0088568423 -0.0040912726
0.0085000005 -0.0024161006 -0.0058237636
0.0023910135 -0.0058592674 0.0043221894
0.0077196662 -0.0094841635 -0.00047526087
0.0060821888 -0.00058212882 -0.0094796717
0.0070111849 0.0008305558 -0.0028779558
0.012 -0.0052234852 0.013276871
0.0020000001 0.0086492216 -0.0024135625
0.0028788804 0.0095704431 0.0028892881
0 -0.013008974 0.0073881135
0.0083339168 -0.0026375793 0.014807764
0 -0.013802628 -0.0039389087
0.0065976847 -0.0019483726 0.009297126
0.0065326276 0.0033167421 -0.0088997884
0.017447207 0.0024004907 -0.0017899356
0.0085000005 -0.0056542759 0.0031791565
0.012 0.0012015213 -0.011988587
0.0035000001 0.0058005052 -0.0024793579
0.0020000001 0.0053028218 -0.0062538991
0.0034292412 -0.0064458624 0.0069718435
0.0023492626 -0.011480552 0.011136366
0 0.0091383178 -0.01124583
0.006489574 0.0082694078 -0.0046706977
0.003 -0.0058719469 -0.0045372942
0.0034405109 -0.014466072 -0.0053661596
0.0037349155 0.005737579 -0.013773795
0 -0.012607372 0.0060628909
0.0024432403 -0.0095925732 0.0036048146
0.00019817229 0.0099794129 -0.012499137
0.003 -0.004605046 0.0069895792
0.0073576616 0.0028358339 -0.0090613887
0.0033349746 -0.014941686 0.0045241867
0.0050513172 6.778798e-05 0.0029943101
0.0085000005 0.0064802309 -0.0008451161
0.00126962 0.015997674 -0.00014887101
0.0020000001 0.0059401202 0.0053258487
0.002507854 0.0038970339 -0.0094768927
0.008834607 0.0026437093 0.00770343
0.007581363 -0.0059729912 0.01241266
0.011999999 -0.0098488564 -0.0011683552
0.012000002 -0.0023160742 0.015182263
0.002962013 -0.003024502 -0.0095262052
0.0091088694 0.0019998068 0.0032364302
0.0075427843 -0.0039744801 -0.013140152
0.0061783954 -0.0020805181 -0.012841691
0 0.01299187 -0.0059316852
0.003 0.0088400748 0.00086107338
0.00074419728 -0.0060716751 -0.0073046172
0.0036186206 -0.00087774702 0.0028668016
0.010168213 0.014266076 -0.0072315075
0.003 0.0085354419 -0.0053223297
0.0084501645 0.0051501258 -0.0143437
0.010904891 -0.0046473979 -0.015304158
0.0044224523 -0.005720064 0.0075793257
0.01002889 -0.0032852842 0.015653707
0.004757083 0.00025442833 -0.0029843077
0.0033989793 -0.0015793176 0.0079899812
0.0023631216 0.010244276 0.00031777227
0 -0.0085574938 0.0044126166
0.0020000001 -0.0087281009 0.0047810683
0.012 0.0080324439 -0.0055374755
0.012 0.0089926114 -0.0060388646
0.0085000005 -0.006343781 0.0033214719
0.0083004888 0.0012513784 0.014929239
0.009559257 -0.0038990066 -0.006980353
0.0046259589 0.00097854109 -0.0028308784
0.003 -0.0020846792 0.0036322323
0.012 0.010023113 0.0094046295
0.012 -0.010401906 -0.0089169098
0.012 0.0083331633 0.0033077837
0.0077577769 -0.0065229139 -0.012431633
0.0060819332 0.0079329666 -0.0052209394
0.012 -0.0073855929 -0.012388235
0.020606155 0.00068037404 0.0026917332
0.011353622 0.015874336 -0.0019891302
0.012 0.0012731706 0.012295534
0.0090000005 0.0054216296 -0.0073487102
0.0083112568 -0.012135206 0.0088174259
0.0049200398 0.0015074385 0.0025892383
0.013 -0.0011182126 -0.0025154911
0.0035000001 0.0067315432 0.0012020587
0.012 -0.0045911232 -0.013356636
0 -0.0075586224 0.0066894321
0.0033114366 0.0089592002 -0.0031440242
0.0017634752 0.012901939 -0.0094528273
0.0087481951 -0.0085810088 -0.0040535596
0.010736316 -0.010348311 -0.012200273
0.011697279 0.015864652 0.0020346863
0.013048277 0.00061849691 0.0022896265
0 0.013880089 5.2455889e-06
0.003 0.0088105975 -0.00057112443
0.0025182688 -0.0014767416 -0.015927052
0.0033087365 0.01520909 0.0037169335
0.0086071594 -0.01015162 0.011730067
0.0072314204 -0.0017666345 0.0093291728
0.0085000005 0.003083884 -0.0056773825
0.0042114193 0.00038514382 -0.0029741812
0 0.0096922712 0.00017753996
0.0075516277 -0.0090400027 0.010343888
0.0046998435 -0.013461242 -0.00074706925
0.0078593157 0.0076999152 -0.011954848
0.0043174783 -0.0094942134 2.9973278e-05
0.0005368712 0.010079917 -0.012419302
0.0055558588 -0.011494739 -0.0061835684
0.0090000005 0.0010867177 0.0087683937
0.011999999 0.015980884 -0.00011694439
0.0090860464 2.0998767e-05 -0.0037849271
0 0.00280923 0.015675284
0.0048961435 -0.0028727911 -0.0008447828
0.012 0.0095173046 -0.01275847
0 0.013213894 -0.0036335413
0.0065727294 -0.0094266674 -0.001144511
0.0036319629 0.0023822272 -0.0018141201
0.012 -0.011746885 0.0034643253
0.0090000005 0.0014341469 -0.0040858956
0.0061335363 0.0074008107 0.010695115
0.003 -0.0030017302 0.0029671825
0.011753147 -0.014166041 0.0074288086
0.0037291346 0.0094942134 -0.0001757633
0 -0.0074928259 0.0078941071
0.013 -0.0016735955 0.0023940303
0.0026197697 0.0085885255 -0.0051111938
0.012 0.010787816 0.0031553742
0.0035000001 -0.0066805561 0.0028293813
0.0020000001 0.0074328627 -0.0045304261
0.012 0.0087400116 -0.0051893494
0.0069441227 0.0025222532 0.0016144281
0.017298058 0.0029193326 -0.00068120623
0.0030217338 0.0031828445 -0.0089486381
0.019481814 0.0010923529 -0.0027934473
0.0083974022 -0.0008819194 0.0028657522
0.0030382231 0.0085561117 0.0037448222
0 0.0084415609 -0.0087735839
0.003034279 -0.0030527557 0.0089909062
0.0031828971 0.0080867987 0.013659443
0.0084185572 0.015012574 0.0022952177
0.0020896588 -0.0093782181 0.0041246535
0.0014853902 0.0045604492 0.01533382
0.020721652 0.0022926328 -0.0013508741
0 -0.0009954503 0.01272562
0.0066160043 0.0080093239 0.0050987415
0.0084230425 -0.015136303 -0.0013179597
0 -0.013632192 0.0032336588
0.0030219518 0.007092067 0.0060166949
0.0010527131 -0.0017904688 -0.0093249688
0.0011035423 0.014567537 0.0066088983
0.0020000001 -0.0010667238 -0.0097489851
0.0036504504 -0.0092224395 0.011913508
0 -0.012642793 0.0017449541
0.0046246727 -0.01135543 -0.0073854299
0.0192442 -0.0025410971 -0.0015873112
0.0085639833 0.010271057 0.01152835
0.0035000001 -0.0027682688 -0.0051646912
0.012 -0.015128386 0.0037215655
0.002485804 -0.0046709939 -0.0088420203
0.011999999 0.0031732854 -0.013950647
0.0035000001 0.002812207 -0.0039405199
0.0090000005 0.0084292786 -0.00049256644
0.0099444045 -0.00021100446 0.015994234
0.0035235893 -0.013799121 -0.0065793176
0.0085000005 0.0045309849 0.0027782894
0.0091800764 0.0055366065 0.01500971
0.0065518771 0.00027636712 -0.013075856
0.0011852995 0.0032844322 -0.0089128418
0.0089637116 -0.0067978585 -0.014480452
0.0027162405 0.0047465642 -0.0087953061
0 -0.011672333 -0.0020582571
0.010836186 0.0039646965 -0.00048755555
0.012 -0.0076619922 -0.011018664
0.00082788483 0.0081857042 0.0048164735
0.012 0.006998505 -0.0063980534
0 0.0029158026 0.011894494
0.0031002318 6.7633569e-05 -0.0029958289
0.0028094347 0.0099943168 -0.00013867662
0.0088859051 -0.0014818634 0.0093106385
0.00057636003 -0.00049575669 -0.015986685
0 0.0078690574 0.0065369383
0 0.0098923463 0.0088591333
0.0039688628 3.4314529e-05 -0.0094988029
0.012 -0.012556057 -0.0057257046
0.007155126 -0.0011834686 -0.0094221225
0.0046208533 0.0018992631 0.01341662
0.0027646567 -0.0086923623 0.0034058343
0 0.0096578225 0.012431806
0.011397941 0.010100716 0.012403481
0.0032088028 -0.0075894608 0.005679599
0.0082557332 -0.0052475976 -0.013950509
0.012 0.010441976 -0.0043948214
0.0080597848 0.00068824296 0.014549836
0.009387509 -0.015259682 0.004805705
0.0090000005 0.00091427827 0.0031844554
0.010401931 -0.0039461819 -0.0006258153
0.0062922873 -0.0074522765 0.0058890954
0.0043822927 -0.012788713 -0.0052659819
0.012 0.010246268 8.8598972e-06
0.0042059482 -0.01359038 0.0037691158
0.0072643487 5.8218382e-05 0.0094979675
0.0074123065 -0.002863548 -0.0090523837
0.0079190191 -0.011351425 0.0087344954
0.0088714985 -0.0092347553 -0.013026616
0.012 0.014093687 0.0071528228
0.0090000005 -0.0084679211 -0.0019692658
0.012 0.0146592 0.00050778157
0.0096831964 0.014419049 0.0069218278
0.0083033228 -0.014849542 0.0020213022
0.007863991 -0.0090318853 -0.0029443225
0.0010594245 -0.0010333509 -0.009437901
0.012 -0.0065358505 0.0081796749
0.0055825389 -0.001445935 -0.0026265332
0 -0.01077764 0.0074736937
0 -0.0078381654 -0.012283389
0 -0.0037016706 -0.014969938
0.0056769694 0.008731178 -0.0096639516
0.0083925324 0.011445651 0.0099115092
0.0035000001 0.0018002149 -0.0044247825
0 0.0030727929 -0.0092171552
0 -0.012200256 -0.0038844254
0 0.0084261652 -0.011840063
0.0022605369 -0.0010774235 -0.015959289
0.019070771 -0.0027215593 -0.0012519987
0.0023526442 0.0039988491 0.015488349
0.0090000005 -0.0087216124 -0.0027180591
0.0050193425 0.0084617659 0.0043089264
0 -0.0092157312 -0.0050284858
0.009332506 0.0053717378 -0.015065555
0.012 0.004083178 0.01291453
0.0090000005 0.0080369581 -0.0041770688
0.012 -0.0053143627 -0.013107497
0.0020000001 -0.0054941857 0.0045922054
0.010889748 -0.002575116 -0.0075688479
0.0020000001 0.0029365309 -0.0083574234
0.0033344366 -0.0094942134 -0.00030312836
0.012 0.0057629836 -0.012653716
0.0061170594 0.012063815 0.0048622568
0.010683461 0.0023641509 -0.0076418482
0 -0.013055448 0.0053831423
0.01337173 -0.00049557083 0.0022447577
0.0083230501 -0.0054657292 0.00776541
0.012127073 0.00063804461 0.0039486862
0.012 -0.002199115 0.011603533
0.0090000005 -0.0052590091 -0.006217414
0.0085000005 0.0052961842 -0.00031436302
0.0055681025 -0.0021876257 -0.0092394287
0.0027570112 0.0046793036 0.0061532739
0.0038713461 -0.014658913 0.00083034852
0.0083782235 -0.0029783826 0.00031031689
0.0090000005 -0.0076584504 -0.0032097751
0.012 0.013230294 -0.003366139
0.0061317091 -0.0011277703 0.0010466446
0.0081585087 0.0093510803 0.0016712742
0.0041477983 -0.0088116312 -0.0035494652
0.0079082502 -0.011019669 0.0091144554
0.0087654311 -0.0048227748 -0.0081785424
0.0017783786 -0.015683316 -0.0031389296
0.003 -0.0087893801 -0.0025120708
0.0045224344 0.0043141092 0.0084591489
0 0.0051210998 -0.008042532
0.0089242849 0.0054531498 0.0076488792
0.0087853214 -0.010800307 -0.011565465
0.0036968049 0.0082850559 -0.004641267
0.0046631671 -0.0092358021 0.002213608
0.0090236971 0.0071068816 -0.003660738
1.4508351e-05 0.010686145 -0.011900975
0.0032759658 -0.012292293 -0.0097886324
0.003423074 -0.01104096 -0.010822363
0.0020000001 -0.0044123493 -0.0074909395
0.0037982368 -0.014211031 0.004163688
0.0039401413 -0.0044908244 0.01385317
