# .PCD v0.7 - Point Cloud Data file format
VERSION 0.7
FIELDS x y z
SIZE 4 4 4
TYPE F F F
COUNT 1 1 1
WIDTH 1000
HEIGHT 1
VIEWPOINT 0 0 0 1 0 0 0
POINTS 1000
DATA ascii
0.0028637864 0.002192609 -0.006455278
0.0029999998 -0.0031395208 -0.008593427
0.012 -0.0099178981 -0.011263353
0.0034701212 -0.0020237733 0.015244057
0.012 0.0050829104 -0.0064728353
0.0076475786 -0.0026899781 0.0013198376
0.0022209177 0.010071225 0.0018838564
0.010888657 -0.003259954 -0.0073004127
0.0056938906 0.0083607566 -0.0045071738
1.0757445e-06 -0.0089718886 -0.0031112859
0.0057269447 -0.013009142 -0.00043597695
0.011999999 -0.0039617592 0.013825743
0.0067836735 -0.0087284921 0.0098507162
0.0072191679 -0.0036599194 0.0087632099
0.011826306 -0.013172538 -0.0090741199
0.011999999 0.0012092508 -0.0092527205
0 -0.0043901107 0.015206398
0 0.0071933493 0.0075873132
0.0019999999 -0.0041729081 0.0079695461
0 0.0046633738 -0.012763578
0.011710963 0.0044360799 -0.0066570155
0.0029999998 0.0011216031 0.0087181842
0.011999999 0.014922951 -0.0011902954
0.0049174419 0.0015704437 0.0025508353
0.008809628 0.014779594 0.0057679117
0.0089999996 -0.00063409447 -0.0086843614
0.00057821954 0.015057583 0.0053936387
0.0085226484 0.0019195764 -0.0092983022
0.0034999999 -0.0018895791 0.006429824
0.0019999999 0.0028882462 0.0085049691
0.016407268 -0.0029714194 -0.00036954298
0.0029999998 -0.0086493455 -0.0037939558
0.0097741466 -0.011329076 -0.01129545
0.0048323069 0.0012862212 0.0027070739
0.016146054 0.0013502555 0.002677961
0.0025451791 0.0074709621 -0.0038095019
0.00035320135 -0.012770913 0.0096291183
0.011999998 -0.0094447499 0.007621428
0.0076012528 -0.0092454879 0.002163325
0.010168892 -0.0069548339 0.01440339
0.0016416936 0.0028235316 -0.0090671908
0.0086586699 -0.0094783511 0.00061994389
0.0084999995 0.0045222985 0.0027090737
0.011999999 0.011021436 -0.0055419463
0.0015391314 0.015971726 -0.00092334166
0.0052128118 0.0091437222 -0.0025714852
0.0038209488 0.0040426729 -0.0085927965
0.019817777 0.0015837809 0.0025431353
0.0084055727 -0.0065431902 -0.0068798242
0.0034426199 0.0089713661 -0.0031128947
0.0024599256 0.014839511 0.0059754765
0.002278744 -0.0089294557 -0.0050222296
0 -0.003635077 0.011893449
0.0034999999 -0.0040215389 -0.0061177523
0 -0.011914453 0.0019845618
0.0033397523 0.0017631555 0.0093315495
0.0090000005 0.00098813651 -0.0030018794
0 -0.001030053 0.0098655662
0.0011065115 0.0080531416 -0.013819067
0.011861536 -0.001315647 -0.015941888
0.011999999 0.0066941837 -0.0098182056
0.0080247931 -0.012564597 0.0072459476
0.0069363178 -0.0034780407 0.01277048
0.010117407 0.00142177 -0.0037334012
0.0075824074 -0.0024480806 -0.0091748489
0.0082292221 -0.0028922427 -0.0090474878
0.0020883873 -0.0029557096 -0.0084409844
0.0084324609 0.0010032589 -0.0094465194
0.0055164783 0.00089231995 0.0028592658
0.0035000001 -0.0011279102 0.0078734802
0.0030307965 0.0031627417 -0.00017703508
0.0089999996 -0.0032257875 0.0086697834
0.012 -0.01055372 -0.0053812028
0.0014723276 0.0078542139 0.013933917
0.0057884748 1.7326247e-05 -0.013012337
0.0032886509 0.0138267 0.0074238549
0.0079979021 0.010606515 -0.009827449
0.008217074 -0.010716707 0.010261021
0.0090637263 0.01590916 0.001698385
0.0021771574 0.00028964135 -0.015995543
0.0089999987 -0.0035582548 0.0013830436
0.011999999 -0.0090971496 0.0099970764
0.00062934076 -0.010062235 0.01243764
0.0084999995 -0.0073907995 -0.0014765975
0.012 -0.00085189141 -0.011401751
0.0017873899 -0.0016252705 0.015914362
0.0057282755 0.0041853483 -0.0085274726
0.0084999995 0.0061244597 0.0043185344
0.005112268 -0.0087529244 0.0098884478
0.0022493212 -0.0033533594 0.0067721461
0.00079733477 -0.0087419115 0.0037074988
0.0025417469 0.008919308 -0.013278291
0.0052439389 0.00044863982 0.0094860252
0.0030683982 -0.0086776502 0.003866114
0.0034999996 -0.0043424102 0.0046151811
0.0087950956 0.01548979 0.0033117237
0.00726802 -0.0083544208 0.0045181452
0.0084999995 0.0043592304 0.0052890447
0.0061500906 0.0013017363 -0.00098049303
0.0065841731 0.0013136144 0.0094029028
0.011999999 -0.0054507744 0.014625477
0.0027008844 -0.0028258248 -0.0053468132
0.0085747512 0.0044850791 -0.0083681038
0.0046636933 -0.005240466 0.012452523
0.0075438726 -0.0084169311 0.010843815
0.0084999995 0.0065344134 0.0031296462
0.00035362193 -0.0070131868 -0.014375699
0.0087327771 -0.0084795626 0.0042624176
0.0076222993 -0.0045908657 0.013051838
0.011999999 0.0074643744 -0.0089392057
0.0042676185 0.0026955211 0.0013052026
0.0035000001 -0.0012708218 -0.007026874
0.0098750927 -0.005520917 -0.015013549
0.010917986 0.0055510402 0.00575316
0.0009760398 -0.0081534376 -0.0048662578
0.012 0.0022106734 0.011981376
0.010140019 0.010426058 0.012135632
0.011999998 0.014329886 0.0021457854
0.0053130467 -0.011184022 -0.0068649161
0.0017744754 -0.0042687207 0.015415223
0.0041397512 -0.0090587568 0.010957509
0.0099239228 -0.0052634524 -0.015103363
0.007615455 0.0094997203 8.0265736e-06
0.011999999 -0.0083980318 -0.01311872
0.0091157081 -0.013937242 0.0078557776
0.0058908109 -0.00095191627 0.0094508324
0.0021508792 0.0096664876 0.0025575133
0.0077398904 -0.0070328172 0.012115629
0.0084431442 0.0070979879 0.0063057654
0 0.010168707 0.0035268953
0.011999998 -0.0052097104 0.0076238089
0.0027730456 0.0056366697 -0.0085563613
0.0085725542 -0.014823674 -0.0043669892
0.0087232143 0.0073145945 0.013906841
0.0034273942 0.010984086 -0.010866413
0.011999999 0.0067734928 -0.0087723583
0.007662659 0.013280245 0.0040863659
0.0064347745 0.0086547453 0.0097679729
0.0089999996 0.0092845736 0.0012161724
0.00040388762 0.0094655575 -0.00077021174
0.0045598317 0.0050199176 -0.012656145
0.011999999 0.00037347662 0.012772687
0.011999999 -0.0033361192 -0.014846643
0 -0.0085227732 -0.009544774
0.0028467143 -0.0038014634 0.015537038
0.0089999996 0.0038088944 -0.0073224222
0.00035731291 -0.0094958618 -0.00011851361
0.0089999987 -0.0070490586 -0.0049553807
0.011999998 -0.011700387 0.0028836809
0.010807689 0.0085635344 -0.013510011
0.0041815359 -0.0044616484 0.013425597
0.010607249 0.013085839 -0.0091968784
0.009581957 0.0072978856 0.0032634831
0.0080547351 -0.0025806651 -0.0015234043
0.0084999995 -0.0053740586 -0.0039061597
0 0.013308442 -0.0050734207
0.0024958323 -0.013779859 0.0081201112
0.010760281 -0.013713181 -0.0082321027
0.0029999998 -0.0061687846 0.0063870717
0 -0.0055095199 -0.0096788639
0.0075852904 -0.0092040198 0.0023296413
0.0042292108 -0.010894587 -0.008898857
0.011999999 -0.0084532192 0.008641948
0.003 -0.008915537 -0.00036487807
0.0069447523 0.0013159743 0.0026944806
0.011999999 -0.014349578 0.0059182206
0.0047427006 0.008096694 -0.0049645398
0.0089999996 -0.0043285494 0.00086618104
0.0092296451 -0.0055441125 -0.015005457
0.0042009321 0.010500606 0.0094291102
0.0089999996 0.008987546 0.0028821332
0.0044999998 0.00098362297 0.0015273768
0.007750696 0.00066269888 0.0012847885
1.1862239e-05 0.007004105 -0.01438156
0.021 0.0020336625 -0.00016185724
0.0024862576 0.01346931 -0.0086256303
0.0081145167 -0.00010429429 0.0094942134
0.0017790654 -0.0092172548 -0.013072231
0.0029999998 0.0080774454 -0.0017859066
0.0052318601 -0.0013700434 0.002662787
0.0011542891 0.0029437859 -0.015723154
0.0029999998 -0.00084282219 0.010031295
0.0084999995 -0.001206157 -0.0070926626
0.0068201199 -0.0053712507 -0.012032492
0.0062858975 -4.7786714e-05 -0.013018754
0.011372785 0.01020796 -0.012313705
0.003 0.00066935126 -0.0099541461
0.0092980834 -0.015939385 0.0013684508
0.0032268297 0.0006839952 -0.015783235
0.0080889538 -0.0026459834 0.014372142
0 -0.0094625894 0.0061172964
0.0014688541 0.002690251 -0.015770033
0.00078404037 0.0035873107 0.015591778
0.0081220623 -0.0070976098 -0.012841133
0.019876655 -0.0011603422 0.0027658937
0.0047448045 -0.0071398788 0.0062592407
0.0089999996 0.0075480253 -0.0027901041
0.008851218 0.00014467626 -0.015936196
0.0081075523 -0.0094441464 -0.00097392179
0.0071133981 -0.0075856368 0.0057119853
0.0068415822 -0.0093700411 0.0015348542
0.011218125 -0.014850631 -0.0059396601
0.00071033789 -0.0098219924 0.012623269
0.011999999 0.009959545 -0.0098883361
0.0083711902 0.0071327807 0.0062671234
0.00077761564 -0.0094886711 -0.00032442738
0.0029999998 -0.0035514219 0.00086708419
0.00033167831 0.0042497884 -0.015420885
0.0036991774 -0.014970284 -0.00062514393
0.011999999 -0.0020737702 -0.0085118702
0.00030829967 -0.0047617131 -0.015272425
0.0036240155 0.00028878235 0.0027151192
0.006951103 -0.0096940724 -0.0090205353
0.014737338 0.0018947236 -0.0016841341
0.0029391558 0.0032013012 -0.0071379524
0.0070248479 -0.0026160136 -0.0091266949
0.020415319 0.0024882245 0.0016150626
0.00019915769 -0.0081114899 0.013787984
0.0058121765 -0.0094461907 -0.0009544894
0.0042523155 0.00056185306 0.009478109
0.0019999999 -0.0054234727 -0.0082303872
0 0.0076703867 -0.0089352485
0.0088079134 -0.0095108561 -0.012691608
0.00054314232 0.0076630875 -0.0056128539
0.011080279 -0.0042911097 -0.015408738
0.012 -0.0015086533 0.011852598
0.003763688 -0.013499724 -0.0062301494
0.0095794164 0.014849795 0.0059513384
0.011999999 0.009449644 -0.012494876
0.0068255807 0.013039049 0.0019072223
0.0084999995 -0.0030156476 -0.005976236
0.0029999998 -0.0038361207 0.0014485209
0.0081399484 -0.0073876637 0.0059653805
0.0088266591 0.0042484323 0.0021137421
0.0062474948 -0.0067840968 -0.0066471836
0.0046334942 -0.0089168753 0.0032744512
0.0012068414 0.0064997207 -0.0069218017
0.0022324591 -0.010126983 0.0015533059
0.0019999999 -0.0064149839 0.007581919
0.0048907665 0.0017089702 -0.0024616329
0.0012792276 0.015106002 -0.0052606114
0.0075799832 0.013772774 0.00027475669
0.0049881516 0.010887967 0.0075998758
0.0089999996 -0.0083197942 -0.002763703
0.0070955232 0.0024920146 -0.013092499
0.012 -0.00058842287 -0.0097094169
0.0094390605 -0.013766635 -0.0081423242
0.0029999998 -0.0021511842 -0.0036788194
0.0084999995 0.0020405268 -0.0063913427
0.0060434532 -0.0094657158 -0.00076870091
0 0.0098767746 -0.011805081
0.0017651804 -0.0035173504 -0.015603032
0.0074071926 0.0053710449 0.012476027
0.011605745 0.0012181969 0.0079021286
0.0019999999 -0.0052739927 0.0078574643
0.0034999999 -0.0065828077 -0.0046769967
0.011999998 -0.003179583 -0.012397748
0 0.00097298797 -0.0096876053
0.011999999 -0.0012535974 0.0146763
0.0063136779 -0.012991701 0.00088929455
0.0048273099 -0.0080741234 0.0050036344
0 -0.01002172 -0.0043484494
0.0086090891 -0.0044409991 0.0068281349
0.015555897 0.00069675775 -0.0029149081
0.0078819087 0.014214479 -0.0010723575
0 0.01320925 -0.0058357231
0.0084867328 0.0015629224 -0.0093678636
0.0085533839 0.0089528728 0.0031698099
0.011999999 0.0092198523 0.0075422945
0 0.014642492 0.0037365737
0.0076105753 -0.0045958939 -0.0083091808
0 0.015828487 0.0018419317
0.011999999 -0.0040467009 -0.010887237
0.01058879 0.015885806 0.0018780332
0.0010311827 -0.0026593585 -0.015772054
0.010038888 0.015753603 -0.00277269
0.0012163019 -0.0025872588 0.0091349408
0.0066891462 0.0070255678 0.0063861953
0.011999999 -0.014425875 0.0063598473
0.0019999999 0.0064559905 0.0071664234
0.010318728 -0.012091151 -0.010472939
0.0056688013 0.0065066959 -0.0069150669
0 0.01336863 -0.0044070547
0.0088131279 -0.0098651145 -0.012429263
0.0037011295 0.0086069331 0.0040111057
0.0027614643 0.0040890318 0.0091211041
0.0044425093 0.011891601 0.0068870327
0.00075421331 -0.0094594248 -0.00082856027
0.0011999951 0.014098855 0.0075578806
0.010079106 -0.015952414 0.0012075744
0.0061747339 -0.0013771211 -0.0026592629
0.011999999 0.01278769 -0.0019957314
0.0034213585 -0.0071905539 -0.0038243986
0.0044999998 0.00029278602 -0.0017416612
0.0089999996 0.0061618318 0.00653545
0.00092942553 -0.0059051337 0.014865296
0.0088469684 0.0025945448 0.0015780852
0.0011607066 -0.0015472248 -0.015923839
0.0081762075 -0.0048937276 0.0081374319
0.0040720734 0.0079504075 -0.0051914579
0.011999999 -0.0099641019 0.003611427
0.00061468111 0.0050342148 -0.0080496445
0.0078981351 -0.0020694539 0.0092664436
0.019181762 0.0029879734 -0.00019499364
0.0077827019 0.0030213506 0.0090038488
0.011999999 -0.0025122075 0.013760509
0.0028426892 -0.0026133996 -0.0081107663
0.00053121336 0.0018536958 0.015890401
0.0042108651 -0.0016944697 0.0093461489
0.00061371963 -0.014406933 0.0069540627
0.011999999 0.0033269678 0.0075620818
0.0073748743 -0.0036509677 -0.0087671941
0.0081761545 0.0056213546 0.013654121
0.0018509756 0.0078724688 -0.0053070071
0.00019514959 -0.012694998 -0.0097301472
0.0067100278 -0.0045158924 -0.0083517181
0.010510987 -0.0051162606 -0.01515471
0 -0.0059953914 0.014473763
0.0021785074 0.006860577 -0.0046559125
0.0084024547 0.011180444 -0.010236776
0.0097217355 -0.0071116621 -0.0036550793
0.0019999999 -0.0085634822 -0.0054381476
0.0066943611 -0.013120104 0.00038130331
0.0025584868 -0.003101496 -0.0097673442
0 0.015545359 -0.0019284945
0.0030967351 -0.0076373522 0.0028325494
0.0089488812 -0.0059518856 -0.0073995902
0.0035517965 -0.00013959917 0.0094942134
0.0062247766 0.0044774949 0.0083721355
0.005014387 0.0018237816 0.0023749312
0.0019999999 0.00056207401 0.0095881391
0.0043572523 -0.0067661759 0.0066644894
0.0089999987 0.0017634286 0.0034057987
0.0045516151 -0.0077029718 0.011238268
0.0089999996 -0.0063832412 0.0061411383
0 0.012137308 -0.0042714784
0.0084999995 -0.0058254553 0.0028328062
0.0070551201 0.0027251453 -0.0012408119
0.0069258367 -0.006321854 -0.011619049
0 -0.011466983 0.00080433517
0.0020067003 0.0050847041 0.0057049789
0.011999999 0.004022459 0.0093425773
0.0078198025 0.01204818 0.0074153151
0.0066562574 0.0085233701 0.0041824346
0.0098877959 0.0092229582 0.013069891
0.014770571 0.0011194519 0.0023130437
0.0036247107 0.0071067349 -0.0062960503
0.010988344 -0.0075161234 -0.014118711
0.0086184982 -0.00030460744 -0.0094942134
0 0.0080282157 0.0065778671
0.0019999999 0.0098292558 0.0011630032
0.0099280225 -0.0028376791 0.015740611
0.0072477153 0.0029718715 0.0090218587
0.0084879436 -0.0100252 -0.011565202
0.0028457416 -0.0052801855 -0.015097525
0.003622625 0.00013695353 0.0094942134
0 -0.0027766689 0.015626714
0.010750116 0.010077452 -0.012420261
0.0070721065 -0.0028849056 0.00080576638
0.0029655816 -0.0081189796 -0.00070455007
0.0034491364 -0.0010232215 0.002584035
0.014546703 0.00046587343 0.0023009083
0.0078023188 -0.0090630781 0.0028306295
0.0094042132 0.0079106512 0.0011875983
0.0089999996 0.0033380114 -0.007516271
0.012 0.0031193935 0.0094239339
0.018902518 -0.0025873522 -0.0015109511
0.0088878926 0.015199735 0.0049906052
0.011999999 0.012341303 -0.0080698617
0.011999999 0.015118937 0.0010552537
0.0058259289 -0.0094543165 0.00087715109
0 0.013612032 -0.0061308276
0 0.011870442 -0.010146988
0.0011986219 0.014665967 0.0063828034
0.0089999996 -0.0045814798 0.00078496494
0.0041899886 0.010225141 0.0097522857
0.0089999996 -0.0027608674 -0.0080407485
0.0029999998 -0.00366878 -0.0085057756
0.0029999998 -0.0089988103 0.0017220038
0.018222194 -0.0029943101 0.00015575258
0.011851277 -0.0078026508 -0.0017408853
0.0018863266 -0.00032388896 0.015991326
0.0069477237 -0.0018047083 -0.013116431
0.0084999995 -0.0049942164 0.0014648059
0.0025929681 -0.012820952 0.0095625287
0.0019999999 0.006297166 0.0061550522
0.0087529123 -0.00089693541 -0.0094476994
0.0055785421 -0.0066525815 -0.0067741876
0.0010047221 0.013484472 0.0086016562
0 0.00047394144 -0.011903979
0.0081725717 0.0078646839 0.0053185495
0.0029019052 0.010227492 0.00067324057
0.0072333063 -0.00010151927 -0.0094942134
0.010578102 -0.0077558411 -0.0019434447
0.0019999999 0.0093593281 0.002989731
0.010287303 -0.0057850173 0.014914578
0 0.012888724 0.0052639628
0.0021999383 0.007944881 -0.0023079019
0.0072550476 0.0087374123 0.0037186362
0.0082515813 -0.01392426 -0.0052904645
0.0022824702 -0.0078973444 0.00126422
0.008634883 0.0022626878 -0.0019643439
0.0029999998 -0.0043477411 -0.0076529784
0.011999999 -0.0095339091 -0.0015160275
0.0026962992 0.0090576038 -0.0042273342
0.00068114139 0.0090672951 -0.0028176489
0.0042167702 0.0059796935 -0.012753258
0.0045482717 -0.0083299167 -0.010785769
0.0053121424 0.0076408321 0.0056413393
0.0089999996 0.0077962927 0.0048056026
0.0034999999 -0.0028162638 -0.0065004658
0.0032500036 0.001840853 -0.0093083093
0.0056018583 0.0006859398 0.00946943
0.011999998 -5.1844974e-05 0.011981117
0 -0.0039720652 -0.0092746643
0.0014327234 -0.015463936 0.0040875711
0.0066682352 0.0014334176 -0.00018954011
0.008921477 -0.0091377795 0.0021820196
0.007198703 0.0091423653 -0.002576927
0.003 -0.0073335739 -0.0055378145
0.0026234414 0.0034196554 0.0093918452
0.01189344 0.0011178404 -0.015959762
0.0032959301 -0.0098174904 0.012228035
0.0019884279 -0.0035581023 0.0088084871
0.012 -0.0068858131 0.0058581624
0 -0.0072497153 -0.0098405266
0.0089999996 0.0086642904 0.0011180694
0.0096315043 0.015946545 0.0012352822
0 0.0056359121 0.012752156
0.0024276136 0.009985053 -0.00043238662
0.01084462 -0.0074153384 -0.0029870339
0.000562781 0.007256906 -0.006129269
0 0.0060503716 0.010305149
0.010978079 -0.0026657134 -0.0029750401
0.0029999998 -0.0027921931 -0.0091934688
0.010216341 -0.01315261 0.0091038346
0.0019999999 -0.0037789713 0.0080281952
0.0056264726 0.0079444144 -0.0052003441
0.0082125589 0.0094190389 -0.001212805
0.011100847 -0.0047239773 -0.015283355
0.010876833 0.014891851 -0.0058489856
0.0054644807 -0.012819943 0.0025634242
0.0038908748 -0.011197267 -0.0094472338
0.011999999 -0.0061959662 -0.0086964266
0.00098674127 -0.0052805236 -0.0078957342
0.0064870217 0.0029958494 -6.7299654e-05
0.011999999 0.0062588132 -0.012273875
0.01007932 0.00034675837 -0.015993241
0.0069098338 0.0044091502 -0.0084084757
0.0032805717 -0.011187346 0.011028489
0.0084999995 0.0026210775 -0.0057668122
0 -0.013883011 -0.0057966867
0.013866636 0.0011348602 0.0019941302
0 -0.010008036 -0.010725434
0.011999999 0.010852959 -0.0096518826
0.010084918 -0.0077475207 0.0019794477
0.0035538124 0.0068386318 -0.0065938099
0.0066800332 0.012865947 -0.0025727751
0 0.007268161 0.0093905227
0.008664716 -0.013340765 -0.0081066433
0.0074868356 0.0055913897 0.012469731
0.0058582039 -0.010693396 0.0074044405
0.0035300085 0.012266885 -0.0091064256
0.0069031985 -0.0040221144 -0.0086019505
0 -0.0049478789 -0.014510674
0.0040054638 -0.010554249 -0.0098736752
0.0081066415 -0.00089883682 0.0094545446
0.0045731012 0.013191382 0.0033178446
0 0.0042040376 -0.012969564
0.016775591 0.0024613473 0.0017127196
0.0089999996 -0.0077426094 0.0042015291
0.0084999995 0.0075006443 -0.0028734929
0.010006405 0.0066360715 0.014553782
0.0082958387 0.01275154 0.007849955
0 0.009375426 0.0090219369
0.0078155603 0.013255974 -0.0049242917
0.0043480657 -0.013602127 0.0027599104
0.0042323628 0.013390943 0.0042733708
0.013 -0.0019104476 0.0021115008
0.0071056862 0.0043301834 -0.01260834
0.0030294266 -0.0073146233 -0.0057731862
0.0080159251 0.0063178441 0.013037056
0.0068838722 -0.011808566 0.0059131887
0 -0.0043740217 -0.013057872
0.012999999 0.003096875 0.0013052416
0.0089999987 0.0063119684 -0.0066803931
0.0048553059 0.010931402 0.0076776268
0.0019999999 -0.0054635108 0.0079100225
0 -0.0099866949 7.8192272e-05
0.0097622732 0.0012893506 -0.015943596
0.00094916573 -0.0076922374 -0.01402324
0.003654008 0.0091572199 0.0025173456
0.006383663 -0.009219218 0.002268686
0.0035000001 -0.005982928 -0.003180346
0.0029999998 0.0070231422 -0.0063893818
0.0033093896 -0.0087347217 -0.0037252954
0.0089999996 -3.9336628e-05 0.0091363434
0.011999999 -0.0054092314 -0.0096692573
0.0027014231 -0.0083757518 0.013625799
0.0012431007 0.0043596025 -0.0084348209
0.0088784173 -0.0013729675 0.00933199
0.0046695122 0.0073834113 0.0059708236
0.011999999 0.014544532 0.0027898895
0.012 -0.01327712 0.0041735056
0.0030482512 0.0092012389 -0.0016893294
0.0031293919 -0.0074171415 0.0058367387
0.0037152839 0.0083036795 0.0046060309
0.011999999 0.0055618612 0.0070775868
0.0034999999 -0.0034316231 -0.0066271368
0.011566912 0.014381244 -0.0069998899
0.0056517189 0.011971439 0.005144462
0.013629974 -0.0016907951 -0.0015544377
0.011827488 0.0076404796 -0.0023691959
0.0034999999 -0.0057211481 0.0030320212
0.0045315116 -0.00241761 0.0091835866
0 -0.015452028 -0.00074365514
0.010611479 0.015981689 -0.00068186136
0.011999999 0.0071959505 0.013868688
0.0019999999 0.00088176655 0.0095916027
0.011700164 -0.0017525502 0.0078004776
0.0075153066 -0.009484916 -0.0004319392
0 0.010703531 -0.0097018899
0.0089999996 -0.0078616524 0.0026063772
0.0041955463 0.00083640317 -0.0094589116
0.0055693691 0.00040698185 -0.0029669954
0.0034999999 0.0044375192 0.0020181118
0.0078288605 -0.010657952 -0.0093265995
0.0042756833 -0.0090972949 0.0027253225
0 0.0038850713 0.0095286658
0 -0.0082069803 -0.0084526613
0.0033631523 0.0079976385 -0.0051214364
0.0019999999 0.0065823416 -0.005056208
0.0051807528 0.00088124379 -0.0094557749
0.0068618683 -0.011967653 0.0055492949
0.0039190189 0.011328344 -0.0092143994
0.0089999996 0.0023336909 -0.0026292433
0.00061233941 -0.0096961977 0.012720467
0.0085501093 -0.0045672366 0.0083244191
0.008542954 -0.0015519427 -0.0044835336
0.0019999999 0.0013012674 0.0085792076
0.0086996611 0.0086803669 0.0038598268
0.003 -0.010135219 -0.0012276107
0.0062133246 -0.0011013013 -0.002786699
0.012502206 -0.0011223039 0.0038335558
0.020179618 -0.00041293056 0.0029688743
0.011999999 -0.0062009329 -0.005998035
0.0075284 -0.0076123285 -0.005677822
0.0024934593 -0.0037846304 -0.0077653751
0.0068611619 0.0022085041 0.0020293512
0.0044518458 -0.01364711 -0.0015403173
0.0042483658 0.011446926 -0.0081127388
0.0084999995 -0.0033056356 -0.0052812188
0.003 -0.0069792676 -0.0056550391
0.011999999 0.0023321449 0.010288362
0.0029999996 0.0091649191 0.0037125966
0.0018954842 -0.00052432343 -0.0094807325
0.012529893 -0.0023113831 0.0032576907
0.010805311 -0.0046446826 0.0065118717
0.0042872885 0.0028992493 0.00076362188
0.011999999 -0.0082830125 0.00060495781
0.0091593014 0.0079137273 -0.0011606266
0.0051364331 0.0092718592 -0.0020575526
0.012999999 0.0026105777 -0.0020343012
0.0087336395 -0.0037549003 0.015275616
0 0.015594247 0.0011470362
0.0050668535 -0.012791904 0.0033989903
0.011999999 0.0075933659 -0.013992022
0.011999999 0.011074292 0.00039088077
0.011756971 0.011657473 0.010957599
0.0072883544 -0.0016849601 0.013368219
0.0082964348 -0.011029847 -0.010128858
0.0087422058 0.01558206 0.0022592291
0.0016821347 -0.005484459 -0.015026267
0.00058255059 -0.015533453 0.0038349296
0.0084663415 -0.0088959904 -0.012411091
0 0.013622888 0.0055178674
0.0029098832 0.005186914 -0.008549558
0.0019999999 -0.0090630967 -0.00054185692
0 0.012120062 0.0081863608
0.0010676919 0.0092379237 0.0021936635
0.0086287307 0.003283856 -0.015198919
0.0088310195 -0.0036563931 0.0072793476
0.0032907103 0.0036616775 0.015257504
0.0029999998 0.0073572639 0.0029136289
0.0019999999 -0.008386571 -0.0051118955
0.0034999999 0.0027200521 -0.0048902477
0.0079067284 0.0017985414 -0.0093240282
0.0086583886 0.0028216641 -0.0010075058
0.0029999998 0.0051278723 -0.0074283914
0.0029999998 0.0098106107 0.00044414884
0.00092076289 0.0040249727 0.0086006774
0.0029999998 0.0081056077 0.00027204864
0.0063364701 -0.0094930502 0.00019903062
0.00073424145 -0.0059337439 0.0074148136
0 0.0012778861 0.012904226
0.0071000126 -0.0021784557 -0.009243275
0.0047653411 0.001178366 0.001051721
0.0021920612 0.013056705 0.0092379013
0.0009064367 -0.0018930238 0.015881849
0.011999999 -0.0066936552 0.0075920024
0.0059696934 -0.0017883694 0.0093261907
0.004021157 -0.0021790459 0.0092431493
0.0082691479 -0.011850661 -0.0090754302
0.0023682863 0.0082600052 -0.0056276764
0.00038884557 -0.0012348447 -0.01594732
0.0019999999 0.010075174 -0.00072467112
0.0040639821 0.012231797 0.007501679
0.0084999995 -0.0028629093 0.005527155
0.0078437394 -0.0070214001 0.012329163
0.0069143292 0.0015805294 0.0025450124
0.0056017949 -0.0047679464 0.008216029
0.0049537374 -0.0024848024 0.0091643194
0.011999999 0.0030152784 -0.013589538
0.0055644754 -0.0095900921 -0.0088501172
0 0.0030817052 -0.0098143052
0.0031917435 0.0018420359 -0.00437694
0.0059918361 -0.0087616881 -0.0036585522
0.0057776505 -0.0037410604 -0.012463227
0.0062280549 0.0012362973 0.0094137676
0.011999999 -0.010368874 -0.0043971813
0 0.0041591274 -0.0093982909
0.01600852 -0.0015632525 -0.0025561634
0 0.010921099 -0.0022312386
0.012 -0.006082281 -0.0059511326
0 -0.0061964127 0.0076366798
0.011999999 0.012265694 0.0032642346
0.0011966251 0.0046962025 0.0082558468
0.0048024198 -0.0062722922 -0.011843716
0.001984264 -0.0090638623 -0.0028282234
0.006486888 -0.0066964109 -0.011216811
0 -0.013205185 -0.0077338442
0.0019999999 -0.0065246043 0.0060735107
0.0035000001 -0.00035224162 0.0063707754
0.011999999 -0.0098495595 -0.0035348779
0.010806332 0.0037909066 -0.0070402469
0.0050843651 -0.0016372505 -0.0093574189
0.0097890077 -0.0079529481 -0.00084755075
0 0.0065141642 -0.013105743
0.0071880412 -0.0048122858 -0.0081883203
0.0040345043 0.0051914658 -0.0079513835
0.0019999999 0.0061156419 0.0074506104
0.0033624335 -0.013370775 -0.0079644136
0.018201271 0.00039829619 0.0029683439
0.011619672 -0.013239176 -0.0089747487
0.0091897147 -0.010807275 -0.011796647
0.018295323 0.0027083922 -0.0012772259
0.0044999998 -0.00086060225 0.0015438931
0 -0.0044351732 0.010070354
0.00286053 0.0076329531 0.0021483479
0.0029999998 -0.0013787351 0.0097243926
0.0052171792 -0.0021733788 0.0092443535
0 -0.012708371 0.00014809251
0.0063133677 -0.00050705718 -0.002954229
0 4.7243539e-05 -0.014512888
0.0071075284 -0.010410055 -0.0083361398
0.0005382339 -0.0093790032 0.001484029
0.0033290694 0.0077977455 -0.0054177889
0.0079266001 -0.0036335953 -0.0087749287
0.011741617 -0.014235715 -0.0072928001
0.0089999996 -0.006398554 -0.0058954675
0.005162661 0.0092780422 -0.0020327561
0.014730729 0.0009570109 -0.0023374022
0.0034999999 0.0046503558 -0.0064623957
8.1167578e-05 -0.0089827618 -0.0030778206
0.0060626804 -0.004252431 -0.0084918039
0.0098374179 -0.007869849 -0.0014218421
0.0077201226 0.011213696 0.008346905
0.0052663409 -0.0086863162 -0.0038451031
0.011999999 -0.011884855 0.0095965294
0 -0.010719281 0.0023738842
0.0033129775 0.014846646 -0.0049597393
0.007975569 0.0090085166 0.0029985541
0.0097460346 0.005313688 -0.0059764604
0.0019999999 -0.0065465169 -0.0071601584
0.0019999999 -0.0073341508 0.0070669227
0.012 0.011101456 -0.011307893
0.0033774215 0.0029565615 0.015254891
0.0023234556 0.013692985 0.0082719196
0.0084999995 0.0046476084 0.0033380231
0.0038428302 -0.0021155472 -0.014583399
0.0079088444 -0.0085845655 0.011440417
0.0052986369 -0.0081844451 -0.010265897
0.0034999996 -0.0039345175 -0.0065923026
0 0.0041195252 -0.011044437
0.0021337799 -0.0012317616 0.010170847
0.0069148554 0.0014159062 0.0026400576
0.0089999996 -0.0019563849 0.0087842252
0.008327987 0.0077710929 0.012866183
0.0024787255 0.0060797981 -0.014799662
0.0034067405 0.0038109072 -0.015011496
0.00024358959 -0.012530431 -0.009949144
0.011135703 0.0047795679 0.015263633
0.011304338 -0.0031848436 -0.0024109639
0.00079898332 0.0083728302 0.0044862605
0.007618444 -0.00056603923 -0.0029413118
0.0037963034 -0.0018673247 -0.014694619
0.011999999 -0.015301278 0.0025459563
0.0056205499 0.00048713177 -0.002954554
0.004716279 -0.004341959 0.0084442012
0.015009994 0.00038878404 0.002779095
0.012 -0.0048687099 0.0093727112
0.012 0.0011780277 -0.011222477
0.0065000001 -0.0014411478 -0.00045188356
0.0066728643 0.00060182443 0.0094753141
0.0019999999 -0.0064176992 -0.0077447463
0.003 -0.008424758 0.00075556687
0.0020805765 0.015999043 -3.562251e-05
0 -0.0020341617 -0.010578166
0.0067943372 -0.0033798334 0.0088733714
0.0066398489 -0.0030446067 0.012746599
0.0053254245 0.0052923681 0.0078883329
0 -0.0031818547 0.011658708
0.0023707242 0.0078916671 -0.0025349017
0 -0.0070199068 -0.012715912
0.0032845167 0.013824821 0.0074418364
0.0034304434 -0.011207984 0.010629195
0.0050924676 0.0064019873 -0.0070161833
0.0029999998 -0.0074802856 -0.0041140765
0.0072226045 -0.0093318 0.0017517272
0.0049511292 -0.0046701734 0.012451596
0.012 -0.0025358056 0.0087824957
0.0059444434 4.83937e-05 0.0094942134
0.00051562407 0.0086385719 0.013461136
0.0038624508 0.012496283 -0.0077408794
0.0083975121 0.005447648 -0.0077775447
0.012 -0.0042672832 0.0095877238
0.0041986709 -0.012623467 -0.0063208286
0.011999999 0.0082096234 0.012813762
0 0.009774277 0.00068875583
0.0071047205 0.0089227427 0.0032599284
0.011999999 -0.014879483 0.0027030958
0.009307255 -0.0039751842 -0.00039199658
0.0029999998 0.0040912717 0.0088568423
0.0084999995 0.0058237636 -0.0024161004
0.0023910133 -0.0043221894 -0.0058592674
0.0077196658 0.00047526133 -0.0094841635
0.0060821879 0.0094796717 -0.00058212841
0.007011184 0.0028779558 0.00083055586
0.011999999 -0.013276871 -0.0052234856
0.0019999999 0.002413562 0.0086492216
0.0028788801 -0.0028892886 0.0095704431
0 -0.0073881131 -0.013008974
0.0083339168 -0.014807764 -0.00263758
0 0.0039389092 -0.013802628
0.0065976842 -0.009297126 -0.0019483729
0.0065326267 0.0088997884 0.0033167426
0.017447205 0.0017899355 0.0024004907
0.0084999995 -0.003179156 -0.0056542759
0.011999999 0.011988587 0.0012015217
0.0034999999 0.0024793576 0.0058005052
0.0019999999 0.0062538991 0.0053028222
0.003429241 -0.0069718431 -0.0064458633
0.0023492624 -0.011136365 -0.011480552
0 0.01124583 0.0091383178
0.0064895735 0.0046706973 0.0082694078
0.0029999998 0.0045372942 -0.0058719469
0.0034405105 0.0053661601 -0.014466072
0.0037349148 0.013773795 0.0057375794
0 -0.0060628904 -0.012607372
0.00244324 -0.0036048137 -0.0095925732
0.00019817227 0.012499137 0.0099794138
0.0029999998 -0.0069895792 -0.0046050465
0.0073576611 0.0090613887 0.0028358342
0.0033349746 -0.0045241863 -0.014941686
0.0050513172 -0.0029943101 6.7787834e-05
0.0084999995 0.00084511581 0.0064802309
0.00126962 0.00014887031 0.015997674
0.0019999999 -0.0053258496 0.0059401202
0.0025078538 0.0094768927 0.0038970343
0.008834606 -0.00770343 0.0026437093
0.007581363 -0.01241266 -0.0059729917
0.011999999 0.0011683558 -0.0098488564
0.012 -0.015182263 -0.0023160749
0.0029620125 0.0095262052 -0.0030245015
0.0091088684 -0.0032364302 0.0019998066
0.0075427843 0.013140152 -0.0039744801
0.0061783954 0.012841691 -0.0020805176
0 0.0059316847 0.01299187
0.003 -0.00086107373 0.0088400748
0.00074419723 0.0073046177 -0.0060716746
0.0036186203 -0.0028668016 -0.00087774714
0.010168213 0.0072315065 0.014266076
0.003 0.0053223292 0.0085354419
0.0084501635 0.0143437 0.0051501263
0.01090489 0.015304158 -0.0046473974
0.0044224523 -0.0075793257 -0.0057200645
0.010028889 -0.015653707 -0.0032852851
0.004757083 0.0029843077 0.00025442845
0.0033989793 -0.0079899812 -0.001579318
0.0023631214 -0.00031777273 0.010244276
0 -0.0044126161 -0.0085574938
0.0019999999 -0.0047810674 -0.0087281009
0.012 0.0055374745 0.0080324439
0.011999999 0.0060388641 0.0089926114
0.0084999995 -0.0033214716 -0.006343781
0.0083004879 -0.014929239 0.0012513779
0.009559256 0.006980353 -0.0038990059
0.0046259589 0.0028308784 0.00097854121
0.003 -0.0036322323 -0.0020846794
0.012 -0.0094046304 0.010023113
0.012 0.0089169107 -0.010401906
0.011999999 -0.003307784 0.0083331633
0.0077577764 0.012431633 -0.006522913
0.0060819318 0.0052209389 0.0079329666
0.011999999 0.012388235 -0.0073855924
0.020606153 -0.0026917332 0.00068037392
0.011353621 0.0019891297 0.015874336
0.011999999 -0.012295534 0.0012731699
0.0089999996 0.0073487097 0.0054216301
0.0083112568 -0.008817425 -0.012135206
0.0049200393 -0.0025892383 0.0015074384
0.012999998 0.0025154911 -0.0011182125
0.0034999996 -0.0012020591 0.0067315432
0.011999998 0.013356636 -0.0045911232
0 -0.0066894316 -0.0075586233
0.0033114364 0.0031440235 0.0089592002
0.0017634751 0.0094528254 0.012901939
0.0087481933 0.0040535606 -0.0085810088
0.010736315 0.012200273 -0.010348309
0.011697279 -0.002034687 0.015864652
0.013048275 -0.0022896265 0.00061849679
0 -5.2461924e-06 0.013880089
0.0029999998 0.00057112396 0.0088105975
0.0025182685 0.015927052 -0.0014767409
0.0033087363 -0.0037169338 0.01520909
0.0086071584 -0.011730067 -0.01015162
0.0072314199 -0.0093291728 -0.001766635
0.0084999995 0.0056773825 0.0030838845
0.0042114188 0.0029741812 0.00038514394
0 -0.00017754035 0.0096922712
0.0075516268 -0.010343888 -0.0090400027
0.004699843 0.00074706989 -0.013461242
0.0078593157 0.011954848 0.0076999157
0.0043174783 -2.9972867e-05 -0.0094942134
0.00053687114 0.012419302 0.010079918
0.0055558584 0.0061835693 -0.011494739
0.0089999996 -0.0087683937 0.0010867174
0.011999999 0.00011694368 0.015980884
0.0090860454 0.0037849271 2.0998932e-05
0 -0.015675284 0.0028092295
0.004896143 0.00084478298 -0.0028727911
0.011999999 0.01275847 0.0095173055
0 0.0036335406 0.013213894
0.006572729 0.0011445115 -0.0094266674
0.0036319625 0.0018141199 0.0023822272
0.011999999 -0.0034643251 -0.011746885
0.0090000005 0.0040858956 0.0014341472
0.0061335359 -0.010695115 0.0074008103
0.0029999998 -0.0029671823 -0.0030017302
0.011753146 -0.0074288077 -0.014166041
0.0037291343 0.00017576285 0.0094942134
0 -0.0078941062 -0.0074928263
0.012999999 -0.0023940303 -0.0016735955
0.0026197697 0.0051111928 0.0085885255
0.012 -0.0031553744 0.010787816
0.0035000001 -0.002829381 -0.0066805561
0.0019999999 0.0045304256 0.0074328627
0.012 0.0051893494 0.0087400116
0.0069441223 -0.0016144282 0.0025222532
0.017298058 0.00068120612 0.0029193326
0.0030217338 0.0089486381 0.0031828447
0.019481812 0.0027934473 0.001092353
0.0083974013 -0.0028657522 -0.00088191952
0.0030382229 -0.0037448227 0.0085561117
0 0.008773583 0.0084415609
0.0030342785 -0.0089909062 -0.003052756
0.0031828969 -0.013659443 0.0080867987
0.0084185563 -0.0022952184 0.015012574
0.0020896585 -0.0041246526 -0.0093782181
0.0014853901 -0.01533382 0.0045604482
0.02072165 0.0013508741 0.0022926328
0 -0.01272562 -0.00099545089
0.0066160033 -0.005098742 0.0080093239
0.0084230425 0.0013179603 -0.015136303
0 -0.0032336586 -0.013632192
0.0030219515 -0.0060166954 0.0070920661
0.001052713 0.0093249688 -0.0017904686
0.0011035422 -0.0066088983 0.014567537
0.0019999999 0.0097489851 -0.0010667234
0.0036504499 -0.011913508 -0.0092224404
0 -0.0017449536 -0.012642793
0.0046246722 0.0073854304 -0.01135543
0.019244194 0.0015873114 -0.0025410971
0.0085639823 -0.01152835 0.010271056
0.0034999999 0.0051646912 -0.0027682688
0.011999999 -0.0037215648 -0.015128386
0.0024858036 0.0088420203 -0.0046709934
0.011999998 0.013950647 0.0031732861
0.0034999999 0.0039405199 0.0028122074
0.0089999996 0.00049256609 0.0084292786
0.0099444035 -0.015994234 -0.00021100516
0.0035235889 0.0065793176 -0.013799121
0.0084999995 -0.0027782896 0.0045309849
0.0091800755 -0.01500971 0.0055366061
0.0065518767 0.013075856 0.00027636767
0.0011852994 0.0089128418 0.0032844332
0.0089637106 0.014480452 -0.006797858
0.0027162405 0.0087953061 0.0047465647
0 0.0020582578 -0.011672333
0.010836186 0.00048755537 0.0039646965
0.011999999 0.011018664 -0.0076619922
0.00082788477 -0.0048164739 0.0081857042
0.011999998 0.0063980524 0.006998505
0 -0.011894494 0.0029158019
0.0031002318 0.0029958289 6.76337e-05
0.0028094342 0.00013867617 0.0099943168
0.0088859033 -0.0093106385 -0.0014818639
0.00057635998 0.015986685 -0.00049575593
0 -0.0065369383 0.0078690564
0 -0.0088591343 0.0098923463
0.0039688624 0.0094988029 3.4314944e-05
0.011999999 0.0057257046 -0.012556057
0.007155125 0.0094221225 -0.0011834684
0.0046208529 -0.01341662 0.0018992625
0.0027646564 -0.0034058336 -0.0086923623
0 -0.012431806 0.0096578216
0.01139794 -0.012403481 0.010100715
0.0032088023 -0.005679599 -0.0075894608
0.0082557322 0.013950509 -0.0052475971
0.011999999 0.0043948204 0.010441976
0.0080597829 -0.014549836 0.00068824226
0.009387508 -0.004805705 -0.015259682
0.0089999996 -0.0031844554 0.00091427821
0.010401931 0.00062581553 -0.0039461819
0.0062922873 -0.0058890954 -0.0074522775
0.0043822923 0.0052659828 -0.012788713
0.011999999 -8.8603374e-06 0.010246268
0.0042059477 -0.0037691155 -0.01359038
0.0072643473 -0.0094979675 5.8217967e-05
0.0074123056 0.0090523837 -0.0028635478
0.0079190182 -0.0087344935 -0.011351425
0.0088714976 0.013026616 -0.0092347544
0.011999999 -0.0071528228 0.014093687
0.0089999996 0.0019692662 -0.0084679211
0.011999999 -0.00050778227 0.0146592
0.0096831955 -0.0069218278 0.014419049
0.0083033219 -0.0020213015 -0.014849542
0.00786399 0.0029443232 -0.0090318853
0.0010594244 0.009437901 -0.0010333506
0.011999999 -0.0081796749 -0.0065358509
0.005582538 0.0026265332 -0.0014459349
0 -0.0074736923 -0.01077764
0 0.012283389 -0.0078381654
0 0.014969938 -0.0037016699
0.0056769685 0.0096639516 0.008731178
0.0083925314 -0.0099115102 0.011445651
0.0034999999 0.0044247825 0.0018002151
0 0.0092171552 0.0030727931
0 0.0038844256 -0.012200256
0 0.011840063 0.0084261671
0.0022605369 0.015959289 -0.0010774228
0.019070769 0.0012519988 -0.0027215593
0.002352644 -0.015488349 0.0039988481
0.0089999996 0.0027180596 -0.0087216124
0.0050193425 -0.0043089269 0.0084617659
0 0.0050284858 -0.0092157312
0.0093325051 0.015065555 0.0053717382
0.011999999 -0.01291453 0.0040831775
0.0089999996 0.0041770684 0.0080369581
0.011999998 0.013107497 -0.0053143622
0.0019999999 -0.0045922054 -0.0054941857
0.010889747 0.0075688479 -0.0025751158
0.0019999999 0.0083574234 0.0029365316
0.0033344363 0.00030312873 -0.0094942134
0.011999999 0.012653716 0.005762984
0.0061170594 -0.0048622568 0.012063815
0.01068346 0.0076418482 0.0023641512
0 -0.0053831418 -0.013055448
0.013371729 -0.0022447577 -0.00049557094
0.0083230482 -0.00776541 -0.0054657296
0.012127072 -0.0039486862 0.00063804444
0.012 -0.011603533 -0.0021991155
0.0089999996 0.0062174145 -0.0052590086
0.0084999995 0.00031436278 0.0052961842
0.005568102 0.0092394287 -0.0021876253
0.002757011 -0.0061532739 0.0046793027
0.0038713457 -0.00083034794 -0.014658913
0.0083782226 -0.00031031677 -0.0029783826
0.0089999996 0.0032097755 -0.0076584504
0.011999999 0.0033661386 0.013230294
0.0061317086 -0.0010466446 -0.0011277704
0.0081585078 -0.0016712745 0.0093510803
0.0041477978 0.0035494654 -0.0088116312
0.0079082493 -0.0091144554 -0.011019669
0.0087654293 0.0081785424 -0.0048227743
0.0017783785 0.0031389301 -0.015683316
0.0029999998 0.0025120713 -0.0087893801
0.0045224344 -0.0084591489 0.0043141088
0 0.008042532 0.0051211002
0.008924284 -0.0076488797 0.0054531493
0.0087853204 0.011565465 -0.010800306
0.0036968046 0.0046412661 0.0082850559
0.0046631666 -0.0022136073 -0.0092358021
0.0090236962 0.003660738 0.0071068816
1.450835e-05 0.011900974 0.010686147
0.0032759656 0.0097886352 -0.012292293
0.003423074 0.010822363 -0.01104096
0.0019999999 0.0074909395 -0.0044123488
0.0037982366 -0.0041636876 -0.014211031
0.0039401408 -0.01385317 -0.0044908249
