# .PCD v0.7 - Point Cloud Data file format
VERSION 0.7
FIELDS x y z
SIZE 4 4 4
TYPE F F F
COUNT 1 1 1
WIDTH 1000
HEIGHT 1
VIEWPOINT 0 0 0 1 0 0 0
POINTS 1000
DATA ascii
0.0039330004 -0.00076351501 0.010817058
0.010865537 0.0059763566 0.012653172
0.015000001 0.027316142 0.0088292854
0.010090655 -0.018315518 -0.024362836
0.015000001 0.0047865324 0.025304945
0.0051214779 -0.0056576035 -0.0019666729
0 0.022577083 -0.014858132
0.010919662 0.013910144 0.0014943284
0 0.011028375 -0.022169838
0 0.012970942 0.0052694101
0.01461263 0.030027596 -0.0076619466
0.015000001 0.010423353 -0.025191769
0.014936769 -0.0035511919 0.030787293
0.011420094 -0.01386409 0.0008714213
0.015000001 -0.025639994 0.015497806
0.015000001 0.016488403 0.024006762
0 -0.012278246 0.017759332
0 0.00042003937 0.021442682
0.0035000001 0.0060642213 0.012086711
0 -0.016069971 -0.019797495
0.0036183393 0.011473396 0.0080152834
0.0036029096 -0.0029982096 0.0075694262
0.015000001 -0.0037086573 0.020018255
0.0033635821 -0.014638648 0.027324677
0.015000001 -0.016700925 -0.025122739
0.010168357 -0.00068496278 0.0059502139
0.0050808801 -0.0034676257 -0.02998428
0 0.0015602661 -0.025226008
0.0037411163 -0.0048660315 0.011448675
0.0035000001 -0.012153346 0.0071527143
0.025455557 -0.00495023 -0.00064955174
0.0027044083 -0.013069713 0.0042841402
0.015000001 -0.024518279 0.015840955
0.007142399 -0.0022152325 0.0055664666
0.020973852 0.0021921771 0.0044920277
0.0035000001 -0.012821538 -0.0066261874
0.005155785 0.027305551 0.012555502
0.015000001 0.018625092 -0.015983459
0.0023000001 0.0022782178 0.014053409
0.015000001 -0.020092918 -0.00091634231
0 0.011950436 0.016073454
0.011472072 -0.0035149329 0.011943196
0.002855703 0.028798047 0.011446751
0.015000001 0.001339123 0.022488549
0.0067403778 -0.026337421 -0.0099198772
0.01128294 -0.0024336728 -0.0054894933
0 0.0057122256 -0.028094545
0.025728123 0.0026609418 0.0042280243
0.0020721362 -0.0062882029 0.012496558
0.011500001 0.0026654627 -0.0057552205
0.0047614807 -0.007602897 -0.029782433
0 0.024852786 -0.0084783984
0 -0.011669735 0.013471136
0.0035517693 -0.0018060294 -0.013740622
0 -0.019502217 0.0052411715
0.0034999999 0.014698681 -0.002215069
0.011500001 0.0025618975 0.0058584185
0 -0.0076724477 0.011807691
0.00815148 -0.0042276103 -0.027796974
0.015000001 -0.010859388 0.011317777
0.015000001 0.0070044189 0.016880885
0.015000001 -0.0027060132 -0.027702892
0.0096876724 0.023604263 -0.018166211
0.01514218 -0.0041116886 0.0068518664
0.011067002 0.0066118501 0.0094811702
0.011067 0.0062131933 0.010348933
0.0023000001 0.01460675 0.00099185004
0.011067001 0.01179337 -0.0032568316
0.0027196992 -0.016476415 0.026248606
0.0035561835 0.012249014 -0.0022155326
0.002297584 -0.024257569 -0.019287635
0.0048037567 -0.0034742185 0.013553601
0.015000001 0.020666119 0.0017131668
0.0052218651 -0.029923938 -0.00089078816
0.013660367 0.030997086 -0.00037929608
0.0095183896 -0.022800963 0.018707436
0.013937875 -0.023659509 -0.020017831
0.015000001 -0.0028578818 -0.023044178
0.015000001 -0.020398362 -0.022752203
0.0083642537 0.018521857 -0.021265924
0.0032059599 0.009246829 0.029579034
0.015000001 0.019048117 -0.020411117
0.00563116 0.019221269 0.022025486
0.0037871837 0.022309266 -0.02150931
0.015000001 0.015170311 0.013702358
0.0047808802 -0.012125031 0.02820605
0.011067001 0.0022243424 -0.0098322192
0.0027691117 0.029001633 0.010931779
0.010044906 0.028826112 -0.0096720988
0.0023000003 -0.0010847003 0.01282232
0 0.020381246 0.012611527
0.0073311762 -0.011527926 -0.025528288
0.0077738725 -0.0064514652 -0.012418007
0.0023000001 -0.01437114 -0.0044405921
0.0035000001 0.008517649 -0.0098611675
0.015000001 -0.016776429 -0.025467303
0.011500001 0.0069222082 0.011580068
0.00064514892 0.029896898 0.0081587341
0.019845653 0.0011582462 -0.0048579024
0.0035000001 0.012186217 0.0076953177
0.015000001 0.013402143 -0.026945543
0.0023000001 0.013044953 0.0045118178
0 0.0029708154 -0.014901694
0.01352804 -0.0062676584 0.030349376
0.012426534 0.0032758408 0.030815993
0.0033877564 0.028425094 0.012356745
0.0090234689 -0.0057095233 0.02814032
0.0087695112 0.0048340941 0.003536701
0.011771116 0.010789643 0.029051606
0.015000001 0.0078390539 0.021666037
0.0051901583 0.0019788959 0.0056542526
0.0035047885 -0.012944547 0.0045778528
0.015000001 -0.020450795 0.018396603
0.011500001 -0.0096927444 0.0087194536
0 0.017435348 0.012873699
0.015000001 0.002220287 -0.022065274
0.015000001 -0.018349715 -0.0075503858
0.01432328 -0.00382363 -0.011894154
0.010600737 -0.020720543 0.02304429
0.0049371151 -0.002629525 0.030320091
0.0092199827 -0.025171597 -0.014344689
0.015000001 -0.015996233 0.014570097
0.0052862279 0.0028701252 -0.0052609588
0.015000002 0.024844648 0.012113079
0.015000001 -0.013715154 0.0019978499
0.0073503708 -0.0037954398 -0.013464845
0.0025311492 -0.012036581 -0.0056391964
0.015000001 -0.0033031281 -0.017554378
0.010757527 -0.0078582373 -0.011575633
0 0.0048488658 0.016612642
0.015000001 0.01573878 -0.022538049
0 0.017320804 -0.0033795091
0.015000001 -0.012014141 -0.019468896
0.015000001 -0.010466163 -0.026371606
0.0072160824 0.026252327 -0.0097939419
0.015000001 0.0064907758 0.021754988
0.012287837 -0.030326398 -0.0063892207
0.011852288 0.0019512677 -0.030931504
0.0047232783 0.0046962048 0.013185223
0 0.013225145 0.02729743
0.010766238 -0.029855987 0.0083050653
0.015000001 0.002872423 -0.013534919
0.015000001 0.023346912 0.017523808
0 -0.021982327 -0.0053391294
0.0047121062 -0.0044498588 0.030497549
0.00794004 -0.013316063 0.0042952038
0 0.016798763 0.010049552
0.0092165573 -0.0033768856 0.004946887
0.015000001 0.023087619 -0.0087278057
0.015000001 -0.012581108 0.022752322
0.010247327 -0.01090923 -0.028757529
0.015000001 -0.0095310695 0.020622408
0.011500001 0.0034137333 0.012580529
0.01023965 -0.001526093 -0.0057964781
0.000912408 0.018656941 -0.024744291
0 -0.0050705825 -0.025912022
0.005322238 0.029239625 0.0055729332
0.015000001 -0.0136514 0.0075936215
0.0098923724 0.010978712 0.0086797606
0 -0.016832311 -0.0071377638
0.0023000001 0.00091088592 0.014211664
0.0067112208 -0.018553924 0.021184636
0.015000001 0.017036729 -0.017330281
0.0031635929 -0.0048150104 0.013878377
0.0014995168 -0.014767062 0.027254034
0.015000002 0.02668361 -0.013473744
0 0.006457625 -0.014699033
0.0035483018 0.010190522 0.029275116
0.015000001 -0.021075573 0.018496579
0.010319735 -0.028313529 0.012322773
0.0080457944 0.003714893 0.013496561
0.028500002 0.003322562 -0.001042794
0.00883519 -0.00078990706 -0.003
0.0061097159 -0.011185328 -0.026284391
0.010525435 0.0011818104 0.002691929
0.0061094314 -0.025618978 -0.012628417
0.0086639058 -0.0061760247 -0.012559569
0.0088179996 0.015438813 0.023962399
0.0046739611 0.00046696377 0.013989472
0.0029628505 -0.021892747 0.021933757
0.009056774 0.011248976 -0.026462885
0 0.017730119 -0.019702801
0.00055586168 0.0099284584 -0.02935819
0.011935099 0.02808246 -0.013115624
0.011402711 0.030980242 0.00091836409
0.015000001 -0.0097980518 0.018107247
0 0.019882344 -0.015024829
0.015000001 -0.014300202 0.0043259342
0.0068565714 0.027190091 0.0071213767
0.015000001 -0.0067426497 -0.024358533
0 -0.01637785 0.0055421479
0.0086743766 0.011992512 -0.02571772
0.0046582874 -0.026827473 0.015361499
0.010843221 0.00054346211 -0.030985888
0.019709107 -0.00209567 0.0045347018
0.011500001 -0.012886513 0.0026904098
0.0059715938 -0.013907325 0.0015233126
0.014724967 -0.010884413 -0.029022692
0.0019578952 0.0035666856 -0.013528522
0.0115 -0.0098526934 0.009418943
0.011074975 0.0055568204 -0.011130935
0.015000001 -0.016898919 0.007920716
0.0052632676 0.017370073 0.024299432
0.015000001 0.0092615383 0.025847141
0.0052695349 -0.007845181 -0.011584219
0 0.021787997 0.018782059
0.0035515781 -0.017453125 -0.025607457
0.0074571082 0.012693761 -0.024957331
0.0063546035 -0.025983302 0.011343597
0.015000001 0.01145819 0.008490609
0.0060808212 0.020759607 0.019656941
0.028500002 0.0029889303 0.00035428407
0.014500652 -0.019278811 0.024262987
0.017938601 -0.0039639855 0.00050354656
0.0035000001 -0.006270654 -0.012447724
0.011067001 0.0065150368 0.0079788435
0.02720041 0.0048432029 -0.0012041701
0.0047890618 0.011803 0.028332666
0.0010780012 0.0020674875 -0.013843053
0.0035000003 0.0064087887 0.013208044
0 0.022078479 -0.0010604394
0 -0.0094324481 -0.018555768
0.015000001 0.0096899448 -0.012852979
0 0.013599285 0.022604976
0.015 -0.014359844 0.013686312
0.015000001 0.0066558081 -0.020587988
0.0063528083 -0.021357849 0.018647984
0.015000001 -0.021117898 -0.019670548
0.015000001 0.014341514 0.026715556
0.012454737 0.0090447934 -0.029642051
0.0026405205 0.013225218 -0.028025813
0.002695821 -0.016798886 -0.026052328
0.011500001 -0.011350769 0.0058808289
0.0043866811 0.024734875 0.018672025
0.011067001 -0.008342565 0.0063650715
0.0023000001 -0.014036172 0.0045589581
0 0.011149178 0.017485254
0 0.024494838 -0.0095404088
0.0035000001 0.0098887626 0.010769948
0.0045177625 -0.0015739657 -0.005466511
0.0083737029 -0.0049297707 0.02776596
0.010694763 -0.030210054 -0.0069372845
0.010113149 -0.00089553016 -0.03050285
0.007388188 -0.0091372672 0.010594879
0.010376547 0.021035541 0.022740567
0.015000001 0.012073465 0.011242255
0.015000001 -0.013758971 0.0077130878
0.0030716718 -0.012771405 -0.028240226
0.0020906993 0.0038888657 -0.030744828
0.011067001 -0.0010832386 -0.01027305
0 -0.015804445 -0.025054932
0.0065772859 0.023063291 0.016274637
0.0093234237 0.0020453769 -0.029077677
0.011500001 -0.0051879473 -0.011813608
0.0035000001 0.0073956153 0.010674578
0.0035000001 -0.0049566515 -0.012735208
0.015000001 0.019251049 0.013646549
0 -0.011464261 -0.0099964356
0.015000001 0.0083986875 -0.026777338
0.013294077 0.02946607 0.0096015958
0.0023000001 -0.0011721621 -0.014681418
0 -0.018934995 -0.00019502836
0.0059517673 0.00015482964 -0.0059908116
0.0194354 -0.0026047097 0.0041858195
0.011279966 -0.029793706 -0.0085464977
0 -0.0065126526 -0.026125377
0.011067 0.011576539 -0.0040866118
0.010999084 -0.012067204 0.0070906789
0.01467424 0.0020183993 0.01232543
0 0.0085646743 0.027372289
7.2780618e-05 -0.013895567 -0.0016384979
0 0.0066998112 0.015190928
0.015000001 0.024037885 0.014134623
0.015000001 -0.01780686 -0.0177282
0.0067009227 0.023650976 0.015283111
0.015000001 -0.0052547045 0.018614748
0 0.026674343 0.013574605
0.0084188636 -0.0079753548 -0.011498602
0.015000001 0.026863195 -0.014350795
0 0.017134463 0.0025375762
0.015000001 -0.017622992 0.011423547
0 0.0068054441 -0.022421619
0 -0.0044576218 -0.027338784
0.015000001 0.015094846 -0.020709267
0.0099231461 -0.013147128 0.0047889329
0.0023000003 -0.01044856 -0.0069699539
0.0099007711 0.0046964576 -0.029789133
0 0.019299256 0.014701113
0.0048016235 -0.013001274 -0.027772285
0.015000001 -0.027782707 0.0092048319
0.0044417554 0.0057069799 -7.992686e-05
0.015000001 -0.0031587943 0.023720488
0.0049638916 0.013842797 -0.0020248306
0.0096411938 -0.0029399244 0.00012971762
0.0053022238 -0.0050310278 -0.0032505984
0.0054232264 0.0032857701 0.029404635
0.00079203217 -0.0022035555 0.030916853
0.0079233181 0.022745576 -0.016395424
0.0024419494 0.0083471267 0.012517108
0.011500001 -0.0006305119 0.0065262718
0.015000001 0.016840661 -0.0075734295
0 0.012780344 0.018623227
0.0035000001 -0.0077822707 -0.011858248
0.025703153 0.0049648914 -0.00049757143
0.0099429628 -0.010524001 -0.0092308456
0.015000001 0.0088568917 -0.024815751
0.0023000001 0.014138554 0.0015217828
0.0055709225 -0.022539116 0.018778568
0.0043112631 -0.001266792 -0.013936641
0.0055403216 0.029373383 0.00097916997
0.015000001 -0.0011632496 -0.02645947
0.0013269432 -0.012914549 -0.0053909486
0.015000001 -0.0082299421 -0.017793423
0 0.0079187965 0.013041058
0.0069969837 0.0024201463 -0.027959757
0.011067 8.5431573e-05 0.01085885
0.015000001 -0.016514516 0.014754606
0 -0.013527617 0.017897863
0.0035000001 -0.011728303 -0.0082869176
0.012321606 -0.023463313 -0.020244248
0.0072543407 0.013320987 -0.0042820498
0 0.028704951 0.00033945325
0.010672403 -0.024001913 0.019602815
0 0.020721985 -0.0057395259
0 -0.0020221001 -0.030058406
0.0097683221 0.013384793 -0.0040689232
0.0018135651 -0.010025903 0.0097616902
0.0041450551 -0.0046174661 -0.013206665
0.0077997027 -0.0021601291 -0.013832225
0.00053984561 -0.013699044 0.02779883
0.0035000001 -0.0069547128 0.011868766
0.0024015014 -0.014606772 0.0035948576
0.0017138094 0.0033232046 0.030811053
0.0096059488 0.028234281 -0.0090173939
0.0061807083 -0.0058025615 0.0014875722
0 -0.0036922919 -0.022507444
0.0030742981 0.027369229 -0.014545842
0.0014052293 -0.029087728 -0.010689207
0.012364372 0.029020773 -0.010872337
0 -0.025322743 0.0080189053
0.0023000001 -0.010107461 0.0072794808
0.015000001 -0.00092611124 -0.028155196
0.015000001 -0.013666485 -0.010023619
0.0077538574 -0.013193397 0.0046537067
0.015000001 -0.023857947 -0.012919285
0.0165 0.002146238 -0.0049061473
0 0.0098930644 -0.027495336
0.015000001 -0.019252269 0.015917104
0.011067001 0.0082348315 0.0012025381
0 0.0017501541 0.016338693
0.0056506759 0.0018866156 -0.0027322858
0.015000001 -0.020211669 -0.002526795
0.0092098322 -0.010391023 -0.0093717938
0.015000001 0.011647925 -0.015199921
0.0068985838 0.013732718 0.024516217
0.0035000001 -0.002998634 0.013986005
0 -0.011307368 0.019721217
0.015000001 -0.0063080066 0.011658839
0.0089294771 -0.0051445588 -0.0030707619
0.0023000001 0.008731897 0.011696357
0.0055000004 -0.0042813052 0.0020874406
0.0165 0.0049782204 -0.0044787582
0.0023000001 -0.0072281626 0.012224037
0.011500001 0.013172062 0.0039426461
0.0068189418 0.0014180847 0.0058191777
0.015000001 0.00080777123 -0.02623309
0.021197008 -0.0040910239 -0.0028567296
0.015000001 -0.013248149 -0.0023750756
0.015000001 0.0065953839 0.027755804
0.011867503 -0.00026541037 -0.012489166
0.0023000001 0.014879799 0.00048442854
0 -0.0070360582 -0.027308092
0 -0.010934141 -0.027935345
0.0053233821 -0.0078400029 -0.028717881
0.0031159308 0.010162773 0.029284051
0.0099318502 -0.028494794 0.010022415
0.0088118194 -0.012036298 0.0071397135
0.0030223839 0.0017803278 0.01218201
0.0023555802 0.0028423918 0.014412794
0.024841106 -0.0049854647 0.00021289021
0.011103406 0.012573946 -0.0061329463
0.0054989331 -0.015106799 0.025289167
0.011801191 0.024327848 -0.019197468
0.00021657173 0.026597267 -0.015914917
0.0053064334 0.027422151 0.011650211
0.011571706 0.0021936172 0.0011381402
0.010132086 0.0045062979 0.0039476049
0.00098844105 -0.0035531956 0.013534882
0.0052753338 -0.015513701 -0.02549986
0 -0.015299643 -0.013363428
0.010396764 -0.0094980877 -0.010271749
0 0.015733952 -0.00259324
0.011067001 0.011200122 0.0012752877
0.0077082766 0.012734767 -0.0057966188
0.0063652298 0.0029487277 0.00089265371
0.015000001 -0.023308713 -0.0020119017
0 0.0035541099 0.014233933
0.0035000001 -0.0097440733 -0.0064982506
0.0091733979 -0.012130038 -0.0069691031
0.015000001 -0.012194579 -0.014784792
0.0023000001 0.0062343045 0.011194001
5.5629236e-05 -0.029761791 -0.0086501893
0.0060379151 0.0063989977 0.012440914
0.015000001 0.027032036 -0.0034708984
0.0026233331 -0.0043988144 -0.011892726
0 0.014924115 0.026677599
0.0060640243 0.028097408 -0.0053658369
0.014821484 0.023514401 -0.02018529
0.0046126004 -0.013989524 0.00013300164
0.0053181509 0.0027044045 0.013736051
0.0035195795 -0.013707235 -0.0015185176
0.0059944196 -0.0082618734 0.011290313
0.010919059 -0.006792488 -0.012229839
0.015000001 0.0048552016 -0.021157408
0 -0.01394492 -0.0068663144
0.005596925 0.027825689 -0.0091382163
0.0059486288 -0.00087562518 -0.003
0.0097494815 0.0058532432 -0.0012706827
0 0.0097695589 -0.016413737
0.0030784542 -0.0088414978 0.0050004474
0.0023000001 -0.010942125 -0.0074968045
0.015000001 -0.019561483 0.023225959
0.0064411517 0.00022936036 -0.028306115
0 0.013506437 0.0040891669
0.015000001 0.013591843 -0.0073627578
0 -0.026412904 -0.0082469927
0.0070442641 -0.0032088242 -0.0050609233
0.015000001 -0.017705513 -0.016053686
0 -0.0050486964 0.025123384
0.0028131367 -0.0090484796 -0.0068046222
0.0084189875 0.013073415 -0.0049794745
0 0.014168306 0.022982771
0 -0.0020615687 0.02030367
0.014028368 -0.0079396823 -0.00089738064
0 0.012722934 -0.010563414
0.015000001 -0.026613679 0.0032622954
0.0035000001 0.0051194327 0.012505301
0 0.011082483 -0.026459757
0.0099730687 0.00077279669 -0.0059465361
0.015000001 -0.020309761 0.019112647
0.015000001 -0.008151222 0.022917174
0.011310405 0.029708693 0.0088319145
0.0084042549 -0.021651693 0.018107316
0.015000001 0.017178128 0.0073679714
0 0.015064374 0.016508959
0.0081493631 0.0042669009 0.0042092935
0.015000001 0.012777958 0.023011716
0.015000001 -0.018706825 0.021030292
0.011067001 0.0021454154 -0.010807028
0.0060145217 -0.014039204 0.024993047
0.0021532148 0.0024598774 -0.03089181
0 -0.0285044 -0.00031934329
0.0165 0.0057346672 -0.00070982159
0 -0.026617479 -0.0070066378
0.015000001 0.0063363756 0.018804641
0.0050658886 0.010424495 -0.009336317
0.011500001 -0.0062569804 -0.0012793965
0.0096627828 0.024446065 0.016935697
0 -0.000680867 0.020199815
0.015000001 0.01539875 -0.018464124
0.0096607432 0.0031374537 -0.029576266
0.0096215 0.029343022 -0.0043608174
0.0074963602 0.024948006 -0.012694022
0.011067001 0.0024605109 0.010733574
0 -0.025519993 -0.014301621
0.0091952877 -0.023807226 0.016441118
0.010386878 -0.004307725 -0.013319401
0.0097240889 0.012629746 0.027042197
0 -0.012550824 -0.013955236
0.0219546 0.0041226503 0.0028246399
0.0065202764 -0.0055740983 0.0021925047
0.0035000001 -0.00073749095 0.0080499891
0.015000001 -0.023490705 -0.0098111555
0.015000001 -0.01466264 -0.013640116
0 0.00046625524 0.023179075
0.014666363 -0.02801948 -0.013244567
0.011868705 0.030342603 0.0063172341
0.0099039404 -0.018406989 0.023893299
0.0165 -0.0054229493 -0.0018892694
0.010041664 0.022748195 0.020163657
0.0064581791 -0.004860336 0.013126261
0.015000001 -0.0095605319 -0.022733724
0.0092357937 0.026868651 -0.010923231
0 -0.02197171 -0.012282144
0.0165 -0.0042679552 0.0029117432
0.0038255355 0.0020670185 0.0056215194
0.009569048 0.0037243881 -0.029339701
0 0.017620794 0.0011463023
0 -0.028023686 0.010001193
0.015000001 -0.016608721 0.020415809
0.009096357 0.0039832164 0.028526815
0.0047584483 -0.013523518 -0.0036055483
0.011500001 0.0086812545 -0.0098928874
0.0035000001 -0.0089681139 -0.0091756443
0 0.019096013 -0.014130274
0.011067002 -0.0081246514 -0.0041534007
0.0084195593 -0.001881964 0.013865197
0.015000001 0.024815945 0.012965526
0.0047659944 0.013729276 0.027488526
0 0.010977772 0.01631235
0.0078153862 0.005994502 -8.1219005e-05
0.0057260166 -0.0089830412 -0.010737011
0.012018274 -0.0054219617 -0.011251329
0.015000001 0.023895811 -0.010691262
0.0082512377 -0.0028765483 0.013695252
0.0071243593 -0.0040973346 0.013377242
0.0098870499 -0.01348073 0.0037478451
0.014828611 0.012479206 0.00063678058
0.003516241 0.011940338 0.006882336
0.015000001 -0.010116435 0.026555771
0.012745651 0.015635025 0.026757909
0.0165 0.0045688404 0.0054028728
0.0037243592 0.0076136044 0.011744822
0.0035000001 0.011612893 0.0052996683
0.0051856232 -0.00024741844 -0.013990399
0 -0.028515218 0.0078272289
0.015000001 -0.0053482978 0.026649591
0.012723285 0.0030748297 -0.012114021
0.0035000001 -0.0066889855 0.011015781
0.010700437 0.0028763488 -0.013691813
0.011217772 -0.010202423 -0.007122952
0 -0.010613478 -0.02476405
0.0099728853 -0.0068538026 0.012203364
0 0.012565535 0.0073945434
0.0029679155 -0.030938705 -0.0019084744
0.0039330004 -0.0081626773 -0.0015323949
0.015000001 0.010118971 -0.0096561788
0.011500001 0.010085857 -0.0080166534
0 -0.0032023764 0.0157442
0 -0.019467842 -0.0044737039
0.011500001 0.00095800689 0.0062429626
0.010710865 0.0015465739 -0.0057902234
0.011067001 0.010061715 -0.0025067457
0.010362275 0.029651636 -0.0088644316
0.0064235651 0.024190264 -0.014722001
0.00069052324 0.017380437 0.025667625
0.0055408333 0.016368194 0.024403932
0.003410022 0.012621813 0.0081804851
0.0022156918 0.02164924 0.022174124
0.0035000001 -0.0095846467 0.0099339569
0.011045262 -0.012389843 -0.0065179626
0 0.020289484 -0.018662632
0.0037120169 -0.030807523 0.003363322
0.01433274 0.0043182969 0.0067230868
0.0272577 -0.00087416731 0.004918321
0.015000001 0.023672935 0.0071858978
0.0018868478 0.0060313144 0.012625571
0.0031459217 0.011648917 0.0010060733
0.0015709285 -0.011817506 0.028657742
0.010738648 -0.014804441 0.027232667
0.0089537874 0.027399873 -0.0082729105
0.00035664465 0.014764927 -0.027246282
0.0029146785 -0.0087426146 0.0055589504
0.015000001 0.002509387 -0.029260796
0 0.014107846 -0.018007429
0 0.012435204 0.015456974
0.013804363 0.002007015 0.0077335457
0.0088388436 0.005889582 -0.012689774
0.0037698029 -0.007318994 0.030120077
0.015000001 0.022280876 -0.0053118565
0.0039248052 0.0066894386 0.01229505
0 0.014411557 -0.022972466
0.016402459 -0.005741619 0.0052745175
0.015000001 -0.0038183681 -0.014452327
0 0.012317681 0.027412796
0.011545039 0.029627645 0.0091213482
0.015 0.015926611 0.026398471
0.011500001 0.0077218106 -0.010550646
0.015000001 -0.025178468 -0.016311387
0.010031055 0.01934913 -0.023419088
0.015000001 0.010214645 -0.011668273
0.015000001 -0.017030459 -0.019612854
0.0066311737 0.013594491 0.024706729
0.0055600777 0.027745172 -0.0096013211
0.015 0.013985821 -0.019822214
0 0.0037412292 0.014501471
0.0039330004 0.0024299729 0.012197484
0.0035000001 0.01170648 -0.0057592806
0 0.003552045 0.027176574
0 0.021362448 0.0049118083
0.011417593 -0.013709092 -0.0277972
0.0086991033 -8.147757e-05 -0.0059951651
0.010316023 -0.028211622 -0.012535715
0.0039330004 0.0097732134 -0.0041597486
0.0035000001 0.0073316023 -0.012398098
0.0056444695 0.0053524538 -0.012933928
0.011067001 0.0076316791 -0.0050148
3.5548277e-05 -0.028692488 -0.011717585
0.010006374 0.0032984493 0.01359526
0.0039330004 0.0085500143 -0.00032133717
0 0.022044363 0.0071208244
0.0039330004 0.0083579645 -0.0004403374
0.0023000001 0.011949159 -0.0081435787
0 0.019969998 0.011136917
0 -0.0070089092 0.016859993
0.0015716717 -0.0044091898 -0.013282471
0.0041540177 0.0053712535 0.0026629851
0.0055714305 -0.019319681 -0.022070995
0.0051433905 -0.011952853 0.02759853
0.015000001 0.018891998 -0.021809468
0.0035000001 -0.010253749 -0.010287227
0.0061483723 -0.0012830982 -0.013934735
0.015000001 0.013594385 -0.015932718
0.0027419436 -0.00030699762 -0.012432873
0.0088157365 0.024195837 -0.015058526
0 0.014922711 -0.0022965935
0.0095291324 -0.023513669 0.017827701
0.0020039077 0.03020411 -0.0069608865
0.015000001 -0.0038985561 -0.019622331
0.010633963 -0.001301541 0.0058473404
0.0028203591 0.010209376 0.011055859
0.005965699 -0.0003322463 -0.013987108
0.015000001 0.013148469 0.017282112
0.011193498 -0.025720341 0.017287914
0 -0.0094925454 -0.013187928
0.0039330004 -0.0083609698 0.0051055052
0.011067001 -0.0089521436 -0.0050709555
0.011558859 0.022201879 -0.021620965
0.010554142 -0.0075698616 -0.0117653
0.015000001 0.020030094 0.00080486509
0 -0.016265636 -0.025772056
0.027179718 -0.002537295 -0.0043021068
0 -0.0014194913 -0.018254403
0.015000001 0.025071733 0.0076336465
0 -0.016652999 0.019201046
0.012945985 -0.010156514 -0.007270121
0 0.019878676 0.0062055751
0.014190342 0.021627195 -0.022203047
0 0.015414638 0.011413674
0.01446897 0.028420579 -0.01235636
0 -0.029082619 -0.0024107907
0.0035000001 0.012174364 0.0075334841
0.0037248228 0.011373913 -0.0050519067
0.015000001 0.018190743 0.00019452754
0.0083168875 0.011675814 0.0077116615
0 0.012558822 0.015437921
0.0063846516 0.011986583 -0.007217573
0 -0.0088383537 -0.011853434
0.0016054161 -0.013570891 0.0033978233
0 0.0070764744 -0.027159821
0.012533463 -0.00079894724 -0.00013823518
0.0088033248 -0.025295472 0.013108184
0.024175655 0.00053186301 0.0049624559
0.015000001 -0.024715491 0.014649052
0.015000001 -0.010681202 0.0077192234
0.017690215 0.003975702 0.00033973638
0.010676082 0.002762594 -0.001007132
0 -0.013248754 0.010641931
0.0023000001 -0.012123062 0.0077380054
0 0.019868897 -0.021164762
0.0035000001 -0.0066778599 -0.01327271
0 -0.021504372 0.0050075799
0.0014394911 -0.030988153 0.00030889173
0 -0.021092938 -0.017036496
0.014985616 -0.017331276 0.025699217
0 0.023469135 0.019646969
0 0.011157705 -0.027911477
0.011067001 0.0043107811 0.011584598
0.015000001 -0.026295116 0.013277866
0.0035435811 -0.010521735 0.0092195012
0.011487096 -0.0045968113 0.0041697859
0.017956292 -0.0037941553 -0.0012444073
0.0062822602 0.0063344161 -0.012482591
0 0.013291202 0.0059862989
0.0011740277 -0.013881301 -0.0017429378
0.0057331175 0.012311245 -0.0066552423
0.013857578 0.017191844 0.025788827
0.00079807494 0.013995429 -0.00030479094
0.015000001 0.021774806 -0.019517876
0 -0.017004792 0.0031741241
0.0083093401 -0.027454315 -0.0063083316
0.010207263 -0.01197194 0.0072418246
0.0066867336 0.010719584 0.0089927921
0.0035000001 0.0008779752 -0.014030143
0 0.029573463 0.0018718601
0.015000001 0.0072617345 0.016350746
0.010142913 -0.027380934 -0.013593704
0.0047509829 -0.017680697 -0.025165644
2.6094373e-05 0.028693441 0.011711361
0.0086383438 0.022991816 0.016581666
0.015000001 -0.0046309619 -0.027778829
0.01181053 0.026937524 -0.015324397
0.0035521265 0.013313245 -0.0038594764
0 -0.010433441 -0.012959492
0 0.025685482 -0.012842327
0.0015250583 -0.014326306 0.027482294
0.0072228718 -0.0059855613 -0.00031021226
0.015000001 -0.0081815133 -0.020467654
0.0075787194 -0.0014537289 -0.027969949
0.0072977711 0.027825471 0.0032413793
0.0063334391 0.015137022 -0.024001993
0.015000001 -0.022079919 -0.0074069467
0.014371733 -0.0075442288 -0.0026439049
0 0.014324053 0.0035946239
0.0039605182 0.0012354102 0.0056665419
0.0086697005 0.022971636 0.016654298
0.015000001 0.021086283 -0.0067853797
0.00067590887 -0.030871952 -0.0026995898
0.011296622 -0.013813915 0.0021027697
0.0165 0.0018839238 -0.00565584
0.015000001 0.0096494667 -0.01569297
0.015000001 0.016862534 0.019675797
0.0066333702 0.0059009674 0.0010374008
0.0035000001 0.0038756728 0.014312348
0 0.026684348 -0.00038397245
0.0064654127 0.0094581246 0.010318564
0.0072476454 -0.025936894 -0.010612853
0 -0.016435126 -0.010378445
0.011479201 0.013635218 0.0020913023
0.014615895 0.011372761 0.028829789
0.0065755825 -0.012987817 -0.00520118
0 -0.012188269 0.016412383
0.0035000001 -0.0091877086 -0.007000648
0 -0.018211536 -0.0069877342
0.00940332 -0.022870032 0.018302482
0.0059823715 -0.0051884572 0.028227609
0.011500001 -0.003913362 -0.0051492248
0.006555778 0.0079617575 0.011504824
0.0023000001 0.0088536963 0.011241127
0.011772649 -0.0013849315 0.030959401
0.015000001 0.0086706337 -0.018623615
0.0035000001 -0.002415509 0.014240021
0.0053357766 -0.02924305 -0.0054293103
0.0064817164 0.022568116 -0.017054237
0 0.0038623807 -0.015219035
0.015000001 0.010446337 -0.019641535
0.0060688364 -0.019895863 0.020550946
0.013914658 0.010427468 -0.0068867062
0 0.0061064628 0.013460589
0.0090138782 -0.012282672 0.0066994452
0.015000001 0.024916368 -0.0083002541
0.016190613 -0.0048412555 -0.0063562533
0 0.017655171 -0.021057498
0.0035000001 -0.0035748279 0.0061843214
0.0031029431 0.010179915 -0.0059409146
0.011067001 0.011567938 -0.0014800201
0 0.012494112 -0.01842306
0.001442764 -0.0076148123 0.030041501
0.015000001 0.018757937 0.00069456978
0.0035000001 -0.011374608 0.0081810607
0.0023000001 -0.0033255545 -0.012490804
0 -0.015110502 -0.0055426653
0.015000001 -0.010774085 -0.008190277
0 -0.018508378 -0.019294895
0.011067 -0.0042998455 -0.010071241
0.0082101692 -0.012527809 -0.0062294332
0.027439458 0.0034405587 0.0036141062
0.0045926506 0.013260968 -0.028008919
0.013227906 -0.00057414494 -0.012476563
0.0039330004 -0.0042178854 -0.0091959918
0.011672992 0.0017138033 -0.0015363719
0.011067001 -0.0083085075 0.004774251
0.0061257645 -0.0041564847 0.028248047
0 0.0017701401 0.02246929
0.0081708981 -0.01259987 -0.0060787322
0.0039330004 0.0064449133 0.0052877483
0.0065448424 0.028142123 -0.0024521907
0.0098537179 -0.02042185 0.022074739
0 -0.017275648 -0.0080292234
0 0.015414731 -0.0045376341
0.0052441056 -0.0202426 -0.0220109
0.0034421762 -0.011676753 0.0034415422
0.0093604997 -0.01188881 0.0073737185
0.0073797554 0.023323758 0.015507705
0.0062350896 -0.0042655766 -0.0042066067
0.0023164758 0.030987477 0.00036095222
0.0047018714 -0.018055949 0.024997957
0.0035000001 0.010381077 0.0088321501
0 0.021451166 -0.013107355
0.0036294479 0.0045453007 -0.0039878166
0.010871666 -0.011097105 0.028934648
0.015000001 0.010692857 0.01321731
0.015000001 0.029365432 -0.0030016559
0.002723437 -0.0073269373 -0.010559423
0.011500001 -0.0065720924 0.0023506151
0.011114737 -0.030583115 -0.0050432566
0.012239093 0.012789936 -0.028231472
0 -0.0049521932 0.026048979
0.0026280195 -0.012987971 -0.0068631647
0 0.013717503 0.020506578
0.0043410496 -0.029062761 0.01077714
0.015000001 -0.019729419 -0.0072001405
0 0.017677192 -0.020027233
0.015000001 -0.015076373 -0.019347521
0.015000001 -0.0076508489 0.023258662
0.011067001 -0.0084328372 0.0032602258
0.015000001 -0.022719823 0.0091087939
0.0058427779 0.0038076653 0.0046253237
0.0081894621 0.013697409 -0.0028461022
0 0.023002306 -0.010852452
0 -0.018216761 -0.0075443587
0 0.026465135 -0.00057471672
0.014230318 0.01180825 -0.0040826532
0.013957028 0.011207098 -0.0055148066
0.0032763788 0.01336777 -0.027958464
0.015000001 -0.010587994 -0.018500738
0.010823269 0.0084117474 0.01118319
0.0034804756 -0.0082688425 0.029867766
0.0028339666 -0.014617397 -0.0273256
0.015 0.018980132 -0.020725634
0.015000001 0.010874222 0.023835937
0.015000001 0.0066947225 -0.01312672
0.012459815 -0.026692647 -0.01576218
0.007609244 -0.0035673182 -0.013528348
0.015000001 0.0052092713 0.029945279
0.022522466 0.0043551056 -0.0024397839
0.015000001 -0.026217571 -0.0067764013
0.015000001 0.021681411 -0.0063286005
0.0040127947 -0.0044428743 -0.0040303352
0.015000001 0.012628726 -0.0177377
0.003594554 -0.025330812 0.01786508
0.016263535 -0.0016465893 0.0077618607
0.0038619759 0.0059531559 0.010923288
0.015000001 -0.00045976276 0.026657365
0 -0.015043252 -0.0039615394
0.0061751674 5.6312561e-05 -0.013997816
0.0051138783 -0.029174849 -0.0075072167
0.006606875 0.0045628329 0.0038858054
0.015000001 -0.0093399379 0.02154481
0.015000001 -0.028686563 -0.005317193
0.0165 -0.0020999056 0.0062763034
0 -0.0064747841 0.01333634
0.0036603441 0.0054061851 0.0060911998
0.0073879049 -0.025480501 -0.011621566
0.0094275391 -0.015330699 -0.025007438
0.015000001 0.0097466344 -0.0092645865
0.011067 -0.0037068217 -0.010432137
0.0023247532 0.028733311 0.011610502
0.0054783211 0.0031702321 0.0050860788
0 -0.0072583756 0.016511345
0.010894572 -0.015840646 0.026640378
0.011863558 0.030729661 -0.0040239943
0.015000001 -0.015193023 -0.026355054
0.011067 0.0089512374 6.7245142e-05
0.0055688242 -0.020917529 -0.020573432
0.012687935 -0.029246686 0.010253659
0.010871802 -0.0080833482 0.011417916
0.015000001 0.0065628891 -0.030254304
0.011500001 -0.0034399191 -0.005396015
0 -0.02710929 0.014592115
0.0037252365 -0.0057943244 0.00077839842
0.011535616 -0.0015983379 0.012394601
0 -0.004468766 0.014511832
0 0.0010172165 -0.017887305
0.0080808448 -0.00098699145 0.0059142397
0.015000001 0.01818976 0.012954742
0.0032908386 0.0012485282 0.030966491
0.0097493343 0.027658822 -0.011338277
0.0029355141 -0.013808752 -0.027750112
0.015000001 -0.022568781 0.019036999
0.0035000001 -0.0019007926 0.014114379
0 -0.014616062 -0.0035330516
0.0165 -0.0030034774 -0.004520277
0.0023000001 -0.0093418015 -0.0056855031
0.015000001 0.0084078126 -0.019017864
0.0035264334 -0.0045000785 0.013054562
0.012004107 -0.00058543449 -0.0016263586
0.014051577 0.009194796 -0.0084607825
0.0015000555 -0.022746297 0.021047588
0.022768544 0.0010245374 0.0048897695
0.0035289789 -0.01289475 -0.0054422286
0.026170598 0.0046856739 0.0017418893
0.00025851117 -0.029069657 0.010759707
0.010713767 -0.0062542269 0.012513621
0 0.00049360294 0.020990742
0.00071642327 0.011846912 -0.0074594906
0.0060354741 0.028631873 -7.940513e-05
0.015000002 -0.0060642012 -0.019054091
0 0.018276012 -0.005587826
0.0052170199 0.028968785 -0.0075896895
0.019519204 0.004857685 -0.0011407208
0 -0.029397774 0.0080710743
0.0030232007 0.0069079022 0.01335983
0.012239357 -0.011958426 -0.028590063
0 -0.021892974 -0.013651281
0.0098319678 -0.0063524395 0.012464297
0 0.01010663 0.019589389
0.0053586466 0.0063175475 0.029020553
0.007332792 0.0019104372 -0.0026910261
0.0084779263 -0.022506621 0.017095856
0 -0.018643424 -0.012657072
0.013020565 -0.030909196 0.0022423603
0.018765923 0.0041504675 -0.00094391237
0.015000001 -0.0027568056 -0.017453274
0.0047762673 0.009540176 -0.010233556
0.015000002 0.024372485 0.017542869
0.002301276 -0.0024786941 -0.012318974
0.012239632 -0.008466512 -0.0091899857
0.0039330004 -0.010195555 -0.0047566202
0.0091250613 -0.0015026586 0.01391487
0.015000001 -0.017891774 0.005714478
0.0085167997 0.028213782 0.0019995566
0.00077289186 0.029954683 -0.0079515493
0.015000001 -0.013899107 0.0031062432
0.010551239 0.0096449191 -0.0294577
0 0.020478038 0.0042900224
0.015000001 -0.005710687 0.014624953
0.0031594888 -0.011105571 0.0046588955
0 -0.014540415 -0.013942538
0.013788006 0.0069461009 0.0039489483
0.015000001 0.0063204113 0.027989645
0 0.021343814 0.010636235
0.014582011 0.011227679 0.0054801605
0 -0.023579329 0.011901328
0.0036336428 0.0040805144 0.0043901824
0.0023000001 -0.0071228296 -0.012216992
0.0080761341 0.0056321775 -0.0020418791
0.0063006193 -0.027101098 -0.0084849298
0 -0.016192289 0.015066244
0 -0.016625062 0.01434666
0 0.016550569 -0.022897616
0.015000001 0.016099334 0.024372939
0 0.011070937 -0.015716009
0.010813357 0.030197363 0.0069646286
0.0023000001 0.014499227 0.00022076478
0 -0.021121727 0.021522423
0.015000001 -0.023132997 0.0021497023
0.0051859668 -0.001100513 0.013946127
0.012907792 -0.027866278 -0.013558219
0.015000001 -0.00064108794 -0.027561234
0.015000001 -0.0095556211 -0.014689437
0.015000001 -0.022291707 0.019658322
5.05557e-05 0.0089484425 0.029675126
0.014997439 -0.0057685119 0.005540092
0.011067 -0.0053091124 0.0090936143
0.013367002 -0.030887842 -0.0025252248
0.015000001 0.00719597 -0.028898802
0.0083077112 0.021406652 0.018304981
0.0023000001 0.011490895 -0.0086665805
0 0.0090210848 -0.016140096
0.015000001 0.0088872761 -0.010309136
0.01281119 -0.025409339 -0.0177403
0.015000001 0.0067827776 -0.010616079
0.0037288715 -0.012842074 0.0055485605
0.015000001 0.007039486 -0.027018728
0.015000001 -0.0279446 -0.0021396405
0.012717661 -0.0074596028 -0.03007976
0 0.0023843308 -0.017047867
0 0.0098571973 0.019651366
0.015000001 0.023250062 0.0052297227
0.0055000004 0.0043176864 0.00030589863
0 -0.022122903 -0.0078038489
0 -0.0078816069 -0.02610228
0 -0.0024998377 -0.020830289
0.009636688 0.00042610778 -0.029689787
0.015000001 -0.0047496217 -0.025644638
0.0039329999 -0.0080972351 -0.0011835376
0 0.004314437 0.013915169
0 -0.014463452 -0.017633846
0 0.0028728123 0.027012745
0.0072001726 -0.02554566 -0.011520121
0.01926415 0.0033231876 0.0034008643
0.0051320507 0.028580144 -0.0094313202
0.0054340889 -0.013026926 0.0051200264
0.011365324 -0.0027635519 -0.013668682
0 -0.0084123276 -0.014727701
0.015000001 -0.018430784 -0.01365614
0.015000001 0.023127846 -0.010292998
0.0070145875 0.0002257584 0.013989472
0.015000001 -0.00026338251 0.02670371
0.0035000003 0.0035103781 -0.012425333
0.011196307 0.007107588 0.012050204
0.0071259844 0.0025308379 0.0016164606
0 0.012216447 0.0072406144
0.012416144 -0.01120707 0.0055252886
0.014409077 0.0049787015 0.030587496
0.011500001 0.0085888887 0.0098907491
0 -0.023420516 -0.011494354
0.0165 0.0057889055 0.0042874874
0.0015458342 0.0069634975 0.012137163
0.012541437 -0.0031515774 -0.0073528737
0.015000001 0.02124428 -0.0016489301
0.010713385 -0.013804859 0.0022709013
0.0024931319 0.030973852 -0.0010065006
0.011472396 -0.0053432505 0.0030888382
0.0023000001 0.0029554844 0.013919592
0.0074104848 0.025694802 0.011125468
0.00027489549 -0.030985009 0.00055123144
0.009854069 -0.013212551 0.0045977258
0.015000001 0.0022810833 -0.025473222
0.021942075 0.00032839974 -0.0049789166
0.010457957 -0.0030862864 -0.013650583
0.011067001 0.0035243623 -0.0081600538
0.015000001 0.0096073225 -0.011912814
0 0.005902221 -0.013414452
0.0076726219 0.0071358704 -0.027093576
0.010820511 0.0040691826 0.013386267
0.0023000001 -0.0094947573 -0.011322498
0 0.0025790203 0.013854123
0.010244594 0.0058969161 -0.0010632029
0.010394704 -0.022985911 -0.020795204
0.0044290731 -0.002907041 -0.013685786
0.00063754735 -0.0038481264 -0.013450177
0.011500001 -0.012603384 -0.0038602205
0.0057625682 -0.022587221 -0.018187724
0.0062312633 0.026210073 -0.011089023
0.0062268958 0.025016446 -0.013581786
0.0046851318 0.001169394 -0.0058752573
0.0077028233 0.022325067 0.016928215
0.0068209032 -0.023762072 0.01503367
