# .PCD v0.7 - Point Cloud Data file format
VERSION 0.7
FIELDS x y z
SIZE 4 4 4
TYPE F F F
COUNT 1 1 1
WIDTH 1000
HEIGHT 1
VIEWPOINT 0 0 0 1 0 0 0
POINTS 1000
DATA ascii
0.0039329999 -0.010817058 -0.00076351553
0.010865537 -0.012653172 0.0059763566
0.015000001 -0.0088292854 0.027316142
0.010090655 0.024362836 -0.018315515
0.015000001 -0.025304945 0.004786531
0.0051214779 0.0019666729 -0.0056576035
0 0.01485813 0.022577083
0.010919661 -0.0014943291 0.013910144
0 0.022169838 0.011028375
0 -0.0052694106 0.012970942
0.014612628 0.0076619447 0.030027596
0.015 0.025191769 0.010423353
0.014936768 -0.030787293 -0.0035511935
0.011420093 -0.00087142066 -0.01386409
0.015 -0.015497806 -0.025639994
0.015 -0.024006762 0.016488401
0 -0.017759332 -0.012278246
0 -0.021442682 0.00042003847
0.0034999996 -0.012086711 0.0060642208
0 0.019797495 -0.016069969
0.0036183391 -0.0080152843 0.011473396
0.0036029094 -0.0075694262 -0.00299821
0.015 -0.020018255 -0.003708658
0.0033635816 -0.027324677 -0.014638649
0.015 0.025122739 -0.016700923
0.010168356 -0.0059502139 -0.00068496302
0.0050808797 0.02998428 -0.0034676243
0 0.025226008 0.0015602673
0.0037411158 -0.011448675 -0.0048660319
0.0034999996 -0.0071527138 -0.012153346
0.025455557 0.00064955198 -0.00495023
0.002704408 -0.0042841397 -0.013069713
0.015 -0.015840955 -0.024518279
0.0071423985 -0.0055664666 -0.0022152325
0.020973852 -0.0044920277 0.0021921769
0.0034999999 0.0066261874 -0.012821538
0.0051557841 -0.012555502 0.027305551
0.014999999 0.015983457 0.018625094
0.0022999998 -0.014053409 0.0022782171
0.014999999 0.00091634312 -0.020092918
0 -0.016073454 0.011950434
0.011472072 -0.011943196 -0.0035149334
0.0028557028 -0.011446753 0.028798047
0.015 -0.022488549 0.001339122
0.0067403778 0.0099198781 -0.026337421
0.011282939 0.0054894933 -0.0024336725
0 0.028094545 0.0057122265
0.025728121 -0.0042280243 0.0026609413
0.0020721359 -0.012496558 -0.0062882034
0.011499999 0.0057552205 0.0026654631
0.0047614807 0.029782433 -0.0076028961
0 0.0084783984 0.024852786
0 -0.013471136 -0.011669736
0.0035517688 0.013740622 -0.0018060288
0 -0.0052411705 -0.019502217
0.0034999999 0.0022150683 0.014698681
0.0115 -0.0058584185 0.0025618973
0 -0.011807691 -0.0076724477
0.0081514781 0.027796974 -0.0042276089
0.014999999 -0.011317777 -0.010859388
0.015 -0.016880885 0.0070044179
0.015 0.027702892 -0.0027060122
0.0096876724 0.018166207 0.023604263
0.015142178 -0.0068518664 -0.0041116895
0.011067 -0.0094811702 0.0066118496
0.011067 -0.010348933 0.0062131924
0.0022999998 -0.00099185063 0.01460675
0.011067 0.0032568313 0.01179337
0.0027196992 -0.026248606 -0.016476415
0.0035561831 0.0022155319 0.012249014
0.0022975837 0.019287637 -0.024257569
0.0048037567 -0.013553601 -0.003474219
0.015000001 -0.0017131679 0.020666119
0.0052218642 0.00089078955 -0.029923938
0.013660367 0.00037929477 0.030997086
0.0095183887 -0.018707434 -0.022800963
0.013937874 0.020017833 -0.023659509
0.015000001 0.023044178 -0.0028578811
0.015 0.022752203 -0.02039836
0.0083642537 0.021265924 0.018521857
0.0032059597 -0.029579034 0.009246829
0.015000001 0.020411117 0.019048117
0.00563116 -0.022025486 0.019221269
0.0037871832 0.021509308 0.02230927
0.015000001 -0.01370236 0.015170311
0.0047808797 -0.02820605 -0.012125033
0.011067 0.0098322192 0.0022243429
0.0027691114 -0.010931779 0.029001633
0.010044905 0.0096720979 0.028826112
0.0023000001 -0.01282232 -0.0010847009
0 -0.012611529 0.020381246
0.0073311762 0.025528288 -0.011527925
0.0077738715 0.012418007 -0.0064514652
0.0022999998 0.0044405926 -0.01437114
0.0034999996 0.0098611675 0.008517649
0.015 0.025467303 -0.016776428
0.0115 -0.011580068 0.0069222073
0.00064514886 -0.008158735 0.029896898
0.019845651 0.0048579024 0.0011582465
0.0034999996 -0.0076953182 0.012186217
0.015 0.026945543 0.013402143
0.0022999998 -0.0045118183 0.013044953
0 0.014901694 0.0029708159
0.013528039 -0.030349376 -0.0062676603
0.012426534 -0.030815993 0.0032758394
0.0033877559 -0.012356746 0.028425094
0.009023468 -0.02814032 -0.0057095247
0.0087695103 -0.0035367014 0.0048340941
0.011771115 -0.029051606 0.010789643
0.015000001 -0.021666037 0.0078390539
0.0051901578 -0.0056542526 0.0019788956
0.003504788 -0.0045778523 -0.012944547
0.014999999 -0.018396603 -0.020450795
0.0115 -0.0087194536 -0.0096927444
0 -0.0128737 0.017435348
0.015 0.022065274 0.0022202879
0.015000001 0.0075503867 -0.018349715
0.014323279 0.011894154 -0.0038236298
0.010600735 -0.02304429 -0.020720545
0.0049371147 -0.030320091 -0.0026295264
0.0092199827 0.014344689 -0.025171597
0.015000001 -0.014570096 -0.015996233
0.0052862274 0.0052609588 0.0028701257
0.015000001 -0.012113081 0.024844648
0.015 -0.001997849 -0.013715154
0.0073503703 0.013464845 -0.0037954394
0.002531149 0.0056391968 -0.012036581
0.015 0.017554378 -0.0033031271
0.010757526 0.011575633 -0.0078582363
0 -0.016612642 0.0048488658
0.015 0.022538049 0.015738782
0 0.0033795082 0.017320804
0.015000001 0.019468896 -0.012014141
0.015 0.026371606 -0.010466162
0.007216082 0.0097939409 0.026252327
0.015 -0.021754988 0.0064907754
0.012287836 0.0063892221 -0.030326398
0.011852286 0.030931504 0.001951269
0.0047232774 -0.013185223 0.0046962043
0 -0.02729743 0.013225144
0.010766237 -0.0083050644 -0.029855987
0.014999999 0.013534919 0.0028724237
0.015000001 -0.01752381 0.023346912
0 0.0053391303 -0.021982327
0.0047121057 -0.030497549 -0.0044498602
0.007940039 -0.0042952034 -0.013316063
0 -0.010049553 0.016798763
0.0092165573 -0.004946887 -0.0033768856
0.015000001 0.0087278038 0.023087619
0.015000001 -0.022752322 -0.012581109
0.010247326 0.028757529 -0.010909229
0.015 -0.020622408 -0.0095310705
0.0115 -0.012580529 0.0034137326
0.010239649 0.0057964781 -0.0015260926
0.00091240794 0.024744291 0.018656941
0 0.025912022 -0.0050705806
0.005322238 -0.0055729351 0.029239625
0.015 -0.0075936215 -0.0136514
0.0098923715 -0.0086797606 0.010978712
0 0.0071377647 -0.016832311
0.0022999998 -0.014211664 0.00091088534
0.0067112204 -0.021184636 -0.018553924
0.015 0.017330281 0.01703673
0.0031635924 -0.013878377 -0.0048150104
0.0014995165 -0.027254034 -0.014767062
0.015000001 0.013473744 0.02668361
0 0.014699033 0.0064576259
0.0035483013 -0.029275116 0.01019052
0.015 -0.018496579 -0.021075573
0.010319734 -0.012322773 -0.028313529
0.0080457935 -0.013496561 0.0037148925
0.028499998 0.0010427939 0.003322562
0.008835189 0.003 -0.00078990706
0.006109715 0.026284391 -0.011185328
0.010525433 -0.002691929 0.0011818102
0.0061094305 0.012628418 -0.025618978
0.0086639058 0.012559569 -0.0061760242
0.0088179996 -0.023962399 0.015438813
0.0046739611 -0.013989472 0.00046696316
0.00296285 -0.021933757 -0.021892749
0.009056773 0.026462885 0.011248977
0 0.019702801 0.017730122
0.00055586162 0.02935819 0.0099284593
0.011935099 0.013115623 0.02808246
0.01140271 -0.00091836537 0.030980242
0.015 -0.018107247 -0.0097980518
0 0.015024829 0.019882344
0.015 -0.0043259333 -0.014300202
0.0068565705 -0.0071213781 0.027190091
0.015 0.024358533 -0.0067426483
0 -0.005542147 -0.01637785
0.0086743757 0.02571772 0.011992512
0.0046582874 -0.015361495 -0.026827473
0.010843221 0.030985888 0.00054346345
0.019709105 -0.0045347018 -0.0020956702
0.0115 -0.0026904091 -0.012886513
0.0059715933 -0.0015233119 -0.013907325
0.014724966 0.029022692 -0.010884412
0.001957895 0.013528522 0.0035666858
0.0115 -0.009418943 -0.0098526934
0.011074974 0.011130935 0.0055568214
0.014999999 -0.007920716 -0.016898919
0.0052632671 -0.024299432 0.017370069
0.015 -0.025847141 0.0092615364
0.0052695344 0.011584219 -0.0078451801
0 -0.018782061 0.021787997
0.0035515779 0.025607457 -0.017453123
0.0074571078 0.024957331 0.012693763
0.006354603 -0.011343595 -0.025983302
0.015 -0.0084906099 0.01145819
0.0060808207 -0.019656941 0.020759607
0.028500002 -0.00035428419 0.0029889303
0.014500652 -0.024262987 -0.019278813
0.017938599 -0.00050354638 -0.0039639855
0.0034999996 0.012447724 -0.0062706531
0.011067 -0.0079788435 0.0065150363
0.027200408 0.0012041697 0.0048432029
0.0047890609 -0.028332666 0.011803
0.0010780011 0.013843053 0.0020674879
0.0035000001 -0.013208044 0.0064087883
0 0.0010604385 0.022078479
0 0.018555768 -0.0094324471
0.015 0.012852979 0.0096899457
0 -0.022604976 0.013599283
0.014999999 -0.013686312 -0.014359844
0.015 0.020587988 0.0066558085
0.0063528083 -0.018647984 -0.021357849
0.015 0.019670548 -0.021117898
0.015 -0.026715556 0.014341513
0.012454737 0.029642051 0.0090447944
0.0026405202 0.028025813 0.01322522
0.0026958208 0.026052328 -0.016798884
0.0115 -0.0058808289 -0.011350769
0.0043866807 -0.018672027 0.024734875
0.011067 -0.0063650715 -0.008342565
0.0022999998 -0.0045589576 -0.014036172
0 -0.017485254 0.011149176
0 0.0095404079 0.024494838
0.0034999999 -0.010769948 0.0098887626
0.0045177625 0.005466511 -0.0015739654
0.0083737019 -0.02776596 -0.0049297726
0.010694763 0.0069372859 -0.030210054
0.010113148 0.03050285 -0.00089552882
0.0073881876 -0.010594879 -0.0091372682
0.010376547 -0.022740567 0.021035539
0.015000001 -0.011242256 0.012073465
0.015000001 -0.0077130874 -0.013758971
0.0030716716 0.028240226 -0.012771404
0.002090699 0.030744828 0.0038888671
0.011067 0.01027305 -0.0010832382
0 0.025054932 -0.015804444
0.006577285 -0.016274638 0.023063291
0.0093234228 0.029077677 0.0020453781
0.0115 0.011813608 -0.0051879468
0.0034999999 -0.010674578 0.0073956149
0.0034999999 0.012735208 -0.0049566505
0.014999999 -0.013646551 0.019251049
0 0.0099964356 -0.011464261
0.015000001 0.026777338 0.0083986875
0.013294076 -0.0096015967 0.02946607
0.0022999998 0.014681418 -0.0011721615
0 0.00019502918 -0.018934995
0.0059517664 0.0059908116 0.00015482989
0.019435398 -0.0041858195 -0.0026047099
0.011279966 0.0085464995 -0.029793706
0 0.026125377 -0.0065126517
0.011067 0.0040866113 0.011576539
0.010999083 -0.0070906784 -0.012067204
0.014674239 -0.01232543 0.0020183988
0 -0.027372289 0.0085646724
7.2780611e-05 0.0016384986 -0.013895567
0 -0.015190928 0.0066998103
0.014999999 -0.014134624 0.024037885
0.014999999 0.0177282 -0.017806858
0.0067009223 -0.015283112 0.023650976
0.015 -0.018614748 -0.005254705
0 -0.013574606 0.026674343
0.0084188618 0.011498602 -0.0079753539
0.015 0.014350794 0.026863195
0 -0.0025375772 0.017134463
0.014999999 -0.011423546 -0.017622992
0 0.022421619 0.0068054451
0 0.027338784 -0.00445762
0.015 0.020709267 0.015094847
0.0099231452 -0.0047889324 -0.013147128
0.0022999998 0.0069699548 -0.01044856
0.0099007702 0.029789133 0.0046964595
0 -0.014701114 0.019299256
0.0048016231 0.027772285 -0.013001272
0.015 -0.009204831 -0.027782707
0.0044417549 7.992662e-05 0.0057069799
0.014999999 -0.023720488 -0.0031587954
0.0049638916 0.0020248299 0.013842797
0.0096411929 -0.0001297175 -0.0029399244
0.0053022234 0.0032505987 -0.0050310278
0.0054232259 -0.029404635 0.0032857687
0.00079203211 -0.030916853 -0.0022035569
0.0079233181 0.016395422 0.022745576
0.0024419492 -0.012517108 0.0083471267
0.011500001 -0.0065262718 -0.00063051214
0.015 0.0075734286 0.016840661
0 -0.018623227 0.012780344
0.0034999999 0.011858248 -0.0077822702
0.025703149 0.00049757119 0.0049648914
0.0099429619 0.0092308456 -0.010524001
0.014999999 0.024815751 0.0088568926
0.0022999998 -0.0015217834 0.014138554
0.0055709225 -0.018778566 -0.022539116
0.0043112631 0.013936641 -0.0012667914
0.0055403211 -0.00097917125 0.029373383
0.015 0.02645947 -0.0011632484
0.001326943 0.0053909491 -0.012914549
0.014999999 0.017793423 -0.0082299411
0 -0.013041058 0.0079187956
0.0069969837 0.027959757 0.0024201476
0.011067 -0.01085885 8.5431078e-05
0.015000001 -0.014754605 -0.016514516
0 -0.017897863 -0.013527617
0.0034999999 0.0082869194 -0.011728303
0.012321605 0.020244252 -0.023463313
0.0072543407 0.0042820494 0.013320987
0 -0.00033945453 0.028704951
0.010672403 -0.019602815 -0.024001913
0 0.005739525 0.020721985
0 0.030058406 -0.0020220987
0.0097683212 0.0040689223 0.013384793
0.001813565 -0.0097616902 -0.010025903
0.0041450551 0.013206665 -0.0046174661
0.0077997022 0.013832225 -0.0021601284
0.00053984555 -0.02779883 -0.013699044
0.0035000001 -0.011868766 -0.0069547128
0.0024015009 -0.0035948567 -0.014606772
0.0017138092 -0.030811053 0.0033232034
0.0096059479 0.0090173921 0.028234281
0.0061807074 -0.001487572 -0.0058025615
0 0.022507444 -0.003692291
0.0030742979 0.014545841 0.027369229
0.0014052292 0.010689208 -0.029087728
0.012364371 0.010872336 0.029020773
0 -0.0080189044 -0.025322743
0.0022999998 -0.0072794808 -0.010107461
0.015 0.028155196 -0.00092611002
0.015 0.01002362 -0.013666484
0.0077538569 -0.0046537067 -0.013193397
0.015 0.012919285 -0.023857947
0.016499998 0.0049061473 0.0021462382
0 0.027495336 0.0098930653
0.015 -0.015917104 -0.019252269
0.011067 -0.0012025384 0.0082348315
0 -0.016338693 0.0017501534
0.0056506754 0.0027322858 0.0018866159
0.015 0.002526796 -0.020211669
0.0092098312 0.0093717938 -0.010391023
0.014999999 0.015199921 0.011647926
0.0068985834 -0.024516217 0.013732717
0.0034999996 -0.013986005 -0.0029986345
0 -0.019721217 -0.011307369
0.015000001 -0.011658839 -0.0063080066
0.0089294761 0.0030707619 -0.0051445588
0.0022999998 -0.011696357 0.0087318951
0.0055 -0.0020874406 -0.0042813052
0.016499998 0.0044787577 0.0049782204
0.0022999998 -0.012224037 -0.0072281631
0.0115 -0.0039426466 0.013172062
0.0068189413 -0.0058191777 0.0014180844
0.015000001 0.02623309 0.00080777239
0.021197006 0.0028567298 -0.0040910239
0.015 0.0023750761 -0.013248149
0.015 -0.027755804 0.0065953825
0.011867501 0.012489166 -0.00026540982
0.0022999998 -0.00048442921 0.014879799
0 0.027308092 -0.0070360568
0 0.027935345 -0.01093414
0.0053233816 0.028717881 -0.007840001
0.0031159306 -0.029284051 0.010162772
0.0099318493 -0.010022414 -0.028494794
0.0088118184 -0.0071397135 -0.012036298
0.0030223834 -0.01218201 0.0017803273
0.00235558 -0.014412794 0.0028423914
0.024841104 -0.00021288995 -0.0049854647
0.011103405 0.0061329463 0.012573946
0.0054989322 -0.025289167 -0.0151068
0.01180119 0.019197464 0.024327848
0.00021657172 0.015914917 0.026597267
0.005306433 -0.011650211 0.027422151
0.011571705 -0.0011381403 0.0021936172
0.010132086 -0.0039476049 0.0045062979
0.00098844105 -0.013534882 -0.0035531961
0.0052753333 0.02549986 -0.015513701
0 0.013363428 -0.015299643
0.010396763 0.010271749 -0.0094980877
0 0.0025932393 0.015733952
0.011067 -0.0012752882 0.011200122
0.0077082762 0.0057966188 0.012734767
0.0063652294 -0.00089265383 0.0029487275
0.014999999 0.0020119026 -0.023308713
0 -0.014233933 0.0035541093
0.0035000001 0.0064982511 -0.0097440733
0.009173397 0.0069691036 -0.012130038
0.014999999 0.014784792 -0.012194579
0.0022999998 -0.011194001 0.0062343036
5.5629233e-05 0.0086501911 -0.029761791
0.0060379151 -0.012440914 0.0063989977
0.014999999 0.003470897 0.027032036
0.0026233331 0.011892726 -0.0043988139
0 -0.026677599 0.014924113
0.0060640234 0.005365836 0.028097408
0.014821482 0.020185286 0.023514401
0.0046126004 -0.00013300101 -0.013989524
0.0053181504 -0.013736051 0.0027044041
0.0035195795 0.0015185183 -0.013707235
0.0059944186 -0.011290313 -0.0082618734
0.010919058 0.012229839 -0.0067924876
0.014999999 0.021157408 0.004855203
0 0.0068663154 -0.01394492
0.005596925 0.0091382144 0.027825689
0.0059486278 0.003 -0.00087562506
0.0097494815 0.0012706824 0.0058532432
0 0.016413737 0.0097695608
0.0030784542 -0.0050004474 -0.0088414978
0.0022999998 0.0074968054 -0.010942125
0.015 -0.023225959 -0.019561484
0.0064411508 0.028306115 0.00022936158
0 -0.0040891673 0.013506437
0.015 0.0073627573 0.013591843
0 0.0082469927 -0.026412904
0.0070442632 0.0050609233 -0.003208824
0.015000001 0.016053688 -0.017705511
0 -0.025123384 -0.0050486978
0.0028131362 0.0068046232 -0.0090484796
0.0084189875 0.0049794735 0.013073415
0 -0.022982771 0.014168305
0 -0.02030367 -0.0020615696
0.014028367 0.00089738099 -0.0079396823
0 0.010563414 0.012722934
0.014999999 -0.003262294 -0.026613679
0.0034999996 -0.012505301 0.0051194327
0 0.026459757 0.011082483
0.0099730678 0.0059465361 0.00077279692
0.015 -0.019112647 -0.020309761
0.015 -0.022917174 -0.008151223
0.011310404 -0.0088319154 0.029708693
0.008404254 -0.018107316 -0.021651693
0.015000001 -0.0073679718 0.017178128
0 -0.016508959 0.015064372
0.0081493622 -0.0042092935 0.0042669009
0.015 -0.023011716 0.012777958
0.015 -0.021030292 -0.018706826
0.011067 0.010807028 0.0021454159
0.0060145208 -0.024993047 -0.014039205
0.0021532145 0.03089181 0.0024598788
0 0.00031934454 -0.0285044
0.016499998 0.00070982135 0.0057346672
0 0.0070066387 -0.026617479
0.015000001 -0.018804641 0.0063363751
0.0050658882 0.009336317 0.010424495
0.011500001 0.0012793967 -0.0062569804
0.0096627828 -0.016935697 0.024446065
0 -0.020199815 -0.00068086782
0.015000001 0.018464124 0.01539875
0.0096607422 0.029576266 0.0031374551
0.0096214991 0.0043608164 0.029343022
0.0074963593 0.01269402 0.024948006
0.011067 -0.010733574 0.0024605105
0 0.014301621 -0.025519993
0.0091952877 -0.016441116 -0.023807226
0.010386878 0.013319401 -0.0043077245
0.0097240871 -0.027042197 0.012629745
0 0.013955236 -0.012550823
0.0219546 -0.0028246401 0.0041226503
0.0065202764 -0.0021925045 -0.0055740983
0.0034999999 -0.0080499891 -0.00073749135
0.015 0.0098111564 -0.023490705
0.014999999 0.013640117 -0.014662638
0 -0.023179075 0.00046625419
0.014666362 0.013244568 -0.02801948
0.011868704 -0.0063172351 0.030342603
0.0099039385 -0.023893299 -0.018406991
0.016499996 0.0018892696 -0.0054229493
0.010041663 -0.020163659 0.022748195
0.0064581782 -0.013126261 -0.0048603364
0.014999999 0.022733724 -0.0095605319
0.0092357928 0.010923231 0.026868651
0 0.012282146 -0.02197171
0.016499998 -0.002911743 -0.0042679552
0.0038255355 -0.0056215194 0.0020670181
0.0095690461 0.029339701 0.0037243892
0 -0.0011463031 0.017620794
0 -0.010001192 -0.028023686
0.015 -0.020415809 -0.016608724
0.0090963561 -0.028526815 0.0039832145
0.0047584479 0.003605549 -0.013523518
0.0115 0.0098928874 0.0086812545
0.0035000001 0.0091756443 -0.0089681139
0 0.014130273 0.019096013
0.011067 0.0041534011 -0.0081246514
0.0084195593 -0.013865197 -0.0018819647
0.014999999 -0.012965528 0.024815945
0.0047659939 -0.027488526 0.013729275
0 -0.01631235 0.010977772
0.0078153862 8.121875e-05 0.005994502
0.0057260161 0.010737011 -0.0089830412
0.012018273 0.011251329 -0.0054219617
0.015 0.010691261 0.023895811
0.0082512368 -0.013695252 -0.0028765495
0.0071243593 -0.013377242 -0.004097335
0.009887049 -0.0037478446 -0.01348073
0.01482861 -0.0006367811 0.012479206
0.0035162407 -0.0068823369 0.011940338
0.015000001 -0.026555771 -0.010116436
0.01274565 -0.026757909 0.015635021
0.016499998 -0.0054028728 0.0045688399
0.0037243587 -0.011744822 0.007613604
0.0034999999 -0.0052996688 0.011612893
0.0051856227 0.013990399 -0.00024741783
0 -0.0078272279 -0.028515218
0.015000001 -0.026649591 -0.0053482992
0.012723284 0.012114021 0.0030748302
0.0034999999 -0.011015781 -0.0066889855
0.010700436 0.013691813 0.0028763495
0.011217771 0.007122953 -0.010202423
0 0.02476405 -0.010613477
0.0099728843 -0.012203364 -0.0068538031
0 -0.0073945434 0.012565535
0.002967915 0.001908476 -0.030938705
0.0039329999 0.0015323953 -0.0081626773
0.015000001 0.0096561788 0.010118971
0.0115 0.0080166534 0.010085857
0 -0.0157442 -0.0032023769
0 0.0044737048 -0.019467842
0.011500001 -0.0062429626 0.00095800671
0.010710864 0.0057902234 0.0015465742
0.011067 0.0025067455 0.010061715
0.010362274 0.0088644307 0.029651636
0.0064235651 0.014721999 0.024190264
0.00069052319 -0.025667625 0.017380435
0.0055408329 -0.024403932 0.016368192
0.003410022 -0.008180486 0.012621813
0.0022156916 -0.022174124 0.02164924
0.0034999999 -0.0099339569 -0.0095846467
0.011045261 0.006517963 -0.012389843
0 0.018662628 0.020289484
0.0037120166 -0.0033633206 -0.030807523
0.014332738 -0.0067230868 0.0043182964
0.027257698 -0.004918321 -0.00087416754
0.015000001 -0.0071858983 0.023672935
0.0018868475 -0.012625571 0.0060313139
0.0031459215 -0.0010060739 0.011648917
0.0015709284 -0.028657742 -0.011817507
0.010738648 -0.027232667 -0.014804442
0.0089537865 0.0082729096 0.027399873
0.0003566446 0.027246282 0.014764927
0.0029146781 -0.0055589499 -0.0087426146
0.014999999 0.029260796 0.0025093879
0 0.018007429 0.014107848
0 -0.015456974 0.012435204
0.013804361 -0.0077335457 0.0020070148
0.0088388426 0.012689774 0.0058895829
0.0037698022 -0.030120077 -0.007318995
0.015000001 0.0053118556 0.022280876
0.0039248052 -0.01229505 0.0066894381
0 0.022972466 0.014411559
0.016402459 -0.005274517 -0.0057416195
0.015 0.014452327 -0.0038183674
0 -0.027412796 0.01231768
0.011545039 -0.0091213491 0.029627645
0.015 -0.026398471 0.015926609
0.011500001 0.010550646 0.0077218115
0.014999999 0.016311388 -0.025178468
0.010031054 0.023419088 0.019349134
0.015 0.011668273 0.010214645
0.015000001 0.019612854 -0.017030457
0.0066311732 -0.024706729 0.013594489
0.0055600773 0.0096013211 0.027745172
0.015 0.019822214 0.013985823
0 -0.014501471 0.0037412287
0.0039329999 -0.012197484 0.0024299724
0.0034999999 0.0057592806 0.01170648
0 -0.027176574 0.0035520436
0 -0.0049118092 0.021362448
0.011417592 0.0277972 -0.013709091
0.0086991014 0.0059951651 -8.1477308e-05
0.010316022 0.012535715 -0.028211622
0.0039329999 0.0041597481 0.0097732134
0.0034999999 0.012398098 0.0073316032
0.0056444691 0.012933928 0.0053524543
0.011067 0.0050147995 0.0076316791
3.554827e-05 0.011717586 -0.028692488
0.010006373 -0.01359526 0.0032984489
0.0039329999 0.00032133682 0.0085500143
0 -0.0071208249 0.022044363
0.0039329999 0.00044033705 0.0083579645
0.0022999998 0.0081435787 0.011949159
0 -0.011136918 0.019969998
0 -0.016859993 -0.0070089106
0.0015716715 0.013282471 -0.0044091898
0.0041540177 -0.0026629854 0.0053712535
0.0055714305 0.022070995 -0.019319681
0.00514339 -0.02759853 -0.011952854
0.015 0.021809468 0.018891999
0.0034999996 0.010287228 -0.010253749
0.0061483718 0.013934735 -0.0012830975
0.015 0.015932718 0.013594386
0.0027419433 0.012432873 -0.00030699704
0.0088157346 0.015058526 0.024195837
0 0.002296593 0.014922711
0.0095291315 -0.017827699 -0.023513669
0.0020039075 0.0069608851 0.03020411
0.015 0.019622331 -0.0038985552
0.010633962 -0.0058473404 -0.0013015412
0.0028203588 -0.011055859 0.010209374
0.0059656985 0.013987108 -0.00033224569
0.014999999 -0.017282112 0.013148468
0.011193498 -0.017287912 -0.025720341
0 0.013187928 -0.0094925445
0.0039329999 -0.0051055043 -0.0083609698
0.011067 0.0050709564 -0.0089521436
0.011558858 0.021620965 0.022201879
0.010554142 0.0117653 -0.0075698611
0.014999999 -0.00080486597 0.020030094
0 0.025772056 -0.016265634
0.027179716 0.0043021068 -0.0025372948
0 0.018254403 -0.0014194904
0.015 -0.007633647 0.025071733
0 -0.019201046 -0.016653001
0.012945984 0.0072701215 -0.010156514
0 -0.006205576 0.019878676
0.01419034 0.022203047 0.021627199
0 -0.011413674 0.015414638
0.01446897 0.012356359 0.028420579
0 0.002410792 -0.029082619
0.0034999999 -0.0075334846 0.012174364
0.0037248223 0.0050519062 0.011373913
0.015000001 -0.0001945283 0.018190743
0.0083168875 -0.0077116615 0.011675814
0 -0.015437921 0.01255882
0.0063846507 0.0072175725 0.011986583
0 0.011853434 -0.0088383527
0.0016054158 -0.0033978226 -0.013570891
0 0.027159821 0.0070764762
0.012533462 0.00013823521 -0.00079894724
0.0088033238 -0.013108184 -0.025295472
0.024175653 -0.0049624559 0.00053186284
0.015 -0.014649052 -0.024715491
0.015 -0.0077192229 -0.010681202
0.017690213 -0.00033973658 0.003975702
0.010676081 0.001007132 0.002762594
0 -0.010641931 -0.013248754
0.0022999998 -0.0077380044 -0.012123062
0 0.021164762 0.019868897
0.0034999999 0.01327271 -0.0066778595
0 -0.0050075795 -0.021504372
0.0014394909 -0.00030889042 -0.030988153
0 0.017036498 -0.021092938
0.014985615 -0.025699217 -0.017331278
0 -0.019646972 0.023469135
0 0.027911477 0.011157706
0.011067 -0.011584598 0.0043107807
0.014999999 -0.013277864 -0.026295116
0.0035435809 -0.0092195012 -0.010521735
0.011487094 -0.0041697859 -0.0045968113
0.017956292 0.0012444075 -0.0037941553
0.0062822597 0.012482591 0.0063344166
0 -0.0059862994 0.013291202
0.0011740276 0.0017429386 -0.013881301
0.0057331175 0.0066552423 0.012311245
0.013857577 -0.025788827 0.017191842
0.00079807488 0.00030479033 0.013995429
0.014999999 0.019517874 0.021774806
0 -0.0031741234 -0.017004792
0.0083093382 0.0063083339 -0.027454315
0.010207262 -0.0072418246 -0.01197194
0.0066867336 -0.0089927921 0.010719584
0.0034999999 0.014030143 0.00087797578
0 -0.0018718614 0.029573463
0.015 -0.016350746 0.0072617335
0.010142912 0.013593705 -0.027380934
0.0047509824 0.025165644 -0.017680697
2.6094367e-05 -0.011711362 0.028693441
0.0086383428 -0.016581668 0.022991816
0.015 0.027778829 -0.0046309605
0.011810529 0.015324395 0.026937524
0.0035521265 0.0038594762 0.013313245
0 0.012959492 -0.010433441
0 0.012842326 0.025685482
0.0015250581 -0.027482294 -0.014326306
0.0072228713 0.00031021252 -0.0059855613
0.015 0.020467654 -0.0081815124
0.0075787189 0.027969949 -0.0014537277
0.0072977701 -0.0032413804 0.027825471
0.0063334387 0.024001993 0.015137023
0.015 0.0074069472 -0.022079919
0.014371733 0.0026439051 -0.0075442288
0 -0.0035946246 0.014324053
0.0039605182 -0.0056665419 0.0012354099
0.0086696995 -0.0166543 0.022971636
0.015 0.0067853793 0.021086283
0.00067590881 0.0026995912 -0.030871952
0.011296622 -0.002102769 -0.013813915
0.016499998 0.00565584 0.001883924
0.015000001 0.01569297 0.0096494677
0.014999999 -0.019675797 0.016862532
0.0066333697 -0.001037401 0.0059009674
0.0034999996 -0.014312348 0.0038756724
0 0.00038397129 0.026684348
0.0064654113 -0.010318564 0.0094581246
0.0072476449 0.010612854 -0.025936894
0 0.010378445 -0.016435126
0.0114792 -0.0020913025 0.013635218
0.014615894 -0.028829789 0.011372761
0.0065755821 0.0052011814 -0.012987817
0 -0.016412383 -0.01218827
0.0034999996 0.0070006489 -0.0091877086
0 0.0069877352 -0.018211536
0.0094033191 -0.01830248 -0.022870032
0.0059823706 -0.028227609 -0.0051884586
0.0115 0.0051492248 -0.003913362
0.0065557775 -0.011504824 0.0079617565
0.0022999998 -0.011241127 0.0088536954
0.011772648 -0.030959401 -0.0013849329
0.014999999 0.018623615 0.0086706346
0.0034999999 -0.014240021 -0.0024155099
0.0053357766 0.0054293117 -0.02924305
0.0064817164 0.017054236 0.022568116
0 0.015219035 0.0038623812
0.015 0.019641535 0.010446338
0.006068836 -0.020550946 -0.019895863
0.013914658 0.0068867053 0.010427468
0 -0.013460589 0.0061064623
0.0090138773 -0.0066994443 -0.012282672
0.015 0.0083002532 0.024916368
0.016190609 0.0063562533 -0.0048412546
0 0.021057498 0.017655175
0.0035000001 -0.0061843214 -0.0035748284
0.0031029428 0.0059409146 0.010179915
0.011067 0.0014800197 0.011567938
0 0.01842306 0.012494114
0.0014427637 -0.030041501 -0.0076148137
0.015000001 -0.00069457066 0.018757937
0.0035000001 -0.0081810597 -0.011374608
0.0022999998 0.012490804 -0.0033255541
0 0.0055426657 -0.015110502
0.015 0.008190277 -0.010774085
0 0.019294895 -0.018508378
0.011067 0.010071241 -0.0042998451
0.0082101692 0.0062294342 -0.012527809
0.027439456 -0.0036141064 0.0034405582
0.0045926501 0.028008919 0.01326097
0.013227905 0.012476563 -0.00057414442
0.0039329999 0.0091959918 -0.0042178854
0.011672991 0.0015363718 0.0017138033
0.011067 -0.0047742501 -0.0083085075
0.006125764 -0.028248047 -0.0041564866
0 -0.02246929 0.0017701393
0.0081708971 0.0060787327 -0.01259987
0.0039329999 -0.0052877488 0.0064449129
0.0065448424 0.0024521896 0.028142123
0.009853716 -0.022074739 -0.020421853
0 0.0080292234 -0.017275648
0 0.0045376341 0.015414731
0.0052441051 0.0220109 -0.0202426
0.0034421759 -0.0034415417 -0.011676753
0.0093604987 -0.0073737171 -0.01188881
0.0073797549 -0.015507706 0.023323758
0.0062350892 0.0042066067 -0.0042655766
0.0023164756 -0.00036095356 0.030987477
0.004701871 -0.024997957 -0.018055953
0.0034999999 -0.0088321511 0.010381077
0 0.013107353 0.021451166
0.0036294477 0.0039878166 0.0045453007
0.010871665 -0.028934648 -0.011097107
0.014999999 -0.01321731 0.010692856
0.015000001 0.0030016548 0.029365432
0.0027234368 0.010559423 -0.0073269373
0.011499999 -0.0023506146 -0.0065720924
0.011114735 0.005043258 -0.030583115
0.012239093 0.028231472 0.012789937
0 -0.026048979 -0.0049521942
0.0026280193 0.0068631647 -0.012987971
0 -0.020506578 0.013717502
0.0043410491 -0.010777139 -0.029062761
0.015000001 0.007200141 -0.019729419
0 0.020027233 0.017677194
0.015000001 0.019347521 -0.015076372
0.015 -0.023258662 -0.0076508494
0.011067 -0.0032602255 -0.0084328372
0.015000001 -0.0091087939 -0.022719823
0.0058427774 -0.0046253237 0.0038076653
0.0081894612 0.0028461018 0.013697409
0 0.010852451 0.023002306
0 0.0075443592 -0.018216761
0 0.00057471549 0.026465135
0.014230317 0.0040826532 0.01180825
0.013957026 0.0055148061 0.011207098
0.0032763784 0.027958464 0.013367771
0.015 0.018500738 -0.010587993
0.010823268 -0.01118319 0.0084117465
0.0034804752 -0.029867766 -0.0082688443
0.0028339662 0.0273256 -0.014617394
0.015 0.020725634 0.018980134
0.014999999 -0.023835937 0.010874222
0.015 0.01312672 0.0066947229
0.012459813 0.01576218 -0.026692647
0.0076092435 0.013528348 -0.0035673177
0.015 -0.029945279 0.0052092704
0.022522464 0.0024397839 0.0043551056
0.014999999 0.0067764022 -0.026217571
0.015000001 0.0063285986 0.021681411
0.0040127942 0.0040303352 -0.0044428743
0.014999999 0.0177377 0.012628728
0.003594554 -0.017865079 -0.025330812
0.016263533 -0.0077618607 -0.0016465897
0.0038619754 -0.010923288 0.0059531555
0.015 -0.026657365 -0.00045976389
0 0.0039615398 -0.015043252
0.0061751674 0.013997816 5.6313176e-05
0.0051138778 0.0075072185 -0.029174849
0.0066068741 -0.0038858058 0.0045628329
0.014999999 -0.02154481 -0.0093399389
0.015000001 0.0053171949 -0.028686563
0.016499998 -0.0062763034 -0.0020999056
0 -0.01333634 -0.006474785
0.0036603438 -0.0060912003 0.0054061846
0.0073879035 0.011621566 -0.025480501
0.0094275381 0.025007438 -0.015330698
0.015 0.0092645865 0.0097466344
0.011066999 0.010432137 -0.0037068215
0.002324753 -0.011610503 0.028733311
0.0054783211 -0.0050860788 0.0031702316
0 -0.016511345 -0.0072583761
0.010894571 -0.026640378 -0.015840648
0.011863557 0.0040239929 0.030729661
0.015 0.026355054 -0.015193022
0.011067 -6.7245499e-05 0.0089512374
0.0055688242 0.020573432 -0.020917529
0.012687934 -0.010253659 -0.029246686
0.010871802 -0.011417916 -0.0080833491
0.015 0.030254304 0.0065628905
0.0115 0.005396015 -0.0034399189
0 -0.014592114 -0.02710929
0.003725236 -0.00077839819 -0.0057943244
0.011535615 -0.012394601 -0.0015983385
0 -0.014511832 -0.0044687665
0 0.017887305 0.0010172173
0.0080808448 -0.0059142397 -0.0009869918
0.015 -0.012954743 0.01818976
0.0032908383 -0.030966491 0.0012485267
0.0097493324 0.011338275 0.027658822
0.0029355136 0.027750112 -0.013808751
0.014999999 -0.019036999 -0.022568781
0.0034999999 -0.014114379 -0.0019007934
0 0.0035330525 -0.014616062
0.016499998 0.004520277 -0.0030034767
0.0022999998 0.0056855031 -0.0093418015
0.015 0.019017864 0.0084078126
0.0035264334 -0.013054562 -0.004500079
0.012004106 0.0016263586 -0.00058543438
0.014051575 0.0084607825 0.009194796
0.0015000553 -0.021047585 -0.022746297
0.022768544 -0.0048897695 0.001024537
0.0035289784 0.0054422291 -0.01289475
0.026170596 -0.0017418895 0.0046856739
0.00025851114 -0.010759706 -0.029069657
0.010713766 -0.012513621 -0.0062542274
0 -0.020990742 0.00049360201
0.00071642321 0.0074594901 0.011846912
0.0060354737 7.9403879e-05 0.028631873
0.015000001 0.019054091 -0.0060642008
0 0.0055878251 0.018276012
0.0052170195 0.0075896881 0.028968785
0.019519202 0.0011407206 0.004857685
0 -0.0080710733 -0.029397774
0.0030232007 -0.01335983 0.0069079013
0.012239356 0.028590063 -0.011958426
0 0.013651283 -0.021892974
0.0098319668 -0.012464297 -0.0063524395
0 -0.019589389 0.010106629
0.0053586466 -0.029020553 0.0063175461
0.0073327906 0.0026910261 0.0019104372
0.0084779263 -0.017095856 -0.022506621
0 0.012657074 -0.018643424
0.013020565 -0.0022423589 -0.030909196
0.018765921 0.00094391213 0.0041504675
0.015 0.017453274 -0.0027568049
0.0047762664 0.010233556 0.009540176
0.015000001 -0.017542871 0.024372485
0.0023012757 0.012318974 -0.0024786934
0.012239631 0.0091899857 -0.008466512
0.0039329999 0.0047566202 -0.010195555
0.0091250613 -0.01391487 -0.0015026592
0.015000001 -0.0057144775 -0.017891774
0.0085167997 -0.0019995577 0.028213782
0.00077289174 0.0079515483 0.029954683
0.015 -0.0031062425 -0.013899107
0.010551238 0.0294577 0.0096449209
0 -0.0042900234 0.020478038
0.015 -0.014624953 -0.005710687
0.0031594886 -0.0046588955 -0.011105571
0 0.013942538 -0.014540415
0.013788005 -0.0039489493 0.0069461009
0.014999999 -0.027989645 0.0063204104
0 -0.010636236 0.021343814
0.014582009 -0.0054801609 0.011227679
0 -0.011901326 -0.023579329
0.0036336423 -0.0043901824 0.0040805144
0.0022999998 0.012216992 -0.0071228291
0.0080761341 0.0020418789 0.0056321775
0.0063006189 0.0084849307 -0.027101098
0 -0.015066244 -0.016192293
0 -0.014346659 -0.016625062
0 0.022897616 0.016550571
0.015000001 -0.024372939 0.016099332
0 0.015716009 0.011070939
0.010813355 -0.00696463 0.030197363
0.0022999998 -0.00022076543 0.014499227
0 -0.021522423 -0.021121731
0.015000001 -0.0021497011 -0.023132997
0.0051859664 -0.013946127 -0.0011005136
0.012907791 0.01355822 -0.027866278
0.015 0.027561234 -0.00064108672
0.015000001 0.014689437 -0.0095556211
0.015000001 -0.019658322 -0.022291707
5.0555696e-05 -0.029675126 0.0089484416
0.014997437 -0.0055400911 -0.0057685119
0.011066999 -0.0090936143 -0.0053091124
0.013367001 0.0025252262 -0.030887842
0.015 0.028898802 0.007195971
0.0083077094 -0.018304981 0.021406652
0.0022999998 0.0086665796 0.011490895
0 0.016140096 0.0090210848
0.015 0.010309136 0.0088872761
0.01281119 0.017740304 -0.025409339
0.015 0.010616079 0.0067827781
0.0037288712 -0.0055485601 -0.012842074
0.014999999 0.027018728 0.0070394874
0.014999999 0.0021396419 -0.0279446
0.01271766 0.03007976 -0.0074596019
0 0.017047867 0.0023843318
0 -0.019651366 0.0098571973
0.015000001 -0.0052297241 0.023250062
0.0055 -0.00030589881 0.0043176864
0 0.0078038494 -0.022122903
0 0.02610228 -0.0078816051
0 0.020830289 -0.002499837
0.0096366871 0.029689787 0.00042610909
0.015000001 0.025644638 -0.0047496208
0.0039329999 0.001183538 -0.0080972351
0 -0.013915169 0.0043144366
0 0.017633846 -0.01446345
0 -0.027012745 0.0028728112
0.0072001722 0.011520121 -0.02554566
0.01926415 -0.0034008643 0.0033231876
0.0051320507 0.0094313202 0.028580144
0.0054340884 -0.0051200259 -0.013026926
0.011365324 0.013668682 -0.002763551
0 0.014727701 -0.0084123276
0.015 0.01365614 -0.018430782
0.015000001 0.010292997 0.023127846
0.0070145866 -0.013989472 0.0002257578
0.014999999 -0.02670371 -0.00026338367
0.0034999999 0.012425333 0.0035103785
0.011196306 -0.012050204 0.0071075871
0.0071259835 -0.0016164606 0.0025308379
0 -0.0072406149 0.012216447
0.012416142 -0.0055252886 -0.01120707
0.014409076 -0.030587496 0.0049787001
0.0115 -0.0098907491 0.0085888887
0 0.011494356 -0.023420516
0.016499998 -0.0042874878 0.0057889055
0.0015458341 -0.012137163 0.0069634975
0.012541436 0.0073528737 -0.003151577
0.015000001 0.0016489292 0.02124428
0.010713384 -0.0022709009 -0.013804859
0.0024931317 0.0010064989 0.030973852
0.011472396 -0.003088838 -0.0053432505
0.0022999998 -0.013919592 0.002955484
0.0074104844 -0.011125468 0.025694802
0.00027489543 -0.0005512301 -0.030985009
0.0098540671 -0.0045977253 -0.013212551
0.014999999 0.025473222 0.0022810842
0.021942075 0.0049789166 0.00032839994
0.010457956 0.013650583 -0.0030862857
0.011067 0.0081600538 0.0035243628
0.014999999 0.011912814 0.0096073234
0 0.013414452 0.0059022219
0.0076726209 0.027093576 0.0071358713
0.01082051 -0.013386267 0.0040691826
0.0022999998 0.011322498 -0.0094947573
0 -0.013854123 0.0025790194
0.010244593 0.0010632026 0.0058969161
0.010394703 0.020795204 -0.022985911
0.0044290726 0.013685786 -0.0029070405
0.00063754729 0.013450177 -0.0038481259
0.0115 0.003860221 -0.012603384
0.0057625677 0.018187726 -0.022587221
0.0062312628 0.011089022 0.026210073
0.0062268954 0.013581784 0.025016446
0.0046851314 0.0058752573 0.0011693942
0.0077028228 -0.016928216 0.022325067
0.0068209022 -0.01503367 -0.023762072
