# .PCD v0.7 - Point Cloud Data file format
VERSION 0.7
FIELDS x y z
SIZE 4 4 4
TYPE F F F
COUNT 1 1 1
WIDTH 400
HEIGHT 1
VIEWPOINT 0 0 0 1 0 0 0
POINTS 400
DATA ascii
0.015525339 0.0154826 -0.044865545
0.025040643 0.013999991 -0.044907577
0.035086088 0.01399999 -0.044830699
0.04489648 0.013999988 -0.045088738
0.055064078 0.013999985 -0.045020152
0.064861529 0.013999984 -0.044901434
0.075303406 0.013999986 -0.045047276
0.085190579 0.013999988 -0.04507814
0.095073327 0.013999986 -0.044960685
0.10530363 0.013999986 -0.044813637
0.1150538 0.01399999 -0.044930045
0.12484828 0.013999987 -0.044862408
0.13511719 0.013999987 -0.045032907
0.14483003 0.013999987 -0.044945836
0.15464786 0.015507499 -0.04494204
0.013999991 0.024956197 -0.045085523
0.15599956 0.02527448 -0.044899166
0.013999989 0.034955285 -0.045170162
0.15599966 0.034942932 -0.045143627
0.013999989 0.045091774 -0.044855688
0.15599978 0.044907186 -0.044880796
0.013999989 0.054768134 -0.044965405
0.15599953 0.055227667 -0.045094989
0.013999989 0.064736083 -0.045000188
0.15599973 0.06493172 -0.044879209
0.013999985 0.075158238 -0.045064576
0.15599957 0.074809827 -0.044883404
0.013999986 0.084911391 -0.045123123
0.15599979 0.085156336 -0.044816945
0.013999987 0.094904885 -0.044715539
0.15599968 0.095130824 -0.044967789
0.013999984 0.10468729 -0.045083486
0.15599963 0.10502379 -0.045243338
0.013999991 0.1147611 -0.044668011
0.15599972 0.11484597 -0.045003887
0.01399999 0.12523438 -0.044816498
0.15599965 0.12513344 -0.045140274
0.013999989 0.13481824 -0.044931088
0.15599948 0.13451494 -0.045012977
0.013999986 0.14498746 -0.044901811
0.15599956 0.14491594 -0.04468257
0.015455183 0.1543379 -0.045103282
0.024838937 0.15599954 -0.04508606
0.035041798 0.15599979 -0.045113068
0.044980064 0.15599973 -0.045295317
0.055158164 0.15599951 -0.044858396
0.06500496 0.15599971 -0.045294169
0.075067535 0.15599968 -0.044951487
0.084992878 0.15599972 -0.044649404
0.095186085 0.15599962 -0.044694766
0.10489962 0.15599966 -0.044832408
0.11506167 0.1559996 -0.045051027
0.12519364 0.15599968 -0.045053806
0.13504571 0.15599978 -0.044800926
0.14521538 0.15599971 -0.045031015
0.15438774 0.15437441 -0.044883881
0.015695747 0.015443662 -0.034771305
0.025109382 0.013999989 -0.034726921
0.034817152 0.013999991 -0.03510135
0.045275122 0.013999987 -0.035241812
0.054936577 0.013999986 -0.035116948
0.064999364 0.013999995 -0.034991644
0.075274497 0.013999986 -0.034971949
0.085036546 0.013999984 -0.034902252
0.095017038 0.013999985 -0.035085972
0.10475805 0.013999988 -0.03497605
0.11512651 0.013999982 -0.035208873
0.12519993 0.013999986 -0.035221998
0.13486239 0.013999991 -0.03497266
0.1449087 0.01399999 -0.035282616
0.15459464 0.015455874 -0.034894716
0.013999987 0.025172163 -0.035143435
0.15599972 0.024865452 -0.035439145
0.013999987 0.034728855 -0.03508728
0.15599959 0.03519246 -0.035146516
0.013999987 0.045181137 -0.034887604
0.15599951 0.045100853 -0.035049219
0.013999986 0.055263512 -0.035135698
0.15599953 0.054852992 -0.034801476
0.013999988 0.06483385 -0.034916196
0.15599953 0.064897329 -0.03482547
0.013999992 0.075005352 -0.035316512
0.15599962 0.074818544 -0.035358362
0.013999986 0.085065342 -0.035305995
0.15599963 0.084947005 -0.034757733
0.013999982 0.094905876 -0.034855995
0.15599956 0.094608821 -0.03470597
0.013999986 0.10475414 -0.035007451
0.15599968 0.10478292 -0.034988672
0.013999992 0.11491466 -0.034960601
0.15599971 0.11509819 -0.035228506
0.013999987 0.12498964 -0.034799088
0.15599959 0.12487761 -0.03519851
0.013999986 0.13519217 -0.035240881
0.15599951 0.13493116 -0.035141621
0.013999987 0.14497307 -0.034958608
0.15599972 0.14480114 -0.034950599
0.015425764 0.15442482 -0.034938391
0.025149617 0.15599965 -0.035029382
0.034834377 0.15599962 -0.035334647
0.045097698 0.15599957 -0.035311133
0.054968923 0.15599971 -0.035061765
0.065288484 0.15599984 -0.034901209
0.075013369 0.15599963 -0.035211723
0.085088417 0.15599973 -0.034953445
0.095116913 0.15599965 -0.035268027
0.10502751 0.15599969 -0.035360865
0.11505588 0.15599962 -0.034992691
0.12486972 0.15599966 -0.034938507
0.13488641 0.15599954 -0.034895778
0.14525007 0.15599963 -0.034999464
0.15448283 0.15444192 -0.034813482
0.015632177 0.015403216 -0.025083879
0.024970675 0.013999989 -0.024873767
0.034872308 0.013999987 -0.025262808
0.044813663 0.013999991 -0.025242811
0.054882258 0.013999988 -0.025005102
0.065119006 0.013999988 -0.02513727
0.074969992 0.013999986 -0.025269438
0.08478412 0.013999987 -0.024918234
0.094967864 0.013999991 -0.02537795
0.10469216 0.013999986 -0.025099289
0.11490204 0.013999988 -0.024953146
0.12508729 0.013999985 -0.024935894
0.13522597 0.013999986 -0.024799503
0.14496043 0.013999981 -0.025093215
0.15455838 0.015633525 -0.025156345
0.013999992 0.024672957 -0.025056647
0.15599959 0.025142308 -0.02525235
0.013999988 0.035053376 -0.024903908
0.15599978 0.034745369 -0.025329268
0.013999986 0.045141682 -0.025143417
0.15599979 0.044816058 -0.02495968
0.01399999 0.054825414 -0.025372038
0.15599956 0.055147111 -0.024844173
0.013999995 0.065116629 -0.025412947
0.15599973 0.065273896 -0.024932005
0.013999984 0.074998103 -0.024793297
0.1559996 0.074908361 -0.025070272
0.013999985 0.084843539 -0.02501026
0.15599972 0.085364126 -0.025171768
0.013999983 0.094929896 -0.025001135
0.15599959 0.095207393 -0.025044063
0.013999985 0.10533711 -0.024834972
0.15599965 0.10476243 -0.024763202
0.013999989 0.11451761 -0.025048494
0.15599971 0.11483186 -0.025111023
0.01399999 0.12462822 -0.024808867
0.15599965 0.12504683 -0.025056133
0.013999986 0.13480672 -0.025119508
0.15599969 0.13515386 -0.025152344
0.013999986 0.14490953 -0.025086163
0.15599963 0.14513132 -0.025123995
0.015500803 0.15447722 -0.025123483
0.024795465 0.15599966 -0.024736082
0.035377465 0.15599965 -0.02482136
0.044850551 0.15599956 -0.025278579
0.05512929 0.15599959 -0.02472309
0.06504669 0.15599954 -0.025422798
0.074996457 0.15599973 -0.025209362
0.085079141 0.15599959 -0.02467216
0.095327854 0.15599973 -0.025064329
0.10497151 0.15599963 -0.024965741
0.11515467 0.15599972 -0.024896462
0.12510954 0.15599971 -0.024949128
0.13514322 0.15599973 -0.025100432
0.14504652 0.15599965 -0.024971468
0.15465912 0.15450282 -0.025040606
0.015367365 0.015540446 -0.015125412
0.025038423 0.013999989 -0.01480338
0.03519832 0.013999991 -0.01485197
0.044903401 0.013999985 -0.015193574
0.054712728 0.013999986 -0.01501831
0.064780414 0.013999987 -0.015034272
0.075027607 0.013999979 -0.01503307
0.085146025 0.01399999 -0.014962105
0.095282167 0.013999984 -0.015013446
0.10494702 0.013999985 -0.01485599
0.11478285 0.013999986 -0.015261817
0.12487162 0.013999984 -0.014712446
0.13486566 0.013999988 -0.014869899
0.14508252 0.013999987 -0.01520591
0.1546329 0.015645459 -0.014958795
0.013999987 0.024571439 -0.015085421
0.15599975 0.025272312 -0.014849852
0.013999985 0.035082228 -0.015188488
0.15599962 0.035171315 -0.014773177
0.013999993 0.044913657 -0.015130687
0.15599956 0.044746961 -0.014771316
0.013999986 0.054882795 -0.015391133
0.15599948 0.054942973 -0.015090835
0.013999987 0.065059841 -0.0150015
0.15599966 0.064763166 -0.015049803
0.013999987 0.075168274 -0.015340799
0.15599968 0.075092204 -0.015234185
0.013999986 0.085054666 -0.014797458
0.15599973 0.084952123 -0.014891047
0.013999983 0.094622307 -0.014966776
0.15599973 0.094667651 -0.014977138
0.013999988 0.1049602 -0.014891343
0.15599965 0.10519204 -0.015075973
0.013999984 0.11467896 -0.014990745
0.15599951 0.11486457 -0.0149694
0.013999984 0.1252178 -0.015111965
0.15599969 0.12523416 -0.015013157
0.013999986 0.13498569 -0.014692962
0.15599972 0.13515803 -0.015210796
0.013999989 0.14482452 -0.015353051
0.15599954 0.14497696 -0.015140287
0.015613061 0.15461354 -0.015303142
0.024925804 0.15599966 -0.01474775
0.034924909 0.15599956 -0.015106646
0.044850916 0.1559996 -0.014858875
0.054943539 0.15599959 -0.014815044
0.064903252 0.15599968 -0.015019431
0.074911103 0.15599969 -0.014807178
0.084795594 0.15599959 -0.015094901
0.094972663 0.15599963 -0.01512152
0.10491265 0.15599968 -0.015142803
0.11484323 0.15599972 -0.014963374
0.12518761 0.15599976 -0.015182294
0.13493451 0.15599966 -0.015121827
0.1452578 0.15599953 -0.015161753
0.1544693 0.15462314 -0.015131769
0.015445003 0.015531467 -0.0049732826
0.024723643 0.013999982 -0.0049184095
0.03509289 0.013999986 -0.0048478059
0.045294855 0.013999987 -0.0048628221
0.055107277 0.013999983 -0.0052603795
0.064971983 0.013999989 -0.0048819766
0.075148925 0.013999986 -0.0052553825
0.085081376 0.013999987 -0.0050118794
0.094929516 0.013999983 -0.0049381205
0.1052177 0.013999984 -0.0045312373
0.11523003 0.013999985 -0.0049460945
0.12522592 0.013999986 -0.0053142202
0.1352212 0.013999986 -0.0050400035
0.14508767 0.013999991 -0.0050175888
0.15444745 0.015447347 -0.0050171823
0.013999998 0.025003556 -0.0051284009
0.15599957 0.024823548 -0.0050495481
0.013999989 0.034808174 -0.0050101858
0.15599969 0.034757737 -0.0051754951
0.013999988 0.045070015 -0.0049305456
0.15599985 0.04501462 -0.0051192241
0.013999988 0.055344433 -0.0050947657
0.15599957 0.055132009 -0.0049142903
0.013999983 0.065023802 -0.0050917561
0.15599979 0.065203913 -0.0046884734
0.013999986 0.074923038 -0.0052913572
0.15599966 0.074930876 -0.0046685152
0.013999987 0.084847569 -0.0050612967
0.15599962 0.085181274 -0.0054287771
0.013999987 0.094672918 -0.004716719
0.15599972 0.094826102 -0.0049249101
0.013999986 0.10503724 -0.0051165423
0.15599969 0.10482046 -0.0051398249
0.013999985 0.1147707 -0.0046884441
0.15599968 0.11493541 -0.0047134734
0.013999981 0.12507032 -0.0049102474
0.15599959 0.12513572 -0.0048141922
0.013999986 0.13501664 -0.0047978703
0.15599969 0.1348259 -0.0050798813
0.01399999 0.14527191 -0.0046387659
0.15599966 0.14512055 -0.0052092359
0.015582218 0.1544333 -0.0047686463
0.024744561 0.15599956 -0.0051156916
0.035107877 0.15599951 -0.0051234178
0.04500334 0.15599981 -0.0051939744
0.054775156 0.15599975 -0.0049051484
0.065148741 0.1559996 -0.0051664272
0.075054541 0.15599959 -0.0049287677
0.084886126 0.15599975 -0.0049328492
0.094522044 0.1559996 -0.0052255401
0.10507786 0.15599959 -0.0049232971
0.11484004 0.15599966 -0.0047439286
0.12517494 0.15599962 -0.0051085083
0.13490303 0.15599971 -0.0049217427
0.14523238 0.15599962 -0.0047972719
0.15435468 0.15463665 -0.0051883734
0.0047229356 0.0051969024 0
0.014494005 0.0050728796 0
0.025146306 0.0050512459 0
0.035056554 0.0050594355 0
0.044671264 0.00470362 0
0.05507157 0.0051136254 0
0.064855002 0.0047577135 0
0.075007781 0.0050238706 0
0.084792264 0.0051225987 0
0.09497603 0.0048786057 0
0.10496701 0.0051540388 0
0.11519887 0.0049057715 0
0.12478989 0.0051800213 0
0.13501897 0.0051120417 0
0.14503545 0.0046945419 0
0.15498659 0.0049560023 0
0.16481094 0.0050232559 0
0.0053880117 0.015035521 0
0.014104486 0.013802658 0
0.025224628 0.01202657 0
0.034950938 0.012146962 0
0.044713605 0.012052799 0
0.055145778 0.012118548 0
0.065125912 0.01212734 0
0.075340651 0.012185637 0
0.084888682 0.01194004 0
0.095166281 0.01196696 0
0.10508005 0.012113284 0
0.11493653 0.012026744 0
0.12464688 0.011885931 0
0.135195 0.012152878 0
0.14531101 0.011820802 0
0.15642288 0.014013623 0
0.16499461 0.015042568 0
0.0051071006 0.024953388 0
0.011987216 0.024951037 0
0.15813425 0.025249412 0
0.16498879 0.025077248 0
0.0049975719 0.034936447 0
0.011990492 0.034645375 0
0.15797569 0.035069678 0
0.16518866 0.034613684 0
0.0048383083 0.045174818 0
0.012097986 0.044768099 0
0.15784645 0.045163047 0
0.16513261 0.044659942 0
0.0049830466 0.054851077 0
0.011866774 0.05516766 0
0.15794979 0.05527262 0
0.16487959 0.055127073 0
0.0050032181 0.064958438 0
0.012097868 0.064930931 0
0.15789507 0.06444376 0
0.16478904 0.065089278 0
0.0050187889 0.075014256 0
0.012019581 0.075032748 0
0.15808427 0.074599475 0
0.16502738 0.075007997 0
0.0048212465 0.085132174 0
0.011896756 0.08526089 0
0.15805899 0.085447602 0
0.16524418 0.085089765 0
0.0049924082 0.095274143 0
0.012202415 0.095342651 0
0.15787973 0.09524221 0
0.16492583 0.094959363 0
0.0049129622 0.10487644 0
0.01185486 0.10489155 0
0.15803258 0.1048442 0
0.16485409 0.10475798 0
0.0047492348 0.11492162 0
0.012049825 0.11502808 0
0.15834175 0.11505934 0
0.16482104 0.11522221 0
0.0049925116 0.12488991 0
0.011904707 0.12550232 0
0.15817465 0.12534072 0
0.16518259 0.12510869 0
0.005083248 0.13497514 0
0.011798749 0.13488343 0
0.15798065 0.13495487 0
0.16474746 0.13518561 0
0.0048942217 0.14481981 0
0.0118643 0.14489251 0
0.15795599 0.14486718 0
0.16476402 0.14494097 0
0.004835607 0.15483367 0
0.014152005 0.15605058 0
0.025308199 0.15795286 0
0.034799892 0.15798584 0
0.044859599 0.15790379 0
0.055408049 0.15781234 0
0.065156944 0.15786551 0
0.075035378 0.15789814 0
0.085098676 0.15801813 0
0.095089138 0.15801381 0
0.10532963 0.1578839 0
0.11546994 0.15799037 0
0.12492906 0.15796518 0
0.13530043 0.15788613 0
0.14558671 0.15793955 0
0.15575072 0.15649946 0
0.16502905 0.15475808 0
0.0053536408 0.16473936 0
0.015121005 0.16512182 0
0.02508207 0.16482739 0
0.035163976 0.16476826 0
0.045135751 0.16521761 0
0.055016033 0.1650026 0
0.064975232 0.16513804 0
0.074982002 0.16497047 0
0.084533505 0.16531603 0
0.095026992 0.1648687 0
0.10529164 0.16484998 0
0.11500674 0.1644967 0
0.12492818 0.16492686 0
0.13499147 0.16461697 0
0.14521173 0.1650352 0
0.15500669 0.16522078 0
0.16515934 0.16507372 0
