# .PCD v0.7 - Point Cloud Data file format
VERSION 0.7
FIELDS x y z
SIZE 4 4 4
TYPE F F F
COUNT 1 1 1
WIDTH 1391
HEIGHT 1
VIEWPOINT 0 0 0 1 0 0 0
POINTS 1391
DATA ascii
0.017759077 0.017673412 -0.045009062
0.025171423 0.016999992 -0.045080535
0.034535784 0.016999993 -0.045265071
0.044933211 0.016999997 -0.045180943
0.054933775 0.016999995 -0.044944845
0.065034062 0.017000007 -0.045019872
0.074617833 0.017000001 -0.045252711
0.084917463 0.017000001 -0.045029517
0.095212989 0.016999993 -0.044685606
0.10484984 0.016999997 -0.044983495
0.11476227 0.017000007 -0.045231625
0.12526146 0.016999997 -0.045204051
0.1351393 0.017000001 -0.045488667
0.14501044 0.016999993 -0.045102157
0.15469801 0.016999997 -0.045500737
0.16561523 0.016999997 -0.045286559
0.17477076 0.017000005 -0.04575298
0.18509588 0.016999992 -0.045043327
0.19510554 0.016999992 -0.044558529
0.20529665 0.016999992 -0.045271333
0.21510941 0.016999999 -0.045363311
0.22468843 0.01699999 -0.045127064
0.23446089 0.016999992 -0.044919372
0.24485953 0.016999992 -0.044508681
0.25568795 0.016999999 -0.044873733
0.26447052 0.017000001 -0.045399625
0.27501783 0.017000001 -0.044858862
0.28489521 0.016999995 -0.045078307
0.29543525 0.016999993 -0.044960793
0.30505064 0.016999993 -0.044721302
0.31508097 0.016999993 -0.04482124
0.32513025 0.016999993 -0.045126207
0.33523312 0.017000003 -0.044350035
0.34514096 0.016999993 -0.044789445
0.35480285 0.017000003 -0.045609102
0.36472648 0.016999997 -0.044914987
0.37518978 0.016999992 -0.044741377
0.3845998 0.017000005 -0.045438707
0.39452499 0.016999993 -0.045050591
0.40511653 0.016999999 -0.045435674
0.41524521 0.017000001 -0.04502932
0.42495179 0.016999995 -0.044875942
0.43513584 0.016999999 -0.044579923
0.44489884 0.016999995 -0.044651464
0.45473924 0.016999993 -0.045530174
0.46467289 0.017000003 -0.044776626
0.47561359 0.016999995 -0.045321412
0.48537964 0.01699999 -0.044935215
0.49471188 0.016999999 -0.045155589
0.50519556 0.01699999 -0.044647772
0.51467031 0.016999997 -0.04558742
0.5249725 0.016999995 -0.044866808
0.53511047 0.016999995 -0.045565367
0.5446375 0.016999993 -0.045155358
0.55499977 0.016999997 -0.045558073
0.56518 0.016999999 -0.044764202
0.57522345 0.016999999 -0.045222547
0.5852561 0.016999992 -0.045338988
0.5950042 0.016999999 -0.044848986
0.60461581 0.016999997 -0.045155041
0.61532319 0.016999997 -0.04506693
0.6254679 0.016999997 -0.044973359
0.63547546 0.016999995 -0.044642493
0.64507222 0.016999995 -0.04558228
0.65222186 0.01778217 -0.044535168
0.016999993 0.025272539 -0.045345519
0.65299994 0.024403688 -0.045104083
0.017000005 0.035268769 -0.045082998
0.65299994 0.035338238 -0.044597138
0.016999999 0.045048036 -0.045028936
0.65299994 0.044835795 -0.045142267
0.016999993 0.05521046 -0.044943284
0.65299994 0.054864932 -0.045108389
0.016999993 0.064841226 -0.044685964
0.65299994 0.064619571 -0.044993035
0.016999999 0.075146168 -0.04545654
0.65299994 0.075322077 -0.045026213
0.016999992 0.085295431 -0.044589076
0.65299994 0.085027233 -0.045320522
0.016999999 0.095392175 -0.044978432
0.65299994 0.095190234 -0.04498909
0.016999999 0.10496701 -0.044271935
0.65299994 0.10556775 -0.045193098
0.016999995 0.11544427 -0.045134898
0.65299994 0.11476862 -0.045244548
0.017000001 0.12457655 -0.044945709
0.65299994 0.12492619 -0.044172768
0.016999997 0.13533144 -0.045258034
0.65299994 0.13573393 -0.044779085
0.016999993 0.14483288 -0.044569451
0.65299994 0.14504191 -0.04431406
0.016999997 0.15480295 -0.045672502
0.65299994 0.15452582 -0.045491487
0.016999988 0.16470285 -0.045135017
0.65299994 0.16500553 -0.044970568
0.017000001 0.17539412 -0.045179751
0.65299994 0.17465895 -0.044625606
0.016999992 0.18498656 -0.044838239
0.65299994 0.18478043 -0.045488093
0.016999992 0.19479726 -0.044830695
0.65299994 0.19517379 -0.044900373
0.01699999 0.20486669 -0.044586517
0.65299994 0.20466365 -0.044890646
0.016999999 0.21412505 -0.045223165
0.65299994 0.21488981 -0.045326345
0.016999997 0.22510025 -0.044633009
0.65299994 0.22494245 -0.04518377
0.017000005 0.2347718 -0.04412185
0.65299994 0.23505336 -0.044867508
0.017000008 0.24545488 -0.045164544
0.65299994 0.24495794 -0.045243163
0.016999995 0.25561756 -0.043980271
0.65299994 0.25540394 -0.045319479
0.016999995 0.26487347 -0.045149498
0.65299994 0.26513132 -0.04520455
0.017000001 0.27509108 -0.04491986
0.65299994 0.27527365 -0.044602361
0.016999997 0.28556123 -0.045294367
0.65299994 0.28499308 -0.045023803
0.016999992 0.29504094 -0.044683184
0.65299994 0.29537639 -0.044633429
0.016999999 0.30521199 -0.045461085
0.65299994 0.30476803 -0.044502858
0.017362183 0.3142527 -0.044894014
0.025061198 0.31800029 -0.044702828
0.03545728 0.31800011 -0.045416199
0.045372523 0.31800029 -0.04497119
0.055418704 0.31800023 -0.044950761
0.065388881 0.31800026 -0.045019366
0.074962191 0.31800008 -0.045185722
0.085465729 0.31800023 -0.045365807
0.095497839 0.31800014 -0.044876568
0.10503457 0.31800008 -0.044737209
0.1149418 0.31800014 -0.045153435
0.12522662 0.31800023 -0.044659145
0.13497658 0.31800014 -0.0450956
0.14478604 0.31800008 -0.045461878
0.15580915 0.31800005 -0.045170914
0.16435434 0.31800026 -0.045219261
0.17467064 0.31800023 -0.045018665
0.18496373 0.31800026 -0.044502608
0.1950511 0.31800029 -0.04485631
0.20474684 0.31800026 -0.045097228
0.21485949 0.3180002 -0.045371275
0.22533338 0.31800017 -0.045368601
0.2353141 0.31800011 -0.044916894
0.24511121 0.31800023 -0.0455609
0.25486761 0.31800026 -0.045002062
0.26543549 0.31800023 -0.045362405
0.2748884 0.31800023 -0.045281954
0.28520641 0.31800026 -0.044811413
0.29555476 0.31800029 -0.045146506
0.30513841 0.31800014 -0.045306072
0.31513292 0.31800026 -0.044948332
0.32513446 0.31800017 -0.045150299
0.3350662 0.31800023 -0.045227468
0.34562898 0.31800026 -0.045006875
0.35517848 0.31800023 -0.04525733
0.36496815 0.31799999 -0.043944422
0.37527454 0.31800023 -0.04542239
0.38456193 0.31800026 -0.044762369
0.39550623 0.31800017 -0.044908013
0.40532929 0.31800023 -0.044627912
0.4151209 0.31800023 -0.044761546
0.42491356 0.31800023 -0.044789732
0.43468148 0.3180002 -0.04484313
0.44519281 0.3180002 -0.045192525
0.45517114 0.31800023 -0.04474625
0.46502286 0.31800029 -0.044825688
0.47546005 0.31800023 -0.045474343
0.48510084 0.31800017 -0.044996269
0.49483752 0.3180002 -0.044865482
0.50516021 0.31800023 -0.045007326
0.51474613 0.3180002 -0.044345461
0.52475744 0.3180002 -0.045601413
0.53490299 0.31800023 -0.045363951
0.54483545 0.3180002 -0.04490786
0.55512959 0.31800005 -0.045212809
0.56495905 0.31800029 -0.04463423
0.57397163 0.31800008 -0.044774149
0.58539307 0.31800026 -0.045097727
0.59481376 0.31800014 -0.04553777
0.60450619 0.3180002 -0.044608317
0.61514682 0.31800017 -0.045110874
0.62522352 0.31800029 -0.045089748
0.63464499 0.31800026 -0.044604134
0.64535886 0.31800023 -0.045096278
0.65258759 0.3153623 -0.044899527
0.017585615 0.01780232 -0.034499232
0.024995767 0.016999999 -0.034369227
0.034898095 0.016999995 -0.03525731
0.045128036 0.016999992 -0.034982175
0.054417413 0.016999999 -0.03456853
0.065122008 0.016999992 -0.035430457
0.075085908 0.016999999 -0.035063859
0.085329778 0.016999997 -0.034733277
0.095236167 0.016999997 -0.035134267
0.10523703 0.016999995 -0.034557782
0.11559474 0.016999995 -0.035082597
0.12506136 0.016999997 -0.034530714
0.13551989 0.017000001 -0.035456222
0.14474367 0.016999997 -0.035045598
0.15466836 0.017000001 -0.035073664
0.16467902 0.016999993 -0.035035379
0.17500649 0.016999995 -0.035159953
0.18524195 0.016999995 -0.035111967
0.19485004 0.01699999 -0.03489482
0.20500943 0.016999997 -0.035161067
0.2154077 0.016999999 -0.034116723
0.22462258 0.016999993 -0.034853898
0.23511629 0.016999995 -0.035500124
0.2444516 0.016999993 -0.035548102
0.25463572 0.017000008 -0.035193298
0.26478961 0.016999997 -0.035112116
0.27528107 0.016999992 -0.035066053
0.28541124 0.016999997 -0.034861401
0.29517144 0.017000003 -0.035066295
0.30537438 0.016999993 -0.035178766
0.31508455 0.017000003 -0.034837291
0.32565492 0.016999993 -0.035109434
0.33496514 0.016999997 -0.034870353
0.3452526 0.01699999 -0.034441497
0.35503054 0.017000001 -0.034783114
0.3650023 0.016999992 -0.034970667
0.37508672 0.016999997 -0.03468753
0.38520986 0.016999997 -0.035084311
0.39458132 0.016999997 -0.035356678
0.40522301 0.016999992 -0.034836281
0.4147597 0.017000003 -0.035334196
0.42439938 0.01699999 -0.035332531
0.43528378 0.017000003 -0.034882698
0.44510803 0.016999997 -0.035739169
0.45528579 0.016999999 -0.035421841
0.46515486 0.01699999 -0.035498623
0.47578263 0.016999993 -0.03501489
0.48551154 0.017000003 -0.034911826
0.49462426 0.016999995 -0.035240177
0.50469983 0.016999995 -0.035052713
0.51515621 0.017000003 -0.035539497
0.52479649 0.016999992 -0.035100043
0.5349099 0.016999997 -0.035068128
0.54407269 0.016999997 -0.034942668
0.55516881 0.016999999 -0.035032086
0.56506097 0.016999997 -0.034578327
0.5747031 0.016999999 -0.034887463
0.58550996 0.016999999 -0.035323501
0.59455281 0.016999995 -0.035266072
0.60532558 0.016999997 -0.034572877
0.61494482 0.016999995 -0.035225827
0.624798 0.016999999 -0.035563748
0.63490134 0.016999995 -0.034722827
0.64500254 0.016999992 -0.035079889
0.65232217 0.01769289 -0.035616562
0.017000001 0.025311351 -0.035094593
0.65299994 0.024759294 -0.03487125
0.016999992 0.035471916 -0.035444062
0.65299994 0.034888361 -0.035576995
0.016999995 0.0444731 -0.035336662
0.65299994 0.044730298 -0.035334267
0.016999995 0.05487043 -0.035121813
0.65299994 0.055413548 -0.034734838
0.016999999 0.065388627 -0.03471477
0.65299994 0.065389335 -0.035105247
0.016999997 0.075340621 -0.035301436
0.65299994 0.074598506 -0.034767814
0.016999992 0.085319512 -0.034906905
0.65299994 0.084861897 -0.034675583
0.017000005 0.095647968 -0.035368215
0.65299994 0.094360754 -0.034733064
0.016999992 0.1050428 -0.035230957
0.65299994 0.10455074 -0.034442592
0.016999997 0.1150565 -0.03506491
0.65299994 0.11529062 -0.034747347
0.016999999 0.12499368 -0.035095531
0.65299994 0.12545677 -0.035162188
0.016999999 0.13479811 -0.035432499
0.65299994 0.13521254 -0.035031345
0.016999997 0.14503856 -0.035570953
0.65299994 0.14544089 -0.035272487
0.016999997 0.15570316 -0.035204384
0.65299994 0.15555578 -0.034682725
0.017000001 0.16488515 -0.035501853
0.65299994 0.16536552 -0.034388121
0.016999992 0.17539808 -0.035400853
0.65299994 0.17498617 -0.034588806
0.01699999 0.18483269 -0.034611873
0.65299994 0.18519087 -0.034672257
0.016999988 0.19479613 -0.034936115
0.65299994 0.1953644 -0.034660581
0.016999993 0.20463909 -0.035265692
0.65299994 0.20517595 -0.035160195
0.017000003 0.21555577 -0.034717418
0.65299994 0.21524951 -0.034910057
0.017000003 0.2245643 -0.035352781
0.65299994 0.22486372 -0.034729742
0.016999997 0.23454681 -0.034556977
0.65299994 0.23472087 -0.034905992
0.016999997 0.24478403 -0.034390103
0.65299994 0.24496555 -0.034926407
0.016999992 0.25515166 -0.034916013
0.65299994 0.25471702 -0.034920864
0.016999999 0.2650972 -0.035002545
0.65299994 0.26497525 -0.035721876
0.016999995 0.27549705 -0.035303339
0.65299994 0.27492651 -0.034992561
0.016999995 0.28440747 -0.03483247
0.65299994 0.28454974 -0.035430882
0.017000001 0.29527229 -0.035115302
0.65299994 0.29534674 -0.03458311
0.016999995 0.30514139 -0.034916151
0.65299994 0.3048577 -0.034811262
0.01742889 0.31535479 -0.035296101
0.024729749 0.31800017 -0.034704454
0.034821771 0.31800023 -0.034964439
0.045251898 0.3180002 -0.034921639
0.054944791 0.3180002 -0.035070509
0.065331638 0.31800011 -0.035361659
0.075216964 0.31800029 -0.035547197
0.084928021 0.3180002 -0.034861349
0.094599858 0.31800029 -0.035521515
0.10503653 0.31800026 -0.03503025
0.11515224 0.31800026 -0.034927808
0.12504934 0.31800011 -0.035609446
0.13499439 0.31800023 -0.035030313
0.14528327 0.31800017 -0.03524797
0.15490039 0.31800029 -0.034937236
0.16511644 0.31800014 -0.035151433
0.17441382 0.3180002 -0.035021946
0.18445991 0.31800026 -0.03510768
0.1955017 0.31800017 -0.035088327
0.20554109 0.31800026 -0.035190258
0.21487376 0.31800017 -0.035026439
0.22561748 0.31800026 -0.035583422
0.23577522 0.3180002 -0.03522215
0.2448962 0.31800014 -0.035052247
0.25470814 0.31800011 -0.034471299
0.26490042 0.31800023 -0.035294209
0.27491593 0.31800035 -0.034913916
0.28520337 0.31800023 -0.035468865
0.29450682 0.3180002 -0.03530113
0.30539522 0.31800023 -0.03550737
0.31467021 0.3180002 -0.034207966
0.32506025 0.3180002 -0.035513081
0.33442107 0.31800014 -0.034930605
0.34531879 0.31799996 -0.034971781
0.35568017 0.3180002 -0.035047065
0.36508465 0.31800023 -0.03475048
0.37471789 0.31800017 -0.035062782
0.38517824 0.3180002 -0.034898769
0.39567235 0.31800017 -0.034840122
0.40526035 0.31800029 -0.034750748
0.41493964 0.31800014 -0.03497009
0.42443597 0.31800026 -0.035106845
0.43486047 0.31800014 -0.035612654
0.44471723 0.31800029 -0.034611911
0.45506909 0.31800023 -0.035122693
0.46583337 0.31800023 -0.034494281
0.47531825 0.3180002 -0.035155643
0.48517829 0.31800026 -0.034988265
0.4950453 0.3180002 -0.034936514
0.50551391 0.31800023 -0.035266239
0.51480198 0.31800032 -0.035238523
0.52488232 0.31800011 -0.035599358
0.53472441 0.3180002 -0.034338776
0.54536849 0.31800032 -0.035199743
0.55489469 0.31800026 -0.035067115
0.56508511 0.3180002 -0.035081822
0.57505471 0.31800023 -0.034684788
0.58449209 0.31800014 -0.035278317
0.59508276 0.31800014 -0.034671161
0.60518682 0.31800026 -0.035193171
0.61483973 0.31800026 -0.034920372
0.62512034 0.31800026 -0.035065375
0.63518387 0.31800023 -0.034820735
0.64516753 0.31800032 -0.035342127
0.65266114 0.31515482 -0.034983896
0.017876854 0.017709151 -0.024852738
0.02518725 0.016999999 -0.025247395
0.034793258 0.017000001 -0.024802813
0.044437494 0.016999993 -0.025160663
0.054544769 0.016999999 -0.025013665
0.064979307 0.016999999 -0.025074521
0.074759446 0.016999992 -0.02536802
0.084965594 0.017000008 -0.024824742
0.095385887 0.016999999 -0.025601916
0.10521384 0.016999993 -0.024849169
0.11481804 0.016999999 -0.024963411
0.12468184 0.016999995 -0.025485298
0.13501099 0.016999997 -0.025250304
0.14547786 0.017000008 -0.024696201
0.15452568 0.017000005 -0.024919298
0.16518615 0.016999997 -0.025505748
0.17479578 0.016999997 -0.024942473
0.1848498 0.016999995 -0.025853693
0.19507223 0.016999992 -0.024792992
0.2049028 0.016999999 -0.025661327
0.21475668 0.016999995 -0.024466788
0.22437499 0.016999992 -0.024348257
0.23488849 0.016999999 -0.025088146
0.24478462 0.016999997 -0.024896821
0.25516623 0.017000003 -0.025163278
0.2648479 0.016999997 -0.025120525
0.27469283 0.017000005 -0.025585581
0.28526133 0.016999992 -0.025077235
0.29513988 0.016999995 -0.025055163
0.3052009 0.017000001 -0.024987524
0.31493175 0.017000003 -0.024660716
0.3243756 0.01699999 -0.02469301
0.3350766 0.016999992 -0.025122928
0.34479669 0.016999995 -0.024669446
0.35493574 0.017000003 -0.025358478
0.36492851 0.016999997 -0.025096539
0.37450212 0.016999995 -0.02562584
0.3853839 0.016999995 -0.02439875
0.39560339 0.016999999 -0.025213102
0.40485623 0.016999993 -0.025352657
0.41478577 0.016999992 -0.025462341
0.4252837 0.016999995 -0.025626838
0.43550622 0.016999993 -0.024501195
0.44541964 0.017000005 -0.024771092
0.45528799 0.017000001 -0.02556273
0.46487248 0.01699999 -0.024676668
0.47517419 0.016999992 -0.025044687
0.48437679 0.016999993 -0.025117215
0.49529311 0.016999997 -0.025566723
0.50545073 0.016999993 -0.024833005
0.51534081 0.016999992 -0.024814049
0.52503979 0.016999997 -0.02469033
0.53492594 0.016999995 -0.025135344
0.54512423 0.016999993 -0.025081113
0.55496711 0.016999999 -0.02473212
0.5651415 0.016999995 -0.024554612
0.57472426 0.016999992 -0.024448307
0.58497488 0.016999995 -0.024851749
0.59501082 0.016999993 -0.024971716
0.60479403 0.016999992 -0.025199704
0.61484212 0.016999995 -0.025402565
0.62501967 0.016999988 -0.024816742
0.63520968 0.017000007 -0.025274858
0.64513791 0.016999993 -0.025169197
0.6520648 0.01764795 -0.025236545
0.016999997 0.024677381 -0.025335178
0.65299994 0.024956571 -0.024929173
0.016999993 0.034986224 -0.024926359
0.65299994 0.034671236 -0.025088094
0.016999995 0.045048393 -0.025202906
0.65299994 0.04542812 -0.025296394
0.016999995 0.054603409 -0.024478734
0.65299994 0.054710742 -0.024867604
0.017000001 0.064960979 -0.024609279
0.65299994 0.065083608 -0.025292708
0.017000003 0.075022727 -0.02556158
0.65299994 0.074630141 -0.025476098
0.016999993 0.08525487 -0.024665637
0.65299994 0.084595986 -0.02488769
0.016999993 0.094601922 -0.025365088
0.65299994 0.095202096 -0.025206842
0.017000003 0.10486617 -0.024854174
0.65299994 0.10499943 -0.025419693
0.016999993 0.11447576 -0.025366833
0.65299994 0.11479719 -0.024863087
0.016999997 0.12515078 -0.025392234
0.65299994 0.12544659 -0.025191844
0.017000001 0.13520537 -0.024472894
0.65299994 0.13473026 -0.024916273
0.016999995 0.1453921 -0.025545454
0.65299994 0.14472209 -0.025254371
0.016999999 0.1557897 -0.025062066
0.65299994 0.1548759 -0.025009114
0.016999997 0.16502684 -0.025009507
0.65299994 0.16482896 -0.02486676
0.016999997 0.17457357 -0.025385411
0.65299994 0.17489773 -0.02489233
0.016999995 0.18523718 -0.024958396
0.65299994 0.18446711 -0.025325658
0.016999995 0.1948491 -0.025001531
0.65299994 0.19502527 -0.02454086
0.016999995 0.20509744 -0.024865583
0.65299994 0.20527312 -0.024895838
0.016999993 0.21546294 -0.024662366
0.65299994 0.21507984 -0.025170658
0.016999993 0.22487387 -0.024798177
0.65299994 0.22437678 -0.024771145
0.017000001 0.23513468 -0.025153788
0.65299994 0.23488776 -0.024931751
0.016999997 0.24502033 -0.024294054
0.65299994 0.24526243 -0.025374319
0.016999999 0.25509679 -0.024781931
0.65299994 0.25492015 -0.024831213
0.016999993 0.26513559 -0.02500255
0.65299994 0.2649824 -0.024843
0.016999997 0.27503949 -0.025023973
0.65299994 0.27522522 -0.025175618
0.017000001 0.28516442 -0.024812076
0.65299994 0.28519207 -0.0250964
0.016999995 0.2950308 -0.024672924
0.65299994 0.29469597 -0.024773747
0.016999997 0.30504581 -0.026216621
0.65299994 0.30502206 -0.02521559
0.017413324 0.31507248 -0.025301829
0.024734212 0.31800017 -0.025351422
0.034589823 0.31800023 -0.025039166
0.045164954 0.31800023 -0.024448924
0.055403613 0.31800014 -0.024920406
0.064979248 0.31800023 -0.02485211
0.075031914 0.31800014 -0.025287241
0.084859967 0.31800017 -0.024729868
0.095036738 0.3180002 -0.024906378
0.10542049 0.31800017 -0.025036076
0.11558539 0.31800011 -0.024840781
0.12488375 0.31800032 -0.024954544
0.13473924 0.31800026 -0.025134472
0.14520727 0.31800029 -0.025452228
0.15557489 0.31800023 -0.024657119
0.16432169 0.31800023 -0.025980249
0.17490701 0.31800023 -0.025202911
0.18526264 0.31800023 -0.024609566
0.19489308 0.3180002 -0.025132479
0.20504189 0.31800035 -0.024643522
0.21589449 0.31800026 -0.025023131
0.22471267 0.3180002 -0.024565794
0.23547044 0.31800029 -0.02482048
0.24500871 0.31800026 -0.025363429
0.2551524 0.3180002 -0.02513857
0.26502588 0.31800023 -0.025570434
0.27505523 0.31800017 -0.024317862
0.2852582 0.3180002 -0.024941947
0.29479739 0.31800014 -0.025259048
0.30506244 0.31800014 -0.024613697
0.31538612 0.31800017 -0.024450541
0.32498699 0.3180002 -0.024968633
0.33487773 0.31800023 -0.024796953
0.34494519 0.31800023 -0.023983452
0.35480618 0.3180002 -0.025279099
0.36557192 0.31800014 -0.024764851
0.37526363 0.31800011 -0.025080536
0.38499376 0.31800023 -0.025242224
0.39482459 0.31800026 -0.025011836
0.40488604 0.31800029 -0.024511361
0.41519767 0.31800017 -0.024754651
0.42551401 0.31800032 -0.024700485
0.4353137 0.3180002 -0.024780227
0.44514492 0.31800008 -0.024621069
0.45490599 0.31800014 -0.024774162
0.46496701 0.31800017 -0.024662105
0.47569731 0.31800026 -0.025136271
0.48443374 0.31800023 -0.024488974
0.4947359 0.31800011 -0.02493028
0.50514984 0.3180002 -0.024485445
0.515185 0.31800017 -0.025320238
0.52468669 0.31800014 -0.025277156
0.53575343 0.31800026 -0.02496548
0.54513419 0.31800029 -0.025194306
0.55501902 0.31800017 -0.025085419
0.56502628 0.3180002 -0.025015198
0.5754565 0.3180002 -0.025092212
0.58490407 0.31800023 -0.025189914
0.59516174 0.31800023 -0.024704099
0.60465306 0.31800026 -0.025201075
0.61562049 0.3180002 -0.024826204
0.62524027 0.31800023 -0.025087351
0.63447857 0.3180002 -0.025281448
0.64488542 0.31800023 -0.025389941
0.6526531 0.31498104 -0.024591621
0.017880501 0.017588276 -0.014403997
0.025049506 0.016999995 -0.014820773
0.035193339 0.016999999 -0.01468518
0.044828348 0.016999999 -0.015053082
0.054552115 0.016999993 -0.01482498
0.065169238 0.016999995 -0.01489548
0.075229451 0.017000001 -0.01492518
0.085148558 0.016999995 -0.015450735
0.09412083 0.016999995 -0.01505464
0.10509685 0.017000008 -0.014728691
0.11509625 0.016999993 -0.014748099
0.12515983 0.016999995 -0.015369304
0.13541125 0.016999992 -0.015072097
0.14506222 0.016999997 -0.015089976
0.15516789 0.017000003 -0.015550797
0.16532789 0.016999992 -0.014977306
0.17531593 0.016999995 -0.015133653
0.18498254 0.016999993 -0.015388039
0.19457088 0.017000001 -0.014796381
0.20472325 0.017000001 -0.014922589
0.21506752 0.017000005 -0.014528581
0.22500585 0.017000001 -0.015302568
0.23489799 0.016999993 -0.015543151
0.24459571 0.017000001 -0.014722042
0.25497469 0.016999992 -0.015180964
0.26522911 0.016999995 -0.015378024
0.27491653 0.016999992 -0.014628067
0.28510761 0.01699999 -0.015012773
0.29448158 0.016999995 -0.014952563
0.30469817 0.01699999 -0.01558917
0.31433329 0.016999995 -0.015006827
0.32511944 0.016999992 -0.015456154
0.33483598 0.016999995 -0.014902562
0.3446871 0.016999997 -0.015040566
0.35522994 0.016999999 -0.014212691
0.36531806 0.01699999 -0.014494331
0.37480974 0.017000003 -0.015836004
0.3853116 0.016999995 -0.014970057
0.39517793 0.01699999 -0.014615966
0.40530547 0.016999999 -0.014788197
0.41464943 0.017000001 -0.014461679
0.42506003 0.016999993 -0.015208458
0.43483591 0.016999995 -0.014308291
0.4451665 0.016999993 -0.014698117
0.4548721 0.016999993 -0.014893083
0.46523651 0.016999997 -0.015739625
0.4748933 0.017000001 -0.015034984
0.4850567 0.017000001 -0.014997554
0.49538088 0.016999999 -0.01430138
0.50490165 0.016999993 -0.015491917
0.51486021 0.016999992 -0.014729203
0.52486807 0.016999995 -0.01512515
0.53545028 0.01699999 -0.015183326
0.54534376 0.016999997 -0.014783733
0.55586505 0.017000007 -0.014927605
0.56508422 0.017000005 -0.015075553
0.57508022 0.016999992 -0.014902622
0.58506465 0.016999992 -0.015263433
0.59561706 0.016999997 -0.015314647
0.60529268 0.016999999 -0.01477646
0.61505115 0.016999993 -0.014887346
0.62499541 0.016999992 -0.014809768
0.63486582 0.016999999 -0.014859054
0.64537865 0.017000003 -0.015118423
0.6522221 0.017619114 -0.015394172
0.016999999 0.024899887 -0.014679415
0.65299994 0.025430027 -0.014803484
0.016999993 0.034765005 -0.015071352
0.65299994 0.035383165 -0.014847244
0.016999995 0.044568304 -0.014803262
0.65299994 0.04555203 -0.015546573
0.016999995 0.054656517 -0.015058303
0.65299994 0.054631293 -0.014953474
0.016999995 0.064758234 -0.015307439
0.65299994 0.065247081 -0.014778786
0.016999997 0.074678861 -0.015061201
0.65299994 0.075383298 -0.015051951
0.016999999 0.084964678 -0.014992177
0.65299994 0.084673591 -0.015173212
0.016999995 0.094919838 -0.015189078
0.65299994 0.095424809 -0.015379068
0.016999993 0.10499451 -0.015440785
0.65299994 0.10427003 -0.015019706
0.016999995 0.11592735 -0.014983312
0.65299994 0.11499835 -0.015529023
0.016999999 0.1254389 -0.015085164
0.65299994 0.12458532 -0.01431989
0.016999993 0.13523662 -0.014806458
0.65299994 0.13501903 -0.014599826
0.017000003 0.1448773 -0.015482999
0.65299994 0.1448669 -0.015243236
0.016999995 0.15523587 -0.015499297
0.65299994 0.15445967 -0.015079694
0.017000007 0.16443099 -0.014740749
0.65299994 0.16505697 -0.014704658
0.016999993 0.17554687 -0.014951264
0.65299994 0.17547394 -0.014961448
0.01699999 0.18455765 -0.015451579
0.65299994 0.18503557 -0.014475996
0.017000001 0.19428243 -0.015290254
0.65299994 0.19552302 -0.01467498
0.016999992 0.20537746 -0.014931995
0.65299994 0.20452546 -0.015432637
0.016999999 0.21476892 -0.015073994
0.65299994 0.21478793 -0.014975195
0.01699999 0.22520421 -0.015024706
0.65299994 0.22503902 -0.015269597
0.016999997 0.234607 -0.014684253
0.65299994 0.23514587 -0.015323744
0.017000003 0.2452611 -0.015133656
0.65299994 0.24488327 -0.014930216
0.016999992 0.25526297 -0.015150516
0.65299994 0.25501952 -0.014693119
0.016999997 0.26498604 -0.014831383
0.65299994 0.26484361 -0.015477774
0.016999997 0.27491584 -0.014948433
0.65299994 0.27436763 -0.014677144
0.016999995 0.28488505 -0.015260908
0.65299994 0.28511062 -0.015176748
0.017000005 0.29443789 -0.015356324
0.65299994 0.2954073 -0.014670938
0.016999993 0.30494907 -0.015006488
0.65299994 0.30519256 -0.015001374
0.017316878 0.31542447 -0.015365946
0.02510065 0.31800008 -0.014973705
0.034761101 0.31800029 -0.015114076
0.044867843 0.31800026 -0.015111001
0.055229779 0.31800023 -0.014725445
0.064308584 0.31800008 -0.015193379
0.075123295 0.31800026 -0.014656148
0.084795617 0.31800026 -0.014718405
0.094576329 0.31800032 -0.015179656
0.10472634 0.31800026 -0.014890153
0.11522005 0.31800002 -0.014079133
0.12510693 0.31800017 -0.015707826
0.1348563 0.31800023 -0.014965832
0.14468126 0.31800032 -0.015057956
0.15558143 0.31800011 -0.014925581
0.16416758 0.31800029 -0.014967875
0.17549458 0.31800011 -0.014496994
0.18526602 0.31800029 -0.014702129
0.19502249 0.31800026 -0.015008626
0.20472351 0.31800011 -0.01464907
0.21513137 0.31800017 -0.015177556
0.22511543 0.31800014 -0.015064554
0.2347523 0.31800023 -0.015242229
0.24462299 0.3180002 -0.01532532
0.25515303 0.3180002 -0.01463763
0.26480532 0.31800017 -0.014786797
0.27496779 0.31800023 -0.015096408
0.28552163 0.31800023 -0.015053236
0.29518765 0.31800026 -0.014621608
0.30462041 0.31800029 -0.014916906
0.31550616 0.31800023 -0.015080933
0.32496688 0.31800023 -0.014741543
0.33517304 0.31800029 -0.014927448
0.34486377 0.31800017 -0.015069021
0.35459912 0.31800023 -0.015228534
0.36445683 0.31800014 -0.015292254
0.37483928 0.31800029 -0.014804909
0.38468361 0.31800023 -0.015050841
0.39473763 0.31800017 -0.01535961
0.40458572 0.31800014 -0.014986186
0.41541377 0.31800032 -0.015174533
0.42442629 0.31800029 -0.015208295
0.43493673 0.31800008 -0.015306958
0.44492635 0.31800023 -0.01556649
0.45481268 0.31800032 -0.014513031
0.46558109 0.31800017 -0.015072228
0.47510961 0.31800023 -0.015062921
0.48521671 0.31800017 -0.015325807
0.49538583 0.3180002 -0.014259659
0.50531065 0.31800017 -0.015277273
0.51420397 0.31800008 -0.01575114
0.52486575 0.3180002 -0.015338439
0.53482348 0.3180002 -0.014979152
0.54516518 0.31800026 -0.015296309
0.55506361 0.31800002 -0.014970005
0.56478268 0.31800023 -0.015010322
0.57450289 0.3180002 -0.015421658
0.5850209 0.3180002 -0.015884141
0.59512895 0.3180002 -0.014907499
0.60438383 0.31800008 -0.015151893
0.61449265 0.31800029 -0.01481805
0.62489736 0.31800029 -0.015730895
0.635167 0.31800014 -0.014867439
0.64505684 0.31800023 -0.014642936
0.65257174 0.3151021 -0.01506397
0.017875679 0.017579759 -0.0046384805
0.024962975 0.016999999 -0.005297102
0.034863863 0.017000005 -0.0049825599
0.045075852 0.016999997 -0.0047324342
0.055256076 0.016999993 -0.0046935147
0.064479366 0.016999997 -0.0044618272
0.074700378 0.016999993 -0.005018312
0.084848568 0.017000001 -0.0049647684
0.09495987 0.017000001 -0.0048716739
0.10444509 0.01699999 -0.0048147915
0.11487252 0.016999995 -0.0045232149
0.12570243 0.016999995 -0.0049584843
0.13472852 0.016999997 -0.0050607524
0.14553632 0.017000005 -0.0054556942
0.15481941 0.016999997 -0.0052256607
0.165205 0.016999995 -0.0044347132
0.17503731 0.016999995 -0.005152999
0.18470398 0.016999999 -0.0053325309
0.19465791 0.016999999 -0.0054200189
0.20509778 0.016999997 -0.004204934
0.21553202 0.016999993 -0.0053710747
0.22440188 0.016999992 -0.005074935
0.23514117 0.016999997 -0.0052585178
0.2452742 0.017000003 -0.0047352854
0.2540625 0.016999995 -0.0052948361
0.26486352 0.016999995 -0.0055762255
0.27468917 0.016999993 -0.0047256295
0.28520235 0.016999999 -0.0046145571
0.29434192 0.016999997 -0.0053059426
0.3049897 0.016999995 -0.0054737697
0.31510648 0.016999997 -0.0048220898
0.32463557 0.017000003 -0.0046830028
0.33513862 0.016999995 -0.0047395853
0.34463933 0.016999997 -0.0051259431
0.35477719 0.016999999 -0.0048371088
0.36446998 0.016999992 -0.0047762198
0.37525198 0.01699999 -0.0043665501
0.38450837 0.016999995 -0.0049246554
0.39475238 0.016999999 -0.0051482869
0.40509883 0.016999997 -0.0046133548
0.4153558 0.016999999 -0.0046975263
0.42520913 0.01699999 -0.004921753
0.43524027 0.01699999 -0.0046417895
0.44520563 0.016999997 -0.0048043407
0.45487094 0.016999995 -0.005167006
0.46600068 0.017000003 -0.0043585817
0.47509977 0.016999993 -0.0045752833
0.48510498 0.017000005 -0.0053262301
0.4947201 0.016999997 -0.005378935
0.50485533 0.016999997 -0.0048482637
0.5146389 0.016999997 -0.0051856213
0.52550983 0.016999993 -0.0056925984
0.53520739 0.016999999 -0.0051837168
0.54502791 0.016999997 -0.0051145237
0.55558515 0.016999997 -0.005047455
0.56525987 0.016999995 -0.0056018182
0.57490122 0.016999988 -0.0048752553
0.58486104 0.016999999 -0.0055171931
0.59516162 0.016999997 -0.0051539573
0.6052444 0.017000003 -0.0051901722
0.61539334 0.016999997 -0.0043315417
0.62563318 0.016999997 -0.0049249097
0.63477069 0.016999992 -0.0050072148
0.64526796 0.016999993 -0.0050827335
0.65225834 0.017573681 -0.0055373139
0.016999993 0.0252434 -0.0050538955
0.65299994 0.02486602 -0.0045642024
0.016999999 0.034961838 -0.0055304612
0.65299994 0.034993384 -0.005914296
0.016999999 0.045105111 -0.0052109677
0.65299994 0.045500379 -0.0048032897
0.016999997 0.054061223 -0.0058734887
0.65299994 0.055355858 -0.0056193201
0.016999997 0.065218896 -0.0051471302
0.65299994 0.065209076 -0.0044476236
0.017000001 0.074528262 -0.0053532259
0.65299994 0.075016871 -0.0045342888
0.017000008 0.084421329 -0.0049903826
0.65299994 0.085234687 -0.0047957986
0.016999999 0.094604328 -0.0048400881
0.65299994 0.094903402 -0.0055990829
0.016999999 0.10510395 -0.0048997137
0.65299994 0.104618 -0.0051675257
0.017000001 0.11549732 -0.0045952713
0.65299994 0.11519244 -0.0048453514
0.016999992 0.12464315 -0.0049301228
0.65299994 0.12527993 -0.0045889472
0.016999995 0.13538328 -0.0047353655
0.65299994 0.13474691 -0.0055636256
0.016999992 0.14492337 -0.0050034332
0.65299994 0.1450244 -0.0051595499
0.016999997 0.15497924 -0.0047233994
0.65299994 0.15506533 -0.0052221171
0.017000003 0.16433431 -0.0049019582
0.65299994 0.16498844 -0.0049946136
0.017000003 0.17474328 -0.0053820042
0.65299994 0.17524475 -0.0051802867
0.016999988 0.18436331 -0.0046639186
0.65299994 0.18512221 -0.0049380995
0.016999997 0.19493845 -0.0052290531
0.65299994 0.19503595 -0.005404789
0.016999997 0.20492789 -0.0053693154
0.65299994 0.20511538 -0.0051369569
0.016999995 0.21522073 -0.0050222035
0.65299994 0.21465509 -0.0050438219
0.016999993 0.22499363 -0.0048161638
0.65299994 0.22448169 -0.0047732522
0.016999992 0.23454341 -0.0048842016
0.65299994 0.23507647 -0.0049103675
0.016999993 0.24474511 -0.0046387166
0.65299994 0.24485107 -0.0047436105
0.016999995 0.25552589 -0.0050632306
0.65299994 0.25491765 -0.0045347977
0.016999995 0.26489782 -0.0045582354
0.65299994 0.26538518 -0.0050741266
0.016999997 0.27522802 -0.0048293364
0.65299994 0.27477309 -0.004691571
0.016999995 0.2848334 -0.0046410314
0.65299994 0.28497502 -0.0048931581
0.017000005 0.29513079 -0.0047799889
0.65299994 0.29471487 -0.0056290207
0.016999993 0.30473849 -0.0048671369
0.65299994 0.30500379 -0.0048811301
0.017521435 0.31538111 -0.005285725
0.02481701 0.31800017 -0.0042668716
0.035721771 0.31800026 -0.0048731621
0.044941284 0.31800029 -0.0052042291
0.054840855 0.31800029 -0.0051585915
0.064392619 0.31800026 -0.0048902989
0.074798003 0.3180002 -0.0052608047
0.084456116 0.31800026 -0.0048444169
0.094848342 0.31800029 -0.0051406282
0.10506286 0.31800014 -0.0048195785
0.11486657 0.31800023 -0.0053114439
0.12505311 0.31800029 -0.0048482646
0.13481593 0.31800026 -0.0058748159
0.14517814 0.31800017 -0.0050235344
0.15515548 0.31800023 -0.0047061928
0.16564959 0.31800011 -0.0054480638
0.17480628 0.31800026 -0.0049494184
0.18518472 0.31800029 -0.0050664907
0.19531639 0.31800023 -0.0052781892
0.20520784 0.31800005 -0.004751482
0.21500194 0.31800023 -0.0049110292
0.22553316 0.31800023 -0.0048478721
0.23523723 0.31800014 -0.00519642
0.24475363 0.31800029 -0.0043019657
0.25533587 0.31800014 -0.0052859038
0.26447693 0.31800032 -0.0049513076
0.27482429 0.31800017 -0.0052139671
0.28454754 0.31800029 -0.0053141899
0.29469448 0.31800023 -0.0047138296
0.305094 0.31800023 -0.0049163331
0.31518462 0.31800023 -0.0049101999
0.32480374 0.31800017 -0.0051270239
0.33521929 0.31800005 -0.0050174682
0.34465781 0.3180002 -0.0053010075
0.35545433 0.3180002 -0.0053730467
0.36521468 0.31800023 -0.004563706
0.37507659 0.31800029 -0.0051899101
0.3842535 0.31800023 -0.0046012672
0.39466923 0.3180002 -0.0047589964
0.40506795 0.31800008 -0.0054139495
0.41519424 0.31800014 -0.004382418
0.42507288 0.31800029 -0.0050269682
0.43487817 0.31800032 -0.0050248276
0.44537693 0.31800023 -0.0045328429
0.45513064 0.31800017 -0.005306812
0.4650794 0.31800026 -0.0047503095
0.4743968 0.31800023 -0.0047412282
0.48466313 0.31800023 -0.0050503812
0.49452129 0.31800023 -0.005169
0.50497824 0.3180002 -0.005124215
0.51505917 0.31800026 -0.0051233461
0.52549303 0.3180002 -0.0051204632
0.53461033 0.31800014 -0.0053468556
0.5451597 0.31800023 -0.0050084204
0.5553903 0.3180002 -0.0048303232
0.5649758 0.31800014 -0.004594862
0.57525861 0.31800017 -0.004867746
0.58484107 0.31800026 -0.0045121992
0.59469223 0.3180002 -0.004995449
0.60475159 0.31800017 -0.0052432246
0.61551291 0.31800029 -0.0045965584
0.6251992 0.3180002 -0.0054420121
0.63465583 0.31800017 -0.005360499
0.64478016 0.31800008 -0.0048991702
0.65260571 0.31504568 -0.0052487398
0.0048597688 0.0049114316 0
0.014750228 0.0052987537 0
0.024729887 0.004677779 0
0.035218254 0.005348051 0
0.045042742 0.0053724796 0
0.055658944 0.0051675946 0
0.065243095 0.0047512776 0
0.075182453 0.0050196094 0
0.085464962 0.0050616208 0
0.094924688 0.0046838177 0
0.10457768 0.0043079639 0
0.11520545 0.0055636941 0
0.12538365 0.0047044731 0
0.13475668 0.0046586921 0
0.14418967 0.0050007231 0
0.15528916 0.005432955 0
0.16505924 0.0046147211 0
0.17472242 0.0043386184 0
0.18501592 0.004651323 0
0.19479537 0.0052434849 0
0.20470074 0.0046619168 0
0.21505271 0.0052448618 0
0.22467443 0.0053190305 0
0.23521887 0.0048455778 0
0.24522619 0.0052632084 0
0.25486317 0.0053141797 0
0.26486892 0.0049775173 0
0.27453867 0.0049020322 0
0.28496554 0.0045986306 0
0.29512942 0.0049224608 0
0.30563572 0.0051505035 0
0.31484532 0.0047538131 0
0.32503298 0.0055024703 0
0.33526385 0.0048870165 0
0.34522945 0.0053193383 0
0.35455742 0.0055179531 0
0.36541873 0.0052114218 0
0.37511885 0.0050419802 0
0.38465011 0.0053344602 0
0.39489719 0.0050488696 0
0.40499869 0.0044580018 0
0.41440573 0.0054469756 0
0.42535067 0.0054423511 0
0.43451631 0.0048178439 0
0.44495499 0.0048151729 0
0.45480725 0.0053851921 0
0.46467346 0.0051608053 0
0.47536647 0.005186215 0
0.48546287 0.0048694629 0
0.49503648 0.0053395308 0
0.50495237 0.0053227027 0
0.51456922 0.0052843192 0
0.52492279 0.0050825477 0
0.535447 0.0048769857 0
0.54476738 0.0051587611 0
0.55448848 0.0046075587 0
0.56470394 0.0049657458 0
0.57526809 0.0050955457 0
0.58548653 0.0050545651 0
0.59463489 0.0050207982 0
0.60473925 0.0048777484 0
0.61481029 0.0044277986 0
0.62479866 0.0052034967 0
0.63524419 0.0053844163 0
0.64480811 0.0049577923 0
0.6555109 0.0048943385 0
0.66480052 0.0047089481 0
0.0054270453 0.015270447 0
0.015052849 0.014125525 0
0.025151614 0.013807309 0
0.035120819 0.01356528 0
0.044769365 0.013669291 0
0.054582067 0.013450023 0
0.064911909 0.014283867 0
0.075206183 0.013275213 0
0.084941842 0.013419271 0
0.094935969 0.013179556 0
0.10500038 0.013027632 0
0.11538424 0.013317393 0
0.12434853 0.013249381 0
0.13511117 0.013400584 0
0.14477757 0.013496076 0
0.15484774 0.013736226 0
0.16495273 0.013760223 0
0.17487058 0.013568953 0
0.18545394 0.013971624 0
0.1948286 0.013258654 0
0.20486945 0.01341357 0
0.21532962 0.013490074 0
0.22507566 0.014119957 0
0.23476297 0.013275646 0
0.24566118 0.013944026 0
0.25475889 0.013326708 0
0.2648851 0.01368359 0
0.27493796 0.013511602 0
0.28522131 0.013508679 0
0.29423454 0.013269806 0
0.30524263 0.013639635 0
0.31497023 0.013614147 0
0.3247335 0.013317771 0
0.33538058 0.013820617 0
0.344421 0.013615947 0
0.35527208 0.013091533 0
0.3646996 0.01348661 0
0.37514332 0.013840225 0
0.38469028 0.013248419 0
0.39516169 0.013519738 0
0.40497196 0.014020782 0
0.41482335 0.013843859 0
0.42462412 0.013338418 0
0.43454844 0.013283109 0
0.44515011 0.013430445 0
0.45537457 0.013621238 0
0.46486023 0.013395797 0
0.47489819 0.01334527 0
0.48503035 0.013431155 0
0.49493876 0.013823125 0
0.50542629 0.013466741 0
0.51515341 0.013195806 0
0.52482009 0.013881651 0
0.53469706 0.013513509 0
0.54522192 0.013533071 0
0.55497319 0.013645696 0
0.56514829 0.013834075 0
0.57524663 0.013952593 0
0.58436728 0.013703223 0
0.59465498 0.013325753 0
0.60494173 0.013834596 0
0.61529642 0.013846589 0
0.62509292 0.013027506 0
0.63542879 0.013253313 0
0.64515728 0.013390376 0
0.6552124 0.014746596 0
0.66499484 0.014541101 0
0.0050315335 0.025298547 0
0.014072953 0.025443655 0
0.65649205 0.025700977 0
0.6653111 0.025250057 0
0.0051603043 0.034867883 0
0.01321474 0.035032243 0
0.65642804 0.034771279 0
0.66453671 0.035394467 0
0.0046611619 0.045006443 0
0.013638531 0.044763848 0
0.65655273 0.045045987 0
0.6650849 0.045290314 0
0.0048448173 0.054268621 0
0.013335501 0.05495945 0
0.65665329 0.055315305 0
0.66489965 0.055734366 0
0.0048569986 0.06488131 0
0.013031802 0.064837404 0
0.65615511 0.064674996 0
0.66565448 0.065391719 0
0.0054714889 0.0753676 0
0.013653435 0.075279929 0
0.6563707 0.074717589 0
0.66512597 0.074788354 0
0.0051385551 0.084929153 0
0.013760842 0.084499098 0
0.65678841 0.084720254 0
0.66492808 0.084992766 0
0.0053115673 0.094787955 0
0.013912235 0.095045425 0
0.65627229 0.094798997 0
0.66522253 0.094944015 0
0.0047975578 0.10513706 0
0.013363791 0.10404017 0
0.65631235 0.1042273 0
0.66525614 0.10454321 0
0.0049628736 0.11520799 0
0.013523984 0.11525418 0
0.65621257 0.11428906 0
0.66503328 0.11488142 0
0.0050539123 0.12482662 0
0.014006943 0.12531456 0
0.65668529 0.12500195 0
0.66458094 0.12490669 0
0.0049095904 0.1352313 0
0.013549143 0.13468082 0
0.65631992 0.13409105 0
0.6648044 0.13519484 0
0.0052961302 0.14534733 0
0.013498814 0.14530176 0
0.65608102 0.14513454 0
0.6653555 0.14495642 0
0.0048112092 0.15486892 0
0.01343988 0.15429877 0
0.65639812 0.15485089 0
0.66535473 0.15471283 0
0.0052268165 0.16472831 0
0.013038829 0.16481611 0
0.65675652 0.16560748 0
0.66510081 0.16433874 0
0.0050366241 0.17492463 0
0.01255977 0.17481871 0
0.65626931 0.1751976 0
0.66483533 0.17469016 0
0.0049782875 0.1849089 0
0.012864414 0.18518382 0
0.65626168 0.18543433 0
0.66524726 0.18443042 0
0.0049466887 0.1940977 0
0.013240932 0.19553989 0
0.65654755 0.19502221 0
0.66478503 0.19528994 0
0.0052190209 0.20522891 0
0.013551182 0.20462199 0
0.65680903 0.20439875 0
0.6655665 0.20500968 0
0.0046158996 0.21454908 0
0.013117236 0.21499886 0
0.65624499 0.21472642 0
0.66471857 0.21488464 0
0.0046624565 0.22504804 0
0.013651744 0.2246681 0
0.65671062 0.2255436 0
0.66489494 0.22507147 0
0.0048552733 0.23502359 0
0.013525269 0.23459867 0
0.65671849 0.23499279 0
0.66518676 0.23562533 0
0.0049623051 0.24497671 0
0.013471474 0.24527213 0
0.65652472 0.24404165 0
0.6651113 0.24453139 0
0.004581579 0.25525945 0
0.013401804 0.25548011 0
0.65688616 0.25520614 0
0.66475874 0.25465456 0
0.0047207042 0.26427802 0
0.013511823 0.26514983 0
0.6564967 0.26547286 0
0.66524744 0.26542726 0
0.0046628546 0.27464086 0
0.013491019 0.27504525 0
0.6561864 0.27467945 0
0.66521561 0.27511591 0
0.0048083193 0.28531411 0
0.013146325 0.28503883 0
0.6568954 0.28514823 0
0.66493696 0.28525227 0
0.0056424644 0.29477996 0
0.013506219 0.29456264 0
0.65659153 0.29594091 0
0.66484165 0.29503551 0
0.0051737041 0.30533755 0
0.013195689 0.30521861 0
0.65674919 0.30506197 0
0.66519207 0.30511367 0
0.0053069056 0.31522119 0
0.014069623 0.31557897 0
0.024148136 0.31905144 0
0.034422562 0.31911117 0
0.046107225 0.31880468 0
0.05499845 0.31912911 0
0.063953027 0.3191337 0
0.075022966 0.31896579 0
0.085532181 0.31907538 0
0.09485814 0.31899256 0
0.1055951 0.31906721 0
0.11546657 0.31917214 0
0.12389096 0.31875095 0
0.13473834 0.31885839 0
0.14488059 0.31889042 0
0.15474124 0.31876612 0
0.16443114 0.31906608 0
0.17702326 0.31897834 0
0.18366836 0.31893551 0
0.19512494 0.31882119 0
0.20461164 0.31929567 0
0.21512929 0.31901348 0
0.22530377 0.31911984 0
0.23472628 0.3190735 0
0.24396665 0.3190029 0
0.25458783 0.31882778 0
0.26533878 0.31921062 0
0.27467752 0.31894112 0
0.28602666 0.31884983 0
0.29600486 0.31915995 0
0.30579513 0.31902248 0
0.31541261 0.31893247 0
0.32462472 0.31891164 0
0.3342663 0.3190026 0
0.3451167 0.31894365 0
0.35546929 0.31865731 0
0.36597022 0.31892371 0
0.3747634 0.31900373 0
0.38569671 0.31888282 0
0.39407349 0.31874731 0
0.40538907 0.31913641 0
0.41609439 0.31902313 0
0.4239271 0.31886643 0
0.43517816 0.31918627 0
0.4457871 0.3193666 0
0.45554006 0.31926611 0
0.4663243 0.31893927 0
0.47483146 0.3189131 0
0.48508635 0.31921196 0
0.49582574 0.31901693 0
0.50352103 0.31912002 0
0.51550567 0.31922796 0
0.52507782 0.31907511 0
0.53553241 0.31901971 0
0.54515296 0.31893843 0
0.55481893 0.31874353 0
0.56732553 0.31903836 0
0.57431537 0.31878662 0
0.58442211 0.31853572 0
0.59463841 0.31899816 0
0.60552776 0.31895617 0
0.61580569 0.31901991 0
0.62553668 0.31902158 0
0.63393968 0.31888071 0
0.64425302 0.31902346 0
0.65616101 0.31422675 0
0.66548175 0.31525522 0
0.0048767906 0.32441816 0
0.014590196 0.32517362 0
0.025059953 0.32503834 0
0.035330724 0.32568848 0
0.045203496 0.32530335 0
0.05492454 0.32543254 0
0.065321065 0.32460859 0
0.075142279 0.32488328 0
0.085194364 0.32529643 0
0.095130369 0.32557645 0
0.10506576 0.32442972 0
0.11486698 0.32482532 0
0.12469769 0.32508186 0
0.13500892 0.32548425 0
0.14496572 0.32544664 0
0.15511821 0.32521108 0
0.16480494 0.32501993 0
0.17466095 0.32496178 0
0.18559997 0.32507706 0
0.19529748 0.32445517 0
0.2053533 0.32520694 0
0.21541154 0.32523251 0
0.22450887 0.32502624 0
0.23395354 0.32471785 0
0.24469519 0.32497275 0
0.25499764 0.32478318 0
0.26502374 0.32526481 0
0.275352 0.32502657 0
0.28488064 0.32526952 0
0.29505637 0.32551461 0
0.30487394 0.32521868 0
0.31465697 0.32459521 0
0.32506892 0.32472271 0
0.3351815 0.32448301 0
0.34500676 0.32524553 0
0.35543546 0.32468441 0
0.36487639 0.32551283 0
0.37561178 0.3244212 0
0.38438562 0.32511115 0
0.39471257 0.32570565 0
0.40497467 0.32491684 0
0.41580933 0.32443279 0
0.42484966 0.32467082 0
0.43513736 0.32483551 0
0.44469938 0.32524303 0
0.45464388 0.32506153 0
0.46480635 0.32545987 0
0.47503024 0.32558751 0
0.48504055 0.32450315 0
0.49506018 0.32460126 0
0.50453544 0.32497323 0
0.51465952 0.32492858 0
0.52544653 0.32516021 0
0.53511214 0.32519734 0
0.54497468 0.32492515 0
0.55453539 0.32510015 0
0.56490904 0.32418153 0
0.57491595 0.32495216 0
0.58498871 0.32465297 0
0.59492326 0.32525301 0
0.60525256 0.32511625 0
0.61517948 0.32502681 0
0.62527823 0.32493037 0
0.63488513 0.3253018 0
0.64519441 0.32467487 0
0.6548146 0.32492173 0
0.66528523 0.32511246 0
0.0053024585 0.33235821 0
0.014710449 0.33261558 0
0.024594568 0.332683 0
0.034456071 0.33250058 0
0.044636726 0.33218476 0
0.054660268 0.33251038 0
0.064493932 0.33261421 0
0.074684069 0.33262679 0
0.085137248 0.3326453 0
0.094636112 0.33244768 0
0.10508662 0.33277956 0
0.11531663 0.33234763 0
0.12575246 0.33278531 0
0.1346696 0.3322413 0
0.14535739 0.33242902 0
0.15503497 0.3325277 0
0.16496772 0.33261442 0
0.17490564 0.33245733 0
0.18446448 0.33265051 0
0.19464286 0.33263597 0
0.2049685 0.33297297 0
0.21495953 0.33222389 0
0.22514181 0.3321346 0
0.23462091 0.33274639 0
0.24499534 0.33241796 0
0.25454366 0.33252698 0
0.26444498 0.33262032 0
0.27552003 0.33261156 0
0.28555188 0.33225322 0
0.29544961 0.33220232 0
0.30521348 0.33239359 0
0.31358612 0.3328205 0
0.32461992 0.33252743 0
0.3346549 0.33259535 0
0.34492943 0.3330009 0
0.35621312 0.33252046 0
0.36433262 0.33268556 0
0.37503549 0.33266053 0
0.38515416 0.33224481 0
0.39450559 0.33262679 0
0.40562919 0.33277068 0
0.41472441 0.33237705 0
0.42495194 0.33253577 0
0.43501243 0.33226961 0
0.44471946 0.33240181 0
0.45596355 0.33242181 0
0.46558377 0.33261147 0
0.47505021 0.33225378 0
0.48517191 0.33226466 0
0.49559146 0.33249205 0
0.50563312 0.33278883 0
0.51485479 0.33231843 0
0.5257678 0.33263394 0
0.53508508 0.33236805 0
0.5452438 0.33244243 0
0.55538267 0.3324655 0
0.56441748 0.33246785 0
0.57482773 0.3324596 0
0.58449435 0.33278736 0
0.59481335 0.3328622 0
0.60599577 0.33264241 0
0.6150561 0.33264619 0
0.62473315 0.33267945 0
0.63514799 0.33281589 0
0.6450094 0.33165044 0
0.65544254 0.3326422 0
0.666008 0.3317574 0
