# .PCD v0.7 - Point Cloud Data file format
VERSION 0.7
FIELDS x y z
SIZE 4 4 4
TYPE F F F
COUNT 1 1 1
WIDTH 915
HEIGHT 1
VIEWPOINT 0 0 0 1 0 0 0
POINTS 915
DATA ascii
0.017685441 0.017746253 -0.044489168
0.024724865 0.016999982 -0.045256373
0.035178788 0.016999986 -0.044672426
0.045423169 0.016999988 -0.044877179
0.055054128 0.016999988 -0.044634733
0.065084636 0.016999984 -0.045100454
0.075049102 0.016999984 -0.044894788
0.085453853 0.016999982 -0.04512576
0.09523385 0.016999984 -0.04497413
0.10505457 0.01699998 -0.045161653
0.11543964 0.016999979 -0.044620045
0.12480331 0.016999984 -0.044935737
0.13488641 0.016999982 -0.045036692
0.14527774 0.016999982 -0.045165416
0.15498385 0.01699998 -0.044909757
0.16511449 0.016999984 -0.044845391
0.1749022 0.016999982 -0.044920709
0.18524519 0.01699998 -0.045042373
0.19482972 0.016999984 -0.045048382
0.20523897 0.016999984 -0.044707704
0.21503262 0.01699998 -0.044829324
0.2242365 0.016999986 -0.044961579
0.23496069 0.016999982 -0.04474356
0.2452312 0.016999984 -0.044870779
0.25463635 0.016999984 -0.044996385
0.26474875 0.016999984 -0.045107797
0.27500194 0.016999984 -0.04489227
0.28500739 0.01699998 -0.045257729
0.29471174 0.016999984 -0.045463249
0.30507493 0.016999984 -0.044537198
0.31512502 0.017406594 -0.045208734
0.016999982 0.025140185 -0.044963472
0.31800044 0.024843287 -0.04495218
0.016999986 0.034990396 -0.045412466
0.31800044 0.035245471 -0.044524521
0.016999986 0.045360282 -0.044783857
0.31800041 0.044880953 -0.045234837
0.016999982 0.05518264 -0.044979576
0.31800041 0.054750197 -0.045292176
0.016999984 0.065007888 -0.044996921
0.31800041 0.064819306 -0.045029044
0.016999988 0.0752922 -0.04537439
0.31800041 0.075386487 -0.044854898
0.01699998 0.085253038 -0.044658225
0.31800044 0.085276745 -0.045075718
0.016999984 0.095286079 -0.044955526
0.31800041 0.095194645 -0.044728786
0.016999988 0.10530899 -0.044755928
0.31800044 0.10536023 -0.045124255
0.016999984 0.11551439 -0.045151174
0.31800047 0.11483459 -0.04524783
0.016999984 0.12472378 -0.044908036
0.31800041 0.12516308 -0.044322789
0.016999986 0.13520092 -0.045095783
0.31800041 0.13560127 -0.044874981
0.016999982 0.144959 -0.044879902
0.31800047 0.14521566 -0.044577595
0.016999982 0.15482135 -0.045410685
0.31800032 0.15450908 -0.045408785
0.016999979 0.16480008 -0.044980079
0.31800038 0.16518804 -0.044723149
0.016999986 0.17545114 -0.045044731
0.31800038 0.17466557 -0.044914883
0.016999984 0.18490289 -0.044626731
0.31800047 0.18483292 -0.044956964
0.016999984 0.19503775 -0.044995356
0.31800044 0.19517304 -0.045094907
0.01699998 0.20503978 -0.044860657
0.31800044 0.20495199 -0.045194585
0.016999984 0.21471849 -0.045359202
0.31800041 0.21518816 -0.045339704
0.016999984 0.22497632 -0.044777833
0.31800041 0.22485967 -0.045182642
0.016999984 0.23483509 -0.044573784
0.31800041 0.23490098 -0.045265164
0.01699999 0.24517557 -0.045243427
0.31800044 0.24495877 -0.045099076
0.016999982 0.25541994 -0.044208921
0.31800041 0.25528625 -0.045391046
0.016999982 0.26478311 -0.044821929
0.3180005 0.26489148 -0.045084406
0.016999986 0.27504432 -0.044888094
0.31800047 0.27498397 -0.044736691
0.016999984 0.28526926 -0.045127343
0.31800044 0.28536579 -0.045032606
0.016999982 0.29524833 -0.044636603
0.31800038 0.29529917 -0.044671487
0.016999984 0.30499581 -0.045270953
0.31800044 0.30486718 -0.044995401
0.017474171 0.31488529 -0.044609278
0.024797896 0.31800041 -0.045289349
0.034567092 0.31800047 -0.044931766
0.044413995 0.31800038 -0.045365486
0.054720022 0.31800041 -0.045084417
0.064883024 0.31800041 -0.04511942
0.074875943 0.31800038 -0.045290019
0.085124508 0.31800041 -0.0452374
0.094841547 0.31800038 -0.044860922
0.10473283 0.31800047 -0.044863336
0.11452658 0.31800041 -0.045174532
0.1250191 0.31800044 -0.045021452
0.13534948 0.31800038 -0.045424704
0.14525442 0.31800041 -0.044752248
0.15476574 0.31800041 -0.045026395
0.16465798 0.31800041 -0.044689707
0.17494076 0.31800041 -0.044931479
0.18514495 0.31800041 -0.044588767
0.1950513 0.31800044 -0.044478159
0.20478468 0.31800044 -0.044779744
0.21507318 0.31800044 -0.045059804
0.22517452 0.31800041 -0.044990413
0.23503523 0.31800047 -0.044972628
0.24513397 0.31800038 -0.04516631
0.25496328 0.31800041 -0.044942945
0.26421624 0.31800044 -0.045403093
0.27559042 0.31800041 -0.044381063
0.28516939 0.31800038 -0.045121949
0.29513913 0.31800038 -0.044960968
0.30515277 0.31800044 -0.045203421
0.31599599 0.31602451 -0.044612925
0.017683927 0.017853029 -0.034173124
0.02521101 0.01699998 -0.034826837
0.035221722 0.016999984 -0.034536183
0.044896845 0.016999982 -0.035037123
0.05501736 0.016999982 -0.034771744
0.064945966 0.016999986 -0.034885291
0.074830003 0.01699999 -0.035212476
0.08495187 0.016999984 -0.035097636
0.095185272 0.01699998 -0.03513056
0.1043108 0.016999984 -0.03525291
0.1144893 0.016999984 -0.035074491
0.12485577 0.016999984 -0.035058383
0.13547242 0.016999988 -0.035179887
0.14508304 0.016999986 -0.034852903
0.15459171 0.016999982 -0.035312708
0.16512194 0.016999982 -0.035130456
0.17441449 0.01699998 -0.034520518
0.18496089 0.016999982 -0.035017293
0.19511488 0.016999982 -0.034842812
0.20486932 0.016999982 -0.03517507
0.21479845 0.016999988 -0.034805637
0.22560018 0.016999982 -0.035500608
0.23481588 0.016999982 -0.035222404
0.24482672 0.016999984 -0.034742299
0.25517252 0.016999982 -0.035480905
0.26486811 0.016999984 -0.035140924
0.27523258 0.016999982 -0.034749597
0.28527388 0.016999986 -0.035155024
0.29537126 0.016999984 -0.035085805
0.30517152 0.016999984 -0.03534716
0.31514436 0.017443046 -0.035003733
0.016999982 0.024756573 -0.034941845
0.31800041 0.024780763 -0.034872118
0.016999984 0.035116356 -0.035489161
0.31800041 0.035043556 -0.035510603
0.016999982 0.044905942 -0.034773517
0.31800041 0.044732392 -0.035308663
0.01699998 0.054872196 -0.03505148
0.31800041 0.055561531 -0.034918468
0.016999984 0.06482961 -0.035305303
0.31800047 0.065294109 -0.035179898
0.016999984 0.075365484 -0.034504727
0.31800044 0.074805379 -0.035060674
0.016999984 0.085131273 -0.035102762
0.31800047 0.08476606 -0.034838457
0.016999984 0.094925806 -0.035082672
0.31800047 0.094534785 -0.034904107
0.016999982 0.10491735 -0.035149399
0.31800047 0.10456157 -0.034722704
0.01699998 0.11528777 -0.034564503
0.31800044 0.11524841 -0.034782469
0.016999986 0.12485754 -0.035164699
0.31800044 0.12542111 -0.035142098
0.016999984 0.13483335 -0.035456117
0.31800047 0.13526931 -0.034988169
0.016999986 0.14527282 -0.035633374
0.31800047 0.14543252 -0.035534244
0.016999984 0.15525129 -0.034931589
0.31800041 0.15556239 -0.035089262
0.016999984 0.16491991 -0.035357647
0.31800044 0.16544244 -0.03439068
0.01699998 0.17523623 -0.035269581
0.31800044 0.17507917 -0.035046447
0.01699998 0.18499888 -0.034602914
0.31800044 0.18510891 -0.034839842
0.01699998 0.19482718 -0.034941215
0.31800035 0.19507927 -0.034842938
0.01699998 0.20481911 -0.035292994
0.31800047 0.20510146 -0.035002556
0.016999986 0.21530141 -0.034781508
0.31800044 0.21478128 -0.034830369
0.016999986 0.22492059 -0.035347685
0.31800038 0.22578591 -0.035022061
0.016999984 0.23457505 -0.034535285
0.31800044 0.23449111 -0.035107836
0.016999984 0.24500228 -0.034878261
0.31800038 0.24505788 -0.035204928
0.016999982 0.25504041 -0.034868844
0.31800044 0.25456136 -0.035155237
0.016999986 0.26500228 -0.035055786
0.31800041 0.26499543 -0.035523139
0.016999984 0.27520674 -0.035223562
0.31800044 0.27484211 -0.035080574
0.016999982 0.284679 -0.034692574
0.31800044 0.28493622 -0.035298984
0.016999984 0.29507023 -0.035362106
0.31800044 0.29503477 -0.03481574
0.016999982 0.30512661 -0.034842458
0.31800044 0.30507901 -0.035098176
0.017351482 0.31514615 -0.03516214
0.024996938 0.31800038 -0.034768265
0.034915108 0.31800041 -0.035096474
0.044875167 0.31800044 -0.035189509
0.05502924 0.31800047 -0.035396565
0.064890698 0.31800044 -0.035141226
0.075387202 0.31800041 -0.035375446
0.084672503 0.31800044 -0.035265014
0.095012411 0.31800044 -0.035192613
0.10504699 0.31800044 -0.034691736
0.11494908 0.31800035 -0.035303161
0.12493149 0.31800038 -0.034804638
0.13516393 0.31800044 -0.034804266
0.14521295 0.31800044 -0.035447471
0.15482661 0.31800041 -0.034948934
0.16514605 0.31800041 -0.034942202
0.17537332 0.31800041 -0.035171237
0.18502438 0.31800041 -0.035037894
0.19497545 0.31800044 -0.035194192
0.20480767 0.31800041 -0.034920525
0.21496634 0.31800044 -0.035381619
0.2247941 0.31800041 -0.035221018
0.23503889 0.31800044 -0.03485053
0.2453137 0.31800041 -0.034849226
0.25459212 0.31800041 -0.035008013
0.26508358 0.31800044 -0.034761153
0.2749705 0.31800044 -0.034850504
0.28478095 0.31800041 -0.035148513
0.29506981 0.31800041 -0.035006814
0.30516151 0.31800044 -0.034782149
0.31613407 0.31588712 -0.034830254
0.017715523 0.017680939 -0.025023639
0.025161725 0.016999982 -0.0249919
0.034909099 0.016999984 -0.024640959
0.044820022 0.016999986 -0.024741704
0.055282075 0.016999984 -0.025227638
0.064784415 0.016999982 -0.02539598
0.074930742 0.016999984 -0.025081217
0.085165508 0.016999984 -0.02554672
0.095395595 0.016999982 -0.025239589
0.10488029 0.016999986 -0.024812246
0.1147199 0.016999982 -0.024898188
0.12479968 0.016999986 -0.024969222
0.13464083 0.016999984 -0.025230309
0.14485629 0.016999982 -0.025480125
0.1546545 0.016999986 -0.024858505
0.16525875 0.01699998 -0.02477558
0.17458308 0.016999984 -0.024861461
0.1849637 0.016999986 -0.025448117
0.19501343 0.016999984 -0.025176989
0.20454076 0.016999982 -0.02541434
0.21456924 0.016999984 -0.025042687
0.22527122 0.016999982 -0.024861904
0.23508711 0.01699998 -0.024957115
0.24543008 0.016999982 -0.025095394
0.25488698 0.016999982 -0.024824174
0.26494637 0.016999982 -0.024969641
0.27533841 0.016999984 -0.02435785
0.285016 0.016999984 -0.025164705
0.29515138 0.01699998 -0.025112653
0.30477583 0.016999982 -0.025196515
0.31510565 0.017324939 -0.025095984
0.016999984 0.024488704 -0.025133768
0.3180005 0.025031522 -0.025002731
0.016999982 0.035135508 -0.025254685
0.31800044 0.034970138 -0.025005782
0.016999992 0.045345239 -0.024707116
0.31800044 0.04529091 -0.02533094
0.016999984 0.055086009 -0.025071258
0.31800044 0.055039134 -0.025160048
0.016999984 0.065150745 -0.024752099
0.31800032 0.064989984 -0.025637181
0.016999986 0.074869931 -0.025270451
0.31800038 0.074904911 -0.025411494
0.016999984 0.085236095 -0.024910934
0.31800041 0.084563822 -0.024910443
0.016999982 0.094826564 -0.025618251
0.31800047 0.095222495 -0.025211496
0.01699999 0.10447699 -0.025331987
0.31800047 0.10510647 -0.025010297
0.016999986 0.11450676 -0.025122361
0.31800041 0.11478068 -0.025085276
0.016999988 0.12506483 -0.025428452
0.31800038 0.12509759 -0.025058776
0.016999982 0.13541271 -0.024877276
0.31800047 0.13493007 -0.024896491
0.016999984 0.14553019 -0.025211576
0.31800041 0.14468519 -0.025095599
0.01699998 0.15514767 -0.024671515
0.31800041 0.15460163 -0.025010683
0.016999984 0.16487484 -0.025072895
0.31800041 0.16528934 -0.025134251
0.016999982 0.17476903 -0.025068145
0.31800047 0.17519449 -0.025070434
0.01699998 0.18516886 -0.025198149
0.31800041 0.18479279 -0.024664637
0.016999982 0.19478069 -0.024719305
0.31800044 0.19500151 -0.02515899
0.016999984 0.2050841 -0.024735983
0.31800047 0.20489386 -0.02468778
0.01699998 0.21511489 -0.024838964
0.31800041 0.21496692 -0.024793936
0.01699998 0.22467394 -0.024800748
0.31800041 0.22462742 -0.024883751
0.016999988 0.23481266 -0.025239585
0.31800041 0.23458691 -0.025126204
0.016999982 0.24484727 -0.024682455
0.31800038 0.24526083 -0.025152264
0.016999988 0.25489739 -0.024916153
0.31800044 0.25508463 -0.024965588
0.016999984 0.26515374 -0.025187111
0.31800038 0.26512545 -0.024788763
0.016999982 0.27528837 -0.025140017
0.31800047 0.275289 -0.025280876
0.016999986 0.28511369 -0.024878776
0.31800044 0.28505361 -0.024906512
0.016999982 0.2949487 -0.024665356
0.31800047 0.29518303 -0.024989689
0.016999984 0.3051773 -0.025896097
0.31800038 0.30490634 -0.025275139
0.017443474 0.31517836 -0.025191262
0.025096901 0.31800041 -0.024959192
0.035119023 0.31800044 -0.024463659
0.044793274 0.31800041 -0.02526911
0.054660283 0.31800035 -0.025176315
0.06525109 0.31800047 -0.024851399
0.074886546 0.31800047 -0.025552439
0.084965743 0.31800047 -0.025146425
0.094976902 0.31800041 -0.024761649
0.10481341 0.31800044 -0.024805361
0.11476121 0.31800044 -0.024745157
0.12477627 0.31800047 -0.025076304
0.13455586 0.31800038 -0.025811078
0.14481817 0.31800044 -0.025142884
0.15535462 0.31800041 -0.024586882
0.16495387 0.31800047 -0.025042776
0.1748151 0.31800041 -0.024484154
0.18488991 0.31800038 -0.025535468
0.1950341 0.31800044 -0.024413442
0.20433451 0.31800041 -0.024733173
0.21505746 0.31800044 -0.024995776
0.22516309 0.31800035 -0.024907673
0.23503388 0.31800047 -0.02495878
0.2448855 0.31800035 -0.024917517
0.25499329 0.31800044 -0.025022976
0.26531494 0.31800041 -0.024833942
0.27503404 0.31800041 -0.025032122
0.28484145 0.31800041 -0.025181217
0.29449585 0.31800044 -0.025313398
0.30471143 0.31800041 -0.024560573
0.31628066 0.31589475 -0.025030373
0.017779514 0.01787108 -0.014770372
0.025146633 0.016999984 -0.015295669
0.035048604 0.016999984 -0.014823257
0.045183748 0.016999984 -0.015228061
0.054172836 0.016999986 -0.014924375
0.065161601 0.016999982 -0.014855646
0.074792869 0.01699998 -0.014779129
0.085260138 0.016999982 -0.015570294
0.094897412 0.01699998 -0.015103144
0.10472404 0.016999988 -0.014649725
0.11517353 0.016999982 -0.015024549
0.12478543 0.016999984 -0.015171126
0.13517196 0.016999982 -0.01476281
0.14473 0.016999982 -0.01484016
0.15472493 0.01699998 -0.015259353
0.16484948 0.016999982 -0.015190282
0.17510831 0.016999986 -0.014750591
0.18470661 0.016999982 -0.014999467
0.1949873 0.01699998 -0.014671601
0.20491777 0.016999982 -0.014821515
0.21482342 0.01699998 -0.014917503
0.22497736 0.016999982 -0.015204596
0.23499487 0.016999986 -0.015253611
0.2452579 0.016999984 -0.01470939
0.25479874 0.01699998 -0.014911886
0.26469028 0.01699998 -0.014912112
0.27500591 0.016999988 -0.01510203
0.28483424 0.01699998 -0.015203185
0.29479691 0.016999984 -0.014893413
0.30459318 0.016999982 -0.014850432
0.31557378 0.017442079 -0.015322115
0.016999986 0.024991242 -0.015106515
0.31800044 0.025125036 -0.01471142
0.016999982 0.034624029 -0.015113449
0.31800032 0.03521565 -0.014877458
0.016999988 0.044656586 -0.014701156
0.31800044 0.045449294 -0.015160349
0.016999982 0.054928012 -0.015374304
0.31800041 0.054614291 -0.015072255
0.016999982 0.06501206 -0.015313039
0.31800047 0.064999193 -0.014743692
0.016999984 0.074679293 -0.01502908
0.31800044 0.075388484 -0.014823081
0.016999986 0.085359745 -0.014900122
0.31800041 0.084974639 -0.014824772
0.016999984 0.094698682 -0.015206965
0.31800047 0.095279522 -0.015220117
0.016999982 0.10496733 -0.015135141
0.31800044 0.10480804 -0.014782446
0.016999988 0.11482277 -0.015803382
0.31800047 0.11481912 -0.015408591
0.01699998 0.12506576 -0.014735871
0.31800041 0.12455604 -0.01485451
0.016999986 0.13504566 -0.015234435
0.31800035 0.13476257 -0.01501429
0.016999986 0.1452259 -0.015494877
0.31800044 0.14505301 -0.01533108
0.016999982 0.15511724 -0.014945514
0.31800044 0.15483898 -0.015111808
0.016999984 0.16501142 -0.014801644
0.31800044 0.16475293 -0.014831623
0.01699998 0.17547013 -0.014878815
0.31800038 0.17538299 -0.014991897
0.01699998 0.18441842 -0.015062519
0.31800044 0.18476592 -0.015185814
0.016999984 0.19460866 -0.015107581
0.31800038 0.19459456 -0.014348635
0.016999982 0.20514567 -0.014936968
0.31800041 0.20511763 -0.01562413
0.016999986 0.21503472 -0.014920062
0.31800047 0.21523765 -0.014769219
0.016999979 0.22515905 -0.015062962
0.31800047 0.2249904 -0.015204407
0.016999984 0.23475279 -0.014849461
0.31800047 0.23476465 -0.01519664
0.016999984 0.2450607 -0.015116974
0.31800038 0.24465609 -0.014880559
0.016999979 0.25537351 -0.015008739
0.31800041 0.25503013 -0.014701415
0.016999984 0.26493362 -0.014564366
0.31800041 0.26484743 -0.015295964
0.016999982 0.27499679 -0.014634343
0.31800038 0.27459165 -0.014999473
0.016999982 0.28501707 -0.015145924
0.31800047 0.28522468 -0.01510929
0.016999988 0.29491118 -0.015271735
0.31800041 0.29502156 -0.015093093
0.016999984 0.30517873 -0.015212892
0.31800047 0.30462682 -0.014695799
0.017434616 0.31547138 -0.015524719
0.025415711 0.31800044 -0.015340557
0.034952108 0.31800044 -0.014692282
0.045229934 0.31800041 -0.014667932
0.054619931 0.31800047 -0.015334591
0.064996213 0.31800041 -0.014983652
0.075060666 0.31800047 -0.014954271
0.08483173 0.31800041 -0.015037607
0.095267631 0.31800041 -0.014630475
0.10434961 0.31800041 -0.014862766
0.1150329 0.31800041 -0.015264163
0.12480374 0.31800041 -0.014746236
0.13509496 0.31800041 -0.014957863
0.14503662 0.31800044 -0.014917768
0.15520154 0.31800041 -0.014897536
0.16526435 0.31800047 -0.014789981
0.17514762 0.31800041 -0.015222449
0.18522151 0.31800044 -0.015157391
0.19495617 0.31800044 -0.015239089
0.20562574 0.31800047 -0.014952878
0.21505488 0.31800038 -0.015554561
0.22471821 0.31800041 -0.014875974
0.23453867 0.31800041 -0.015135833
0.24497099 0.31800038 -0.015039155
0.25506923 0.31800041 -0.015362917
0.26511574 0.31800044 -0.015425154
0.27516314 0.31800044 -0.014673324
0.28504783 0.31800041 -0.015383331
0.2945264 0.31800041 -0.015127743
0.30451339 0.3180005 -0.01523575
0.31603715 0.3161512 -0.015154589
0.017593561 0.017791824 -0.0046954285
0.025001198 0.016999984 -0.0051601478
0.034921534 0.01699998 -0.0045103044
0.04503148 0.016999984 -0.0048135738
0.055357192 0.016999982 -0.004759585
0.065293461 0.016999982 -0.0047071399
0.074655987 0.016999984 -0.0053109969
0.085121907 0.016999982 -0.0048245322
0.094950289 0.016999986 -0.0054857442
0.1049296 0.016999986 -0.004779127
0.11443875 0.01699998 -0.0054178154
0.12522611 0.016999982 -0.0049478747
0.13523233 0.016999982 -0.0051722052
0.14533706 0.016999986 -0.0050392877
0.15497732 0.016999984 -0.005319613
0.1651101 0.016999984 -0.0045324601
0.17500095 0.016999984 -0.0052197818
0.18515278 0.016999979 -0.0043158093
0.1950234 0.016999986 -0.0051986873
0.20534426 0.016999982 -0.0044747079
0.21473524 0.01699998 -0.0049219136
0.22426766 0.016999986 -0.0048980429
0.23475918 0.016999982 -0.0046973801
0.2449252 0.016999984 -0.0050685997
0.25496095 0.01699998 -0.0054723662
0.2649352 0.016999986 -0.0048711793
0.27513957 0.016999982 -0.0051541487
0.28483516 0.016999982 -0.0050633708
0.29526383 0.016999988 -0.0050503351
0.30521315 0.016999984 -0.0049488344
0.31510913 0.017342221 -0.0050273044
0.016999984 0.025263125 -0.0051090722
0.31800038 0.024975725 -0.0052143713
0.016999988 0.034864947 -0.0055070193
0.31800047 0.035095457 -0.0052835364
0.016999992 0.045344245 -0.0044533131
0.31800041 0.045247104 -0.004746547
0.016999982 0.054738555 -0.0050284127
0.31800047 0.055468377 -0.0052205957
0.016999988 0.065084055 -0.004848924
0.31800041 0.065160483 -0.004927671
0.016999984 0.07486286 -0.0052305139
0.31800041 0.075000577 -0.0050615403
0.016999984 0.084685676 -0.0048854919
0.31800035 0.085087501 -0.0053261025
0.016999986 0.094492048 -0.0046826079
0.31800044 0.095268048 -0.0050276075
0.016999982 0.10476071 -0.0051362622
0.31800047 0.10505354 -0.0048299455
0.016999982 0.11509079 -0.0050627124
0.31800038 0.11466946 -0.0048185415
0.016999982 0.12468476 -0.0050715716
0.31800044 0.12481984 -0.0046804515
0.01699998 0.13499786 -0.0051142829
0.31800041 0.13511866 -0.0050560534
0.016999984 0.14507107 -0.0052316631
0.31800041 0.1447347 -0.0044231708
0.01699998 0.15495476 -0.0051253228
0.31800041 0.15480323 -0.0055636498
0.016999984 0.16476491 -0.004843072
0.31800044 0.16502114 -0.0050473395
0.016999984 0.17515701 -0.0047819996
0.3180005 0.17494805 -0.0055240579
0.01699998 0.1847357 -0.00494585
0.31800041 0.18491472 -0.0045942026
0.016999984 0.1947943 -0.0048617399
0.31800041 0.19424409 -0.0054647331
0.016999986 0.20491749 -0.0054631326
0.31800044 0.20491858 -0.0052196407
0.016999982 0.2147973 -0.0045709973
0.31800038 0.21486944 -0.005139628
0.01699998 0.22508141 -0.004773445
0.31800038 0.22481474 -0.0046920553
0.016999982 0.23491293 -0.0047263033
0.31800044 0.23481525 -0.0049280087
0.016999982 0.24506712 -0.0045916233
0.31800041 0.24453959 -0.0050342646
0.01699998 0.25532335 -0.0050048074
0.31800044 0.25537539 -0.0044522453
0.016999984 0.26476258 -0.0046643941
0.31800041 0.26499489 -0.0051757945
0.01699998 0.27513772 -0.0048499317
0.31800044 0.27505204 -0.0051380144
0.016999988 0.28482109 -0.0049331607
0.31800041 0.28496176 -0.0047028232
0.016999984 0.29493973 -0.0046228832
0.31800041 0.29500324 -0.0052602012
0.016999982 0.30488151 -0.0044257129
0.31800044 0.30494404 -0.0052737389
0.017366625 0.3150425 -0.0048144795
0.025324559 0.31800044 -0.0047958451
0.035052203 0.3180005 -0.0052204025
0.045218676 0.31800041 -0.0050158016
0.054648511 0.31800041 -0.0052099004
0.064857624 0.31800047 -0.0050309501
0.074508935 0.31800044 -0.0053966935
0.084993191 0.31800041 -0.0050478722
0.094878338 0.31800041 -0.0055012023
0.10483493 0.31800038 -0.0048149219
0.1153019 0.31800041 -0.0051439516
0.12449373 0.31800041 -0.0045024739
0.1345693 0.31800047 -0.0053295312
0.14483126 0.31800047 -0.0050635315
0.15490201 0.31800044 -0.0046936162
0.16490173 0.31800035 -0.0048402688
0.17530245 0.31800041 -0.005307883
0.18519658 0.31800047 -0.0047554635
0.19521418 0.31800038 -0.0050741271
0.20524171 0.31800035 -0.0048900163
0.21468057 0.31800047 -0.004976125
0.22484151 0.31800044 -0.0047107963
0.23465629 0.31800044 -0.0050727203
0.24501014 0.31800044 -0.0046749893
0.25508589 0.31800044 -0.0050049303
0.26487452 0.31800044 -0.005190888
0.27464569 0.31800038 -0.0050373483
0.28511137 0.31800044 -0.004670959
0.29532516 0.31800044 -0.0050649545
0.30475023 0.31800047 -0.0051400298
0.31632483 0.31586751 -0.0048829275
0.004644529 0.0047698151 0
0.014604621 0.0056100367 0
0.024622278 0.0050683888 0
0.034531113 0.0048768823 0
0.045513585 0.0046132915 0
0.055366077 0.005530762 0
0.065094769 0.0047249091 0
0.075317338 0.0054497449 0
0.084705569 0.0043757223 0
0.094913028 0.0048805396 0
0.10502345 0.0048843524 0
0.11479388 0.0052371677 0
0.12521379 0.005287068 0
0.13499258 0.0049433368 0
0.14482784 0.0048425472 0
0.15498441 0.005004826 0
0.16535483 0.0051468327 0
0.17516215 0.0052454825 0
0.1849128 0.0051036864 0
0.19489111 0.0048641865 0
0.20520882 0.0055503915 0
0.21521205 0.0048465473 0
0.22454779 0.0053983396 0
0.23535779 0.0048688501 0
0.24482739 0.0053488798 0
0.25509652 0.0049203387 0
0.26530567 0.0050716829 0
0.27549586 0.0050844057 0
0.2850346 0.0051918533 0
0.29529753 0.0046266885 0
0.30488119 0.0051618232 0
0.31458893 0.0048200367 0
0.32500532 0.0049454891 0
0.33232906 0.0046644779 0
0.0055068848 0.014963696 0
0.015036725 0.014367288 0
0.025158331 0.013500736 0
0.034957733 0.01352334 0
0.045329411 0.013416742 0
0.055494204 0.013303534 0
0.06501247 0.01371636 0
0.075277805 0.013694563 0
0.085147977 0.013782307 0
0.094760276 0.013655668 0
0.10475681 0.013787823 0
0.11504333 0.013595711 0
0.12427884 0.013616641 0
0.13486539 0.013497158 0
0.14465712 0.013701146 0
0.15508144 0.013742621 0
0.16508496 0.013950224 0
0.17447472 0.013400616 0
0.18517329 0.01353912 0
0.19502865 0.013618374 0
0.20479947 0.013473802 0
0.21451013 0.013697078 0
0.22537842 0.013624705 0
0.23497379 0.013535757 0
0.24528773 0.013634817 0
0.25472304 0.01348903 0
0.26514041 0.013705797 0
0.27516392 0.013794912 0
0.2848832 0.013685325 0
0.29481807 0.01377283 0
0.30490771 0.013288097 0
0.31529549 0.013796926 0
0.32553494 0.015073984 0
0.33253384 0.014751395 0
0.004582983 0.02529384 0
0.013572933 0.025273208 0
0.31902269 0.025113314 0
0.32500654 0.025361391 0
0.33257428 0.02528305 0
0.0054355408 0.035044782 0
0.013640608 0.035126992 0
0.31904963 0.034530718 0
0.32499009 0.03501128 0
0.33225539 0.03536224 0
0.0050133076 0.045066249 0
0.013332573 0.044733722 0
0.31896716 0.045973938 0
0.32520896 0.044967826 0
0.33248517 0.044948686 0
0.0050067119 0.054529645 0
0.01349441 0.054549742 0
0.31906494 0.055392165 0
0.32478294 0.05543039 0
0.33265272 0.055637799 0
0.004837303 0.064918004 0
0.01308938 0.064616919 0
0.31895447 0.064637445 0
0.32469028 0.065205052 0
0.33283275 0.064999297 0
0.00540344 0.075119607 0
0.013654308 0.075082481 0
0.31902573 0.075833134 0
0.32461959 0.074638933 0
0.33238399 0.074693352 0
0.0053243521 0.084695049 0
0.013803679 0.084420092 0
0.31894338 0.085201435 0
0.32478908 0.085252538 0
0.33238217 0.085454434 0
0.0053938986 0.094742142 0
0.013816588 0.095042281 0
0.31880757 0.094439693 0
0.3251456 0.094851941 0
0.33231106 0.094823591 0
0.0046411906 0.10453057 0
0.013353727 0.10455228 0
0.3189216 0.10470318 0
0.32470965 0.10435992 0
0.33239421 0.10511218 0
0.0054376749 0.11484342 0
0.013639197 0.1151675 0
0.31898656 0.1139674 0
0.32478729 0.11474892 0
0.33224529 0.11422741 0
0.0050124396 0.1248586 0
0.013668798 0.12529536 0
0.31914851 0.12524396 0
0.32453734 0.12501486 0
0.33221036 0.12451614 0
0.005385919 0.13497207 0
0.013429657 0.13495773 0
0.31884253 0.13410713 0
0.32522216 0.13456388 0
0.33263245 0.13494241 0
0.0048535219 0.14490823 0
0.013414118 0.1452269 0
0.31904101 0.14467822 0
0.32507873 0.14499873 0
0.33271399 0.1451389 0
0.0051935469 0.1550297 0
0.013645209 0.15487406 0
0.31885439 0.15437466 0
0.32502192 0.15497153 0
0.33231696 0.15517892 0
0.0053538745 0.1647723 0
0.013129317 0.16485301 0
0.31930307 0.16647445 0
0.32526413 0.16494535 0
0.33229172 0.16500093 0
0.0045729782 0.17476936 0
0.013028238 0.1749135 0
0.31896588 0.17512111 0
0.32462543 0.17516012 0
0.33244604 0.17533877 0
0.0049226237 0.18524992 0
0.01328559 0.18496171 0
0.31899109 0.18416505 0
0.32566723 0.18542273 0
0.3323096 0.18454391 0
0.0047430471 0.19477336 0
0.013384293 0.19527982 0
0.31888807 0.19459894 0
0.32517654 0.19534644 0
0.33246285 0.19514015 0
0.0049804728 0.20490728 0
0.013803651 0.20466697 0
0.3190684 0.20477605 0
0.32491395 0.20497614 0
0.33280396 0.2044059 0
0.0044958931 0.21477571 0
0.013263405 0.21522528 0
0.31899557 0.2151807 0
0.32526568 0.21446368 0
0.33273426 0.21488219 0
0.0048617413 0.2251647 0
0.013560566 0.22486228 0
0.31923965 0.22543696 0
0.3249478 0.22533379 0
0.33275858 0.22487797 0
0.0050962893 0.23510012 0
0.013525408 0.23471591 0
0.31914896 0.23445854 0
0.32481828 0.23542663 0
0.33231619 0.23500037 0
0.0049818968 0.2446591 0
0.013317693 0.24482197 0
0.31893715 0.24430905 0
0.32486048 0.24439336 0
0.3324137 0.24486585 0
0.0048603322 0.2551035 0
0.013636796 0.25542042 0
0.31913027 0.25677112 0
0.32487199 0.25492162 0
0.33260122 0.25470158 0
0.0048709442 0.26460046 0
0.013585826 0.2649003 0
0.31911406 0.26533002 0
0.32518214 0.26516503 0
0.33266491 0.26496854 0
0.004813327 0.27494106 0
0.013534128 0.27517325 0
0.31906921 0.27495876 0
0.3252362 0.27550757 0
0.33248612 0.2745713 0
0.0047767465 0.28531066 0
0.013331111 0.28480494 0
0.31899703 0.28569314 0
0.32519999 0.28478667 0
0.33248731 0.28515354 0
0.00571976 0.29496443 0
0.013635687 0.29446608 0
0.31912628 0.29445922 0
0.32516721 0.29479507 0
0.33238161 0.29461727 0
0.0049169902 0.3050676 0
0.013160389 0.3050606 0
0.31899789 0.30507952 0
0.32520333 0.30474764 0
0.33255327 0.3054592 0
0.0051409784 0.31527677 0
0.013784409 0.31556132 0
0.022948565 0.31887928 0
0.035101235 0.3190203 0
0.044945635 0.31906667 0
0.054657176 0.31899208 0
0.064619452 0.31903249 0
0.076356456 0.31893477 0
0.084145837 0.31901336 0
0.095341548 0.31917408 0
0.10555246 0.31892356 0
0.11483785 0.31908619 0
0.12411223 0.31916574 0
0.13478576 0.31904078 0
0.14472267 0.31898764 0
0.15581226 0.31900078 0
0.16482145 0.31900918 0
0.17462189 0.31899968 0
0.18477595 0.31883949 0
0.1945387 0.31899071 0
0.20496792 0.31881115 0
0.21429518 0.31904566 0
0.22439659 0.31928 0
0.23502232 0.31923139 0
0.24434561 0.31893173 0
0.25458494 0.31900266 0
0.26503003 0.31901488 0
0.27564564 0.3188405 0
0.28552756 0.3189612 0
0.29557386 0.31895229 0
0.30561328 0.31889945 0
0.31687108 0.31574288 0
0.32489246 0.31520686 0
0.33256692 0.31509495 0
0.0050281188 0.32438284 0
0.014421552 0.32521552 0
0.025265427 0.32534984 0
0.034983411 0.32542345 0
0.044838034 0.3249791 0
0.055070005 0.32481459 0
0.064982101 0.32489374 0
0.075007424 0.32509521 0
0.085014805 0.32518682 0
0.094705835 0.32506058 0
0.10527374 0.32466912 0
0.11489324 0.32550007 0
0.12503713 0.32497242 0
0.13537118 0.32517871 0
0.14514498 0.32496563 0
0.15491553 0.32546228 0
0.16523115 0.32493147 0
0.17487487 0.32469448 0
0.18460116 0.32499948 0
0.19460139 0.32505652 0
0.20503271 0.32502836 0
0.21503723 0.32473573 0
0.22463648 0.32510546 0
0.23502517 0.32565612 0
0.24540202 0.32534391 0
0.254908 0.32518756 0
0.26511157 0.32523936 0
0.27552775 0.32496405 0
0.2848866 0.32468015 0
0.29518333 0.32523495 0
0.30514804 0.32540131 0
0.31515265 0.32502633 0
0.325075 0.32467538 0
0.3324981 0.32502908 0
0.0050972574 0.33236125 0
0.015152129 0.33241913 0
0.025180995 0.33270556 0
0.035228163 0.33256498 0
0.045283049 0.33248898 0
0.054750945 0.33236653 0
0.064926013 0.33252069 0
0.075062603 0.33232901 0
0.085698798 0.3324281 0
0.094555646 0.33260676 0
0.10507458 0.33276632 0
0.11498154 0.33205283 0
0.1252062 0.33255208 0
0.13440797 0.33273754 0
0.14527802 0.33248422 0
0.15479225 0.33226463 0
0.16456383 0.33256376 0
0.17508242 0.33283576 0
0.18372056 0.33271995 0
0.19602939 0.33232325 0
0.205899 0.33265659 0
0.21547282 0.33240646 0
0.22494012 0.33223143 0
0.23472379 0.33223635 0
0.24467134 0.33244997 0
0.25448519 0.3324827 0
0.26476923 0.3325915 0
0.27516627 0.33239388 0
0.28509247 0.33229125 0
0.29474911 0.3329441 0
0.30540916 0.33256063 0
0.31463131 0.33251736 0
0.32520214 0.33204761 0
0.33244503 0.33187112 0
