# .PCD v0.7 - Point Cloud Data file format
VERSION 0.7
FIELDS x y z
SIZE 4 4 4
TYPE F F F
COUNT 1 1 1
WIDTH 1170
HEIGHT 1
VIEWPOINT 0 0 0 1 0 0 0
POINTS 1170
DATA ascii
0.017798504 0.017716156 -0.044423342
0.025241459 0.016999986 -0.045113511
0.035341345 0.016999992 -0.045143258
0.04468891 0.016999995 -0.045273468
0.054537341 0.016999997 -0.045035336
0.064389497 0.016999995 -0.044799734
0.074701622 0.01699999 -0.04508036
0.084607534 0.016999995 -0.045396142
0.095391616 0.016999992 -0.045391463
0.10530917 0.016999993 -0.045097813
0.11469356 0.016999986 -0.045484133
0.12562542 0.01699999 -0.045351598
0.13494825 0.016999993 -0.045242574
0.14496627 0.016999988 -0.044958461
0.15527229 0.016999986 -0.045182511
0.16580439 0.016999988 -0.044912215
0.17485005 0.016999986 -0.045129798
0.18497357 0.01699999 -0.044776265
0.1952313 0.016999988 -0.044973176
0.20556116 0.016999993 -0.045025684
0.21482544 0.01699999 -0.045182325
0.22494659 0.016999986 -0.0448112
0.23518923 0.016999986 -0.044684123
0.24478598 0.016999993 -0.04504006
0.2545698 0.016999988 -0.044370495
0.26463479 0.016999992 -0.045276333
0.27524939 0.016999988 -0.044926696
0.28493628 0.016999988 -0.045110904
0.29513004 0.016999992 -0.045263611
0.30543134 0.016999999 -0.045159817
0.31518206 0.016999988 -0.044798147
0.3250227 0.016999992 -0.044572748
0.33542058 0.016999986 -0.04498931
0.34480378 0.016999992 -0.044869002
0.35540429 0.01699999 -0.045167044
0.36491093 0.016999984 -0.044639096
0.37544632 0.01699999 -0.044610456
0.38497308 0.016999988 -0.045542203
0.39526373 0.016999993 -0.045221835
0.40473726 0.016999986 -0.045015316
0.41543418 0.016999992 -0.04531749
0.4254798 0.016999993 -0.04472582
0.43549246 0.016999988 -0.045614
0.44523847 0.016999992 -0.045015622
0.45528594 0.016999992 -0.045143113
0.46520001 0.01699999 -0.044988308
0.47483525 0.016999988 -0.044882361
0.48421133 0.017501581 -0.045128163
0.016999988 0.025379309 -0.045015439
0.48600003 0.024617296 -0.044927187
0.016999992 0.035012029 -0.045191351
0.48600003 0.035280023 -0.04471904
0.01699999 0.045208231 -0.044759355
0.48600003 0.044928908 -0.045190785
0.01699999 0.055115212 -0.044863258
0.48600003 0.054792088 -0.045118045
0.016999992 0.064877883 -0.044976395
0.48600003 0.064889692 -0.04491346
0.016999993 0.07527642 -0.045433555
0.48600003 0.075192116 -0.044990052
0.016999988 0.085190453 -0.044598199
0.48600003 0.085286163 -0.045091908
0.016999992 0.095302686 -0.044878177
0.48600003 0.095159478 -0.044883274
0.016999992 0.10518765 -0.044559408
0.48600003 0.1054529 -0.045242351
0.01699999 0.11543675 -0.045011882
0.48600003 0.11482502 -0.045338616
0.016999992 0.12474199 -0.044974875
0.48600003 0.12491556 -0.044010937
0.016999992 0.13536352 -0.045115251
0.48600003 0.13576846 -0.04479013
0.016999988 0.14481065 -0.044843588
0.48600003 0.14516079 -0.044531122
0.01699999 0.15489261 -0.04568382
0.486 0.15446837 -0.045273576
0.016999984 0.16482571 -0.045075361
0.48600003 0.16510324 -0.044771887
0.016999992 0.17562424 -0.045156669
0.486 0.17455541 -0.044728011
0.016999988 0.18516351 -0.044797197
0.48600003 0.1846578 -0.045250613
0.016999986 0.19501911 -0.044974796
0.48600003 0.19517851 -0.044895541
0.016999986 0.2050904 -0.044621758
0.48600003 0.20473474 -0.045028262
0.01699999 0.21457782 -0.045226645
0.48600003 0.21522456 -0.045206983
0.016999992 0.22505844 -0.044676803
0.48600003 0.22504988 -0.045231491
0.016999995 0.23496521 -0.044147398
0.48600003 0.23491867 -0.045142911
0.016999999 0.24520026 -0.045113627
0.48600003 0.2449374 -0.045139857
0.01699999 0.25549391 -0.044145193
0.48600003 0.25528476 -0.045511011
0.01699999 0.26484269 -0.045161266
0.48600003 0.26503369 -0.045176137
0.016999992 0.27505037 -0.044984642
0.48600003 0.27493566 -0.044639759
0.01699999 0.28548214 -0.045207027
0.48600003 0.28501019 -0.044967145
0.016999986 0.29533377 -0.044845801
0.48600003 0.29541558 -0.044267457
0.01699999 0.30501476 -0.045312569
0.48600003 0.30472448 -0.044890486
0.017479269 0.31470674 -0.044640519
0.02458626 0.31800029 -0.045004774
0.035163876 0.31800035 -0.045118168
0.045041166 0.31800035 -0.044992611
0.05474598 0.31800026 -0.045129519
0.065383442 0.31800032 -0.045271516
0.07518401 0.31800026 -0.044961683
0.085247338 0.31800026 -0.045047261
0.095073551 0.31800026 -0.044866238
0.10510951 0.31800026 -0.045349613
0.11456559 0.31800011 -0.045620974
0.12455417 0.31800038 -0.044930335
0.13486941 0.31800035 -0.044991214
0.14531994 0.31800035 -0.044599276
0.15485898 0.31800035 -0.045091782
0.16484091 0.31800032 -0.044989672
0.17485072 0.31800023 -0.045398295
0.18517354 0.31800032 -0.045263585
0.19459499 0.31800032 -0.044983596
0.20481704 0.31800035 -0.045523893
0.21558113 0.31800029 -0.044439625
0.22494279 0.31800035 -0.045175981
0.23549017 0.31800035 -0.045051698
0.2450926 0.31800032 -0.044804774
0.25507301 0.31800032 -0.045310941
0.26506931 0.31800038 -0.045304328
0.27536628 0.31800023 -0.044588916
0.28529894 0.31800038 -0.044962913
0.29532695 0.31800029 -0.045308277
0.30516842 0.31800035 -0.044678684
0.31487712 0.31800029 -0.045104951
0.32476139 0.31800032 -0.04484966
0.33463815 0.31800026 -0.045080967
0.34496856 0.31800038 -0.044666372
0.35524797 0.31800032 -0.045416892
0.36498815 0.31800029 -0.044831447
0.37532625 0.31800035 -0.044905145
0.38471994 0.31800029 -0.044978112
0.39517948 0.31800032 -0.045204122
0.40478465 0.31800029 -0.045194771
0.41564906 0.31800023 -0.04503341
0.42468703 0.31800032 -0.044745188
0.43525687 0.31800026 -0.045060761
0.44500035 0.31800029 -0.045061469
0.45490527 0.31800029 -0.045247301
0.46543172 0.31800035 -0.045328699
0.47465575 0.31800023 -0.044333439
0.4844794 0.31589779 -0.044790734
0.017590631 0.017961279 -0.03453948
0.025165292 0.01699999 -0.034758389
0.034670066 0.016999988 -0.035028506
0.044320375 0.016999992 -0.034549732
0.054446012 0.016999988 -0.03469025
0.064805858 0.016999988 -0.035159379
0.075159661 0.01699999 -0.034963489
0.0849768 0.016999993 -0.034865841
0.094732888 0.016999986 -0.034714721
0.1053781 0.016999992 -0.035133459
0.11528061 0.016999993 -0.034906399
0.12510204 0.016999992 -0.035323326
0.13505663 0.01699999 -0.035385795
0.1450735 0.016999986 -0.034791693
0.15484719 0.01699999 -0.035270285
0.16550809 0.016999988 -0.034623869
0.17500183 0.016999992 -0.035382051
0.18472616 0.016999988 -0.035459466
0.19523668 0.016999997 -0.035070449
0.2052235 0.016999988 -0.03525798
0.21529125 0.016999993 -0.034910403
0.22555095 0.01699999 -0.035338689
0.23477259 0.016999992 -0.035231266
0.2453742 0.016999988 -0.034999438
0.25515243 0.016999988 -0.034815282
0.26464632 0.016999992 -0.034931835
0.27492794 0.016999986 -0.034941319
0.28456333 0.016999992 -0.0349846
0.29497471 0.016999995 -0.035183512
0.30498397 0.016999988 -0.03505962
0.31491536 0.016999988 -0.03525937
0.32494161 0.016999995 -0.034791682
0.33479244 0.016999992 -0.035400633
0.34547469 0.016999982 -0.03563391
0.35527262 0.01699999 -0.034883276
0.36548513 0.016999992 -0.03499534
0.37508905 0.01699999 -0.034851752
0.38546559 0.016999992 -0.035592128
0.39463466 0.016999988 -0.035033688
0.40460995 0.01699999 -0.035001758
0.41520271 0.016999993 -0.034865536
0.42478505 0.01699999 -0.034957983
0.43547407 0.016999995 -0.035132382
0.44489145 0.016999992 -0.034834955
0.45497641 0.01699999 -0.035396937
0.46490967 0.016999992 -0.035227235
0.47513777 0.016999986 -0.034911357
0.48422286 0.017540706 -0.035197224
0.016999992 0.025014115 -0.034714296
0.48600003 0.024789723 -0.034752786
0.016999992 0.035386976 -0.035299674
0.48600003 0.034868296 -0.035643961
0.01699999 0.044652395 -0.034976725
0.48600003 0.044752333 -0.035508782
0.01699999 0.055203162 -0.035218138
0.48600003 0.055591252 -0.03481143
0.01699999 0.065087125 -0.034949958
0.48600003 0.065595537 -0.035163339
0.016999993 0.075361133 -0.035034433
0.48600003 0.074805625 -0.034850068
0.016999988 0.085303843 -0.035179518
0.48600003 0.084850624 -0.034837529
0.016999992 0.09508235 -0.035083093
0.48600003 0.094547547 -0.034643717
0.016999988 0.10514972 -0.035473689
0.48600003 0.10449651 -0.034628533
0.01699999 0.11533254 -0.034943461
0.48600003 0.11526179 -0.034879074
0.016999992 0.12504311 -0.034988433
0.48600003 0.12554111 -0.035166051
0.016999993 0.13477731 -0.035342731
0.48600003 0.13529253 -0.034875449
0.016999992 0.14504512 -0.035850588
0.48600003 0.14524633 -0.035309691
0.016999992 0.15555702 -0.035034768
0.48600003 0.15549943 -0.034872349
0.016999992 0.16516721 -0.035464752
0.48600003 0.16533244 -0.034455035
0.016999988 0.17529331 -0.03534377
0.48600003 0.17520498 -0.034923814
0.016999986 0.18494311 -0.034487579
0.48600003 0.18517201 -0.03468097
0.016999984 0.19486432 -0.034895752
0.486 0.1951692 -0.034752697
0.01699999 0.20458147 -0.03520976
0.48600003 0.2051039 -0.035031684
0.016999995 0.21520643 -0.034676015
0.48600003 0.21504618 -0.034752894
0.016999992 0.22491084 -0.03525744
0.486 0.22551373 -0.034905776
0.016999992 0.23469162 -0.03453245
0.48600003 0.23466559 -0.034891572
0.016999992 0.24506956 -0.034714896
0.486 0.24505132 -0.034937114
0.016999988 0.254987 -0.034685407
0.48600003 0.25467071 -0.035061974
0.016999992 0.26503685 -0.035132352
0.48600003 0.2648277 -0.035204079
0.016999988 0.27521762 -0.035318054
0.48600003 0.27469167 -0.035166804
0.01699999 0.28439283 -0.034666523
0.48600003 0.28487039 -0.035071895
0.01699999 0.29536161 -0.035216078
0.486 0.29542616 -0.034585282
0.01699999 0.3050226 -0.035032276
0.48600003 0.30518353 -0.03480104
0.017466128 0.31536847 -0.035114389
0.025064835 0.31800026 -0.035022613
0.034768015 0.31800029 -0.034975488
0.045090266 0.31800032 -0.035001874
0.055620376 0.31800029 -0.035160299
0.064816698 0.31800032 -0.035422143
0.074675053 0.31800032 -0.035496533
0.084796898 0.31800038 -0.03486548
0.094771639 0.31800029 -0.03546086
0.10502686 0.31800032 -0.035273563
0.11557775 0.31800035 -0.035088513
0.1251705 0.31800029 -0.035152592
0.13513069 0.31800032 -0.035200264
0.14456628 0.31800029 -0.03488414
0.15532842 0.31800041 -0.035155971
0.16490307 0.31800026 -0.035120487
0.17483713 0.31800029 -0.035465509
0.18500817 0.31800026 -0.034966059
0.19503519 0.31800026 -0.034944888
0.20502697 0.31800038 -0.034975875
0.21557567 0.31800035 -0.035297669
0.22521409 0.31800029 -0.035033595
0.23497118 0.31800035 -0.035025463
0.24529479 0.31800032 -0.035235129
0.25445709 0.31800026 -0.034882464
0.26538351 0.31800029 -0.035575204
0.27505133 0.31800035 -0.034750782
0.28528678 0.31800029 -0.035046481
0.29517084 0.31800029 -0.03499065
0.30447209 0.31800035 -0.034791622
0.31480908 0.31800029 -0.035182618
0.32459319 0.31800032 -0.035367154
0.33459389 0.31800035 -0.034925222
0.34463274 0.31800032 -0.035003927
0.35464656 0.31800035 -0.034833688
0.36474842 0.31800035 -0.035139434
0.37554845 0.31800032 -0.034812402
0.38452604 0.31800035 -0.035183523
0.39500698 0.31800032 -0.034748554
0.40540221 0.31800035 -0.035197888
0.41468671 0.31800032 -0.034783561
0.42482471 0.31800029 -0.034799431
0.43459105 0.31800029 -0.035034969
0.44524616 0.31800026 -0.034670703
0.45486143 0.31800035 -0.03512923
0.46509048 0.31800035 -0.034952983
0.47462922 0.31800035 -0.034849677
0.48474678 0.3157635 -0.034864262
0.017866105 0.017650709 -0.025107702
0.024939811 0.016999992 -0.024980672
0.034844827 0.016999992 -0.025041353
0.044549011 0.016999993 -0.024500877
0.055046555 0.016999992 -0.02528481
0.064817399 0.016999995 -0.025050221
0.075581163 0.016999995 -0.02500671
0.084807634 0.016999988 -0.025035163
0.095041268 0.016999992 -0.025341488
0.10485511 0.016999997 -0.025258366
0.11508034 0.016999992 -0.024811808
0.12522292 0.016999993 -0.025739247
0.135199 0.016999992 -0.025546143
0.14528191 0.016999986 -0.025324097
0.15468334 0.016999993 -0.025314121
0.1647844 0.016999986 -0.024428748
0.17495722 0.016999992 -0.024944831
0.18466526 0.016999992 -0.024728773
0.19510777 0.016999992 -0.024976881
0.20491207 0.016999995 -0.025295705
0.21532133 0.016999988 -0.025152517
0.2248285 0.016999992 -0.025357813
0.23475452 0.016999993 -0.02446525
0.24486838 0.016999984 -0.024686575
0.25503674 0.016999986 -0.024836114
0.26510504 0.016999995 -0.025316015
0.27512974 0.01699999 -0.02526848
0.28506315 0.016999992 -0.025346598
0.29493976 0.01699999 -0.025269506
0.30492041 0.016999986 -0.025464796
0.31471294 0.016999988 -0.025395596
0.32501537 0.016999988 -0.024755426
0.33502871 0.016999997 -0.024843177
0.34514529 0.016999988 -0.025230801
0.35560641 0.016999984 -0.024950176
0.36494729 0.016999995 -0.025291463
0.37529749 0.016999988 -0.025255591
0.3850922 0.016999986 -0.024663534
0.39535561 0.01699999 -0.024868406
0.40510583 0.016999988 -0.025217127
0.41475329 0.016999992 -0.024312155
0.42486352 0.016999984 -0.024604123
0.43497789 0.01699999 -0.025211856
0.44500032 0.016999988 -0.024721755
0.45480213 0.016999986 -0.025473129
0.46512061 0.016999984 -0.024930239
0.47575605 0.016999999 -0.025374148
0.4838056 0.017409492 -0.025080224
0.016999992 0.024552124 -0.025203669
0.48600003 0.024816029 -0.024875311
0.016999988 0.035279609 -0.025035245
0.48600003 0.034816541 -0.025014324
0.016999993 0.045275521 -0.025139313
0.48600003 0.04510833 -0.025353232
0.01699999 0.05483501 -0.024754839
0.48600003 0.054915033 -0.02511362
0.016999995 0.065016493 -0.024838638
0.486 0.065091893 -0.025420709
0.016999992 0.074834853 -0.025266027
0.486 0.074709818 -0.025461825
0.016999992 0.085317202 -0.024899334
0.48600003 0.084325463 -0.024941821
0.016999986 0.094874792 -0.025641508
0.48600003 0.095072754 -0.025133381
0.016999995 0.10470863 -0.024890367
0.48600003 0.10500287 -0.025249381
0.01699999 0.11471552 -0.02508582
0.48600003 0.11491007 -0.024888292
0.016999995 0.12490055 -0.025336972
0.486 0.12546916 -0.024869023
0.016999992 0.13548712 -0.025055883
0.48600003 0.13490155 -0.024954317
0.016999992 0.14540063 -0.025163522
0.48600003 0.14475061 -0.025246043
0.016999988 0.15513559 -0.024661684
0.486 0.15472747 -0.025152203
0.016999992 0.16492128 -0.025135659
0.486 0.16508222 -0.025013035
0.016999992 0.17503671 -0.025534913
0.48600003 0.17509921 -0.02489206
0.016999988 0.18513882 -0.025183063
0.486 0.18459609 -0.025228396
0.01699999 0.19497673 -0.025007406
0.48600003 0.19491568 -0.024916323
0.016999992 0.20508163 -0.024930747
0.48600003 0.20487374 -0.024951354
0.016999986 0.21519591 -0.024718786
0.48600003 0.21523459 -0.024949849
0.016999986 0.22481114 -0.024810856
0.48600003 0.22436909 -0.024781026
0.016999995 0.23506464 -0.025210151
0.486 0.23438612 -0.024670266
0.016999992 0.24511564 -0.02437341
0.48600003 0.24498868 -0.025920391
0.016999993 0.25489381 -0.024823839
0.48600003 0.25512457 -0.024803292
0.016999988 0.26505065 -0.02511549
0.486 0.26503983 -0.024534263
0.016999992 0.27503949 -0.025084622
0.48600003 0.27533597 -0.02529707
0.016999992 0.28495857 -0.024784651
0.48600003 0.28505802 -0.025321545
0.01699999 0.29497132 -0.024606971
0.48600003 0.2951757 -0.024797102
0.01699999 0.30519009 -0.026108377
0.486 0.30492532 -0.025346838
0.017410655 0.31520206 -0.025237547
0.025042482 0.31800032 -0.02517035
0.035294101 0.31800032 -0.02466936
0.045183133 0.31800026 -0.024851207
0.054647267 0.31800032 -0.025162412
0.064905025 0.31800029 -0.024999993
0.074819073 0.31800023 -0.024922676
0.084633008 0.31800029 -0.024876304
0.095121369 0.31800038 -0.02496526
0.10479746 0.31800038 -0.025245404
0.1149198 0.31800032 -0.025073364
0.1244877 0.31800038 -0.025654849
0.1348972 0.31800029 -0.024710201
0.1450413 0.31800032 -0.025077792
0.15487348 0.31800038 -0.024836244
0.16537294 0.31800038 -0.024760813
0.17538744 0.31800035 -0.024741068
0.18487166 0.31800038 -0.025362276
0.19491261 0.31800032 -0.025412785
0.20495488 0.31800032 -0.024954775
0.21503377 0.31800032 -0.025041325
0.22473042 0.31800029 -0.025134733
0.23512517 0.31800029 -0.024554027
0.24478015 0.31800032 -0.025022602
0.25516677 0.31800032 -0.024328377
0.26476213 0.31800032 -0.025058929
0.27495104 0.31800023 -0.024917979
0.28553024 0.31800032 -0.025375528
0.29502979 0.31800035 -0.02496079
0.30443454 0.31800035 -0.024665758
0.31533307 0.31800029 -0.024201186
0.32510257 0.31800035 -0.025056556
0.33526847 0.31800023 -0.025023861
0.34505844 0.31800026 -0.024914354
0.35540748 0.31800041 -0.025163842
0.36450472 0.31800029 -0.024751192
0.37495342 0.31800026 -0.024548117
0.38526154 0.31800029 -0.025098793
0.39524806 0.31800026 -0.025178669
0.40500468 0.31800038 -0.02517
0.41511011 0.31800032 -0.025161767
0.42506874 0.31800032 -0.024962276
0.43476108 0.31800038 -0.025226342
0.4449122 0.31800038 -0.024949176
0.45461693 0.31800026 -0.024974149
0.46502045 0.31800032 -0.024829213
0.47484308 0.31800029 -0.024967693
0.48479876 0.31567276 -0.024782399
0.017717078 0.017754257 -0.014480586
0.024832468 0.016999992 -0.015094357
0.034569185 0.01699999 -0.014623175
0.044490982 0.016999988 -0.014802081
0.054513231 0.016999992 -0.015400492
0.065023527 0.016999988 -0.015282914
0.074142449 0.016999992 -0.015360129
0.085613593 0.016999993 -0.01480943
0.094845489 0.016999988 -0.015301358
0.10493041 0.016999986 -0.014843405
0.11495119 0.016999993 -0.015515823
0.12535368 0.016999986 -0.015159876
0.13547502 0.01699999 -0.01508714
0.14432563 0.016999992 -0.015360994
0.15495913 0.016999995 -0.01481274
0.16517198 0.016999995 -0.014654692
0.17528301 0.016999986 -0.015393325
0.18511173 0.01699999 -0.015071515
0.19507031 0.016999992 -0.015145023
0.20470621 0.016999986 -0.01470519
0.21494588 0.016999984 -0.015040157
0.225647 0.016999986 -0.015449865
0.23466663 0.01699999 -0.015151008
0.24494182 0.016999988 -0.015275872
0.25473875 0.01699999 -0.015119239
0.26519462 0.016999993 -0.014430392
0.27499273 0.016999984 -0.014735242
0.28565609 0.016999995 -0.015290196
0.29492816 0.016999986 -0.014713962
0.30492106 0.01699999 -0.014973501
0.31544295 0.01699999 -0.014490163
0.32475191 0.01699999 -0.014707969
0.33499548 0.016999986 -0.014914746
0.34492749 0.01699999 -0.015297338
0.3547782 0.016999993 -0.015132107
0.36484498 0.016999993 -0.01465568
0.37487796 0.016999988 -0.01513299
0.38494414 0.016999986 -0.014710742
0.39507994 0.016999986 -0.015072032
0.40477356 0.016999986 -0.015142213
0.41527864 0.016999997 -0.014920778
0.42537758 0.016999992 -0.015059557
0.43477711 0.016999986 -0.015145827
0.44509789 0.016999993 -0.015250842
0.45515713 0.016999988 -0.014893482
0.46503118 0.016999986 -0.014539885
0.47458529 0.016999999 -0.015162964
0.48397541 0.017440477 -0.01530261
0.016999992 0.024930272 -0.014776665
0.48600003 0.025464848 -0.014836828
0.016999988 0.034535114 -0.015401462
0.486 0.035407286 -0.014949319
0.016999992 0.044735983 -0.014760002
0.48600003 0.045373116 -0.015370036
0.016999986 0.054785103 -0.015332841
0.486 0.054525159 -0.014993835
0.016999986 0.065089092 -0.014982826
0.48600003 0.065168805 -0.014689318
0.016999992 0.07469929 -0.015172196
0.48600003 0.075297236 -0.01497566
0.016999993 0.08480756 -0.014923774
0.48600003 0.084721066 -0.015252179
0.01699999 0.094721086 -0.015165645
0.48600003 0.09547881 -0.015438991
0.016999986 0.10473264 -0.015251031
0.48600003 0.10441576 -0.014935267
0.016999992 0.11541457 -0.015191171
0.48600003 0.11505534 -0.015337822
0.01699999 0.12494565 -0.015017764
0.48600003 0.12452608 -0.0146689
0.016999992 0.13510324 -0.014886032
0.48600003 0.13462825 -0.01495754
0.016999993 0.1449019 -0.015587123
0.48600003 0.1447899 -0.01508698
0.01699999 0.1553466 -0.015225905
0.48600003 0.15481256 -0.015030442
0.016999995 0.16460551 -0.014804019
0.48600003 0.16506673 -0.014582307
0.016999988 0.17535661 -0.015031058
0.48600003 0.1753042 -0.01495629
0.016999984 0.18463098 -0.015196519
0.48600003 0.18472932 -0.014645729
0.016999995 0.19463852 -0.015007703
0.48600003 0.19507283 -0.014389174
0.016999986 0.20525816 -0.014952243
0.48600003 0.20495562 -0.015404567
0.016999992 0.21487516 -0.015039968
0.48600003 0.21536516 -0.014899595
0.016999984 0.2252655 -0.015175176
0.48600003 0.22504959 -0.015532677
0.016999988 0.23484567 -0.014748491
0.48600003 0.23514937 -0.015222693
0.016999992 0.2452762 -0.015156612
0.48600003 0.24487941 -0.01481651
0.016999984 0.25538659 -0.015029189
0.48600003 0.25488353 -0.014646806
0.016999993 0.26502937 -0.014833015
0.48600003 0.26483402 -0.015345868
0.016999992 0.27506039 -0.01470679
0.48600003 0.27433211 -0.014801264
0.016999988 0.28497627 -0.015276575
0.48600003 0.285133 -0.015189234
0.016999997 0.29464555 -0.01521111
0.48600003 0.29502463 -0.014841091
0.016999988 0.30509058 -0.015176608
0.48600003 0.30479679 -0.014899548
0.017410068 0.31536791 -0.015393863
0.025424199 0.31800029 -0.015234222
0.035030544 0.31800035 -0.015123633
0.045135483 0.31800032 -0.014512847
0.054927573 0.31800023 -0.014667744
0.064797282 0.31800038 -0.014843195
0.074804783 0.31800041 -0.015399237
0.084558852 0.31800026 -0.013863776
0.094993018 0.31800023 -0.015739273
0.10532393 0.31800038 -0.015116937
0.11452483 0.31800029 -0.014900552
0.12446459 0.31800035 -0.015108295
0.13541147 0.31800026 -0.014562873
0.14473902 0.31800035 -0.014698253
0.15436514 0.31800029 -0.014801854
0.16486619 0.31800026 -0.015009383
0.1751335 0.31800032 -0.015153077
0.18474899 0.31800032 -0.015200119
0.19534039 0.31800029 -0.014995866
0.2053193 0.31800026 -0.015107477
0.21498258 0.31800032 -0.015078166
0.22509129 0.31800041 -0.014520228
0.23529507 0.31800032 -0.015225728
0.24486686 0.31800032 -0.014620662
0.2544741 0.31800038 -0.014922965
0.26502606 0.31800029 -0.015480328
0.27505955 0.31800032 -0.01487046
0.2849068 0.31800038 -0.015262697
0.29482949 0.31800026 -0.015175343
0.30492213 0.31800032 -0.015056047
0.31499201 0.31800044 -0.01528412
0.32475144 0.31800017 -0.015422457
0.3352868 0.31800038 -0.015085565
0.34461299 0.31800026 -0.014870664
0.35475615 0.31800032 -0.015057596
0.36496487 0.31800023 -0.015253101
0.37476552 0.31800032 -0.014647579
0.38471833 0.31800023 -0.015591247
0.3951267 0.31800032 -0.015233829
0.40524963 0.31800032 -0.015375619
0.41527504 0.31800023 -0.015234889
0.42501548 0.31800029 -0.014764915
0.43510896 0.31800029 -0.015414548
0.44499195 0.31800032 -0.015160992
0.45561248 0.31800035 -0.015071593
0.46499094 0.31800038 -0.015439522
0.47511557 0.31800029 -0.015018862
0.48482832 0.315712 -0.014869624
0.017977608 0.017611181 -0.0047989436
0.025052469 0.016999995 -0.0052622627
0.035201907 0.016999992 -0.0050604832
0.0453429 0.016999988 -0.004369955
0.054953083 0.01699999 -0.004459748
0.06487941 0.016999992 -0.0050281752
0.075542368 0.016999993 -0.0048275865
0.084612191 0.016999986 -0.0046501081
0.095330782 0.016999988 -0.0047809943
0.10477941 0.016999995 -0.0051683262
0.11543104 0.016999992 -0.0051095276
0.12530319 0.01699999 -0.0045980564
0.13494894 0.016999992 -0.0053118314
0.14510569 0.016999992 -0.0053755431
0.15520877 0.01699999 -0.0043258802
0.16535838 0.016999984 -0.0052469154
0.17521189 0.016999993 -0.0053735743
0.1851238 0.016999992 -0.0046853074
0.19469316 0.016999988 -0.0053021866
0.20486435 0.016999992 -0.0052308231
0.21512523 0.016999993 -0.0048674708
0.22507124 0.01699999 -0.0053298785
0.2351532 0.016999992 -0.005081926
0.24488184 0.016999993 -0.0046056309
0.25497007 0.016999986 -0.0050732545
0.26487693 0.016999995 -0.0046664677
0.27471107 0.016999986 -0.0046489919
0.28467605 0.016999984 -0.0044532525
0.29515272 0.016999993 -0.0050061545
0.30476275 0.016999992 -0.0045732162
0.31498918 0.016999988 -0.0047916118
0.32495907 0.016999982 -0.0045872992
0.33536115 0.01699999 -0.0049516507
0.34522355 0.016999997 -0.0045666746
0.35480627 0.01699999 -0.0046905968
0.36507186 0.016999993 -0.005628984
0.37479028 0.01699999 -0.0047127609
0.38463509 0.01699999 -0.0054703956
0.3950575 0.016999986 -0.0052087111
0.40519089 0.016999992 -0.0050186659
0.41522002 0.016999993 -0.0053775292
0.42523712 0.016999984 -0.005141974
0.43467483 0.01699999 -0.0054473705
0.44491008 0.016999992 -0.0050850809
0.45521662 0.016999993 -0.0047835703
0.46536568 0.016999986 -0.0047383881
0.47484386 0.01699999 -0.0048691048
0.48384809 0.017342197 -0.0052849972
0.01699999 0.025078675 -0.0049485043
0.48600003 0.024910217 -0.0049884836
0.016999992 0.034787789 -0.0058010602
0.48600003 0.03483412 -0.005619247
0.016999992 0.04509265 -0.0047979699
0.48600003 0.045233402 -0.0047492012
0.016999993 0.054420225 -0.005464341
0.48600003 0.055174362 -0.0053526564
0.016999992 0.065347657 -0.0051796087
0.48600003 0.065150037 -0.0049726013
0.01699999 0.074879266 -0.005403012
0.48600003 0.074988656 -0.0049056751
0.016999992 0.084633254 -0.0050478769
0.48600003 0.085019805 -0.0049663768
0.016999997 0.094713554 -0.0047323904
0.48600003 0.094895475 -0.0052969628
0.016999992 0.10472963 -0.0048478083
0.48600003 0.10481784 -0.0049182684
0.016999992 0.11514958 -0.0050098076
0.48600003 0.11514305 -0.0045264596
0.01699999 0.12443714 -0.0052565043
0.48600003 0.1251107 -0.004892387
0.016999988 0.13495983 -0.00470943
0.48600003 0.13479282 -0.0052481964
0.01699999 0.14492674 -0.0054219859
0.48600003 0.14453377 -0.0049309479
0.016999988 0.15504833 -0.0048664953
0.48600003 0.15486951 -0.0053322581
0.016999993 0.1645834 -0.004960692
0.48600003 0.16487749 -0.0049571102
0.016999992 0.17476729 -0.0048220507
0.48600003 0.17507643 -0.0052339463
0.016999988 0.18435997 -0.0049252724
0.48600003 0.1846537 -0.0045788013
0.01699999 0.19498636 -0.0049338164
0.48600003 0.19461209 -0.0056670131
0.016999993 0.20488353 -0.0057862168
0.48600003 0.20519969 -0.0053174999
0.016999986 0.21494481 -0.0047950745
0.48600003 0.215086 -0.0052415612
0.016999986 0.22518876 -0.0048862011
0.486 0.22452462 -0.0045942506
0.016999988 0.23474453 -0.0049067521
0.48600003 0.23498054 -0.005242412
0.016999988 0.24471094 -0.0044845347
0.486 0.24469671 -0.0046919752
0.016999986 0.25534055 -0.0051232446
0.48600003 0.25504136 -0.0044159712
0.016999992 0.26453564 -0.0045031924
0.48600003 0.26496843 -0.0050619175
0.01699999 0.27514288 -0.0046996451
0.48600003 0.27523544 -0.0049208235
0.016999993 0.28504959 -0.0047444492
0.48600003 0.28510559 -0.0048348866
0.016999995 0.2950829 -0.0048398902
0.48600003 0.29491785 -0.005546004
0.016999988 0.30469897 -0.0044323313
0.48600003 0.30524182 -0.0050140023
0.017438861 0.3151806 -0.0051260395
0.024910079 0.31800023 -0.0046135592
0.034797091 0.31800038 -0.0048847571
0.044809684 0.31800038 -0.0052060061
0.054607853 0.31800038 -0.0053846142
0.065092243 0.31800035 -0.004606232
0.074878439 0.31800035 -0.0051319906
0.085294746 0.31800029 -0.0050239428
0.095084459 0.31800038 -0.0047603357
0.104437 0.31800032 -0.0057803909
0.11494727 0.31800032 -0.0046835053
0.12517504 0.31800029 -0.0054979105
0.13466263 0.31800035 -0.0051197284
0.14503764 0.31800035 -0.0052521774
0.15520747 0.31800023 -0.0048556556
0.16537258 0.3180002 -0.0043054111
0.1744557 0.31800029 -0.0053432779
0.18451571 0.31800035 -0.0043187994
0.19595197 0.31800035 -0.0051085996
0.2045611 0.31800026 -0.0049850401
0.21488634 0.31800038 -0.0053026089
0.22506656 0.31800029 -0.0045745852
0.23506211 0.31800035 -0.004848944
0.24468932 0.31800023 -0.004817144
0.25495398 0.31800029 -0.0050859256
0.26537567 0.31800029 -0.0054409718
0.27515823 0.31800038 -0.0048251352
0.28503215 0.31800038 -0.0046804929
0.29494449 0.31800029 -0.0047114687
0.30484593 0.3180002 -0.0053409114
0.3150416 0.31800035 -0.0048206053
0.32496431 0.31800041 -0.0049592191
0.33497757 0.31800029 -0.0048401579
0.34509274 0.31800032 -0.0046275519
0.3545253 0.31800035 -0.0046105576
0.36497742 0.31800038 -0.0051468257
0.37508893 0.31800029 -0.0051380284
0.38464594 0.31800032 -0.0052915774
0.39510894 0.31800035 -0.0052524419
0.40539595 0.31800029 -0.0047963876
0.41511971 0.31800032 -0.0047209859
0.425111 0.31800029 -0.0050870935
0.4348954 0.31800032 -0.0043729567
0.44515121 0.31800032 -0.0047885627
0.45536956 0.31800035 -0.0050261659
0.46486282 0.31800035 -0.0050195609
0.47477433 0.31800029 -0.0049556717
0.48507324 0.31552255 -0.0051114168
0.0055091712 0.0048774723 0
0.015197696 0.0050527724 0
0.025252923 0.0051765093 0
0.034809422 0.005026293 0
0.045186859 0.0050011808 0
0.055066202 0.005200393 0
0.065480806 0.0050570359 0
0.07470087 0.0047684805 0
0.085117862 0.0053102691 0
0.095302425 0.0045055575 0
0.10498087 0.0049950317 0
0.11547986 0.0052524065 0
0.12529255 0.0044529969 0
0.13509515 0.0044731689 0
0.14479667 0.0051080813 0
0.15504444 0.0050407643 0
0.16483799 0.0051524476 0
0.17520778 0.0051355679 0
0.18515268 0.0052441568 0
0.19460379 0.0047602733 0
0.20460884 0.0047319508 0
0.21509022 0.004925814 0
0.22489233 0.0050803707 0
0.23457174 0.004807929 0
0.24455507 0.0054823388 0
0.25530419 0.0050860108 0
0.2649143 0.005376392 0
0.27478266 0.0050720726 0
0.28503171 0.0053389822 0
0.29495776 0.0049597421 0
0.30486017 0.004876215 0
0.31554678 0.0057105217 0
0.32454604 0.004545663 0
0.33500311 0.0052348822 0
0.34483492 0.0053067226 0
0.3549411 0.0050491141 0
0.36463225 0.0051939092 0
0.37487364 0.005357753 0
0.38483438 0.0053229961 0
0.39492053 0.0050997348 0
0.40507558 0.005268476 0
0.41477239 0.0046409396 0
0.42551398 0.0050584632 0
0.43516722 0.0051870858 0
0.44509971 0.0047413115 0
0.45495862 0.0047288695 0
0.46463874 0.0050663729 0
0.47502244 0.0055365851 0
0.48462445 0.0046100244 0
0.4948937 0.0046028499 0
0.50143927 0.0048595271 0
0.0049847309 0.015238 0
0.014448141 0.014676889 0
0.025076808 0.013611042 0
0.034841042 0.013457158 0
0.044457551 0.014070114 0
0.054915953 0.013324562 0
0.064951077 0.013661867 0
0.07449276 0.012608236 0
0.08521726 0.013565395 0
0.095382266 0.013444975 0
0.10438558 0.013254775 0
0.11503994 0.013445877 0
0.1251884 0.014075133 0
0.13513871 0.01334524 0
0.14475027 0.013665284 0
0.15515213 0.013610437 0
0.16509582 0.013533594 0
0.17473929 0.013609488 0
0.1848992 0.013868918 0
0.19431777 0.013514952 0
0.20491689 0.013055013 0
0.2153893 0.013401587 0
0.22554912 0.013966464 0
0.23522629 0.013426367 0
0.24462587 0.013837296 0
0.25478303 0.013709185 0
0.2651577 0.013071065 0
0.27504843 0.013807539 0
0.28482139 0.013455869 0
0.29514357 0.013570842 0
0.30511636 0.013894945 0
0.31439269 0.013330075 0
0.32435524 0.01350096 0
0.33519468 0.013439857 0
0.34500545 0.013673712 0
0.35485154 0.013349888 0
0.36502236 0.013704177 0
0.37575677 0.013737679 0
0.38515717 0.01350879 0
0.39451963 0.013716534 0
0.40540788 0.013599262 0
0.41494232 0.013809516 0
0.42548987 0.014008334 0
0.43464926 0.013444341 0
0.44514069 0.013552094 0
0.45468205 0.013917372 0
0.46472383 0.013417384 0
0.47524521 0.013249215 0
0.48485962 0.01405526 0
0.4948442 0.014732061 0
0.50140131 0.014925905 0
0.0047206758 0.025500515 0
0.013861608 0.025477285 0
0.48791537 0.0254439 0
0.49511823 0.024985446 0
0.50145167 0.025582958 0
0.0055067092 0.03509007 0
0.01359869 0.035402257 0
0.48793921 0.034211963 0
0.49527147 0.035202067 0
0.50166011 0.035234764 0
0.0048815119 0.04505476 0
0.013536807 0.044737436 0
0.48785639 0.045211595 0
0.4952302 0.044964541 0
0.50159913 0.045013655 0
0.0050710649 0.054277301 0
0.013395748 0.054593798 0
0.48813298 0.05539342 0
0.49471951 0.05520666 0
0.50156474 0.055581007 0
0.0050005992 0.064869583 0
0.013092216 0.064506076 0
0.48785952 0.064654559 0
0.49506724 0.065539889 0
0.50166088 0.065064833 0
0.0053476277 0.075317554 0
0.013531145 0.07495255 0
0.48797688 0.074671119 0
0.49489337 0.074697964 0
0.50159419 0.074771233 0
0.005221427 0.08491952 0
0.013752992 0.084640227 0
0.48813295 0.085001811 0
0.49484879 0.085077062 0
0.50142634 0.084760182 0
0.0053848857 0.094649285 0
0.013770331 0.094761468 0
0.48800889 0.095176846 0
0.49502006 0.094970979 0
0.50151962 0.095064588 0
0.004737739 0.10484735 0
0.013398615 0.10446583 0
0.48793012 0.10438565 0
0.49505699 0.10488401 0
0.50127494 0.1041161 0
0.0053456412 0.11515316 0
0.013513096 0.11529099 0
0.48817757 0.1139341 0
0.49535981 0.11474378 0
0.50123507 0.11425253 0
0.0047223791 0.12490577 0
0.013766432 0.12522198 0
0.48821259 0.12455767 0
0.49473253 0.12487455 0
0.50119394 0.12461421 0
0.0050985441 0.13500647 0
0.013479023 0.13481523 0
0.48796999 0.13396192 0
0.49499136 0.13463992 0
0.50172931 0.1349517 0
0.0049714334 0.14526153 0
0.01331982 0.14522038 0
0.48795888 0.14511845 0
0.49526703 0.14476958 0
0.50160515 0.14474724 0
0.0053295642 0.15495408 0
0.013511953 0.15475127 0
0.48801568 0.15430045 0
0.49528751 0.15512958 0
0.50164092 0.1549816 0
0.005251735 0.16462569 0
0.013177829 0.16486152 0
0.48813239 0.16505608 0
0.49526238 0.16496855 0
0.50172925 0.16504577 0
0.0049433298 0.17475076 0
0.012950787 0.17508899 0
0.48796165 0.17534208 0
0.49502927 0.17506203 0
0.50150919 0.17429091 0
0.0050457404 0.18481725 0
0.013053104 0.18520866 0
0.48780176 0.18504006 0
0.49536133 0.18509024 0
0.50162035 0.18502143 0
0.0048870784 0.1945305 0
0.013317633 0.1954006 0
0.48783183 0.19466957 0
0.4947916 0.1956318 0
0.50152457 0.194766 0
0.0053101573 0.20526639 0
0.013644798 0.20471898 0
0.48817185 0.2050191 0
0.49476624 0.20443124 0
0.5015859 0.205109 0
0.0043903738 0.21461762 0
0.013068852 0.21520324 0
0.48776537 0.21514133 0
0.49484599 0.21459441 0
0.50123262 0.21448238 0
0.0046128929 0.22490917 0
0.01357754 0.22469412 0
0.48834711 0.22541071 0
0.4948335 0.2253557 0
0.50154507 0.22468136 0
0.0049792891 0.23508251 0
0.01357533 0.23469982 0
0.48820853 0.23461123 0
0.49509183 0.23584367 0
0.50141227 0.23626897 0
0.0052139233 0.24488045 0
0.013353297 0.24519575 0
0.48823053 0.2439501 0
0.49515778 0.24459545 0
0.50177568 0.24497636 0
0.0048274333 0.25518581 0
0.013599394 0.25542447 0
0.48824787 0.25518745 0
0.49501762 0.2545518 0
0.50144672 0.25529957 0
0.0048718611 0.26458803 0
0.013589425 0.26497731 0
0.48819873 0.26569352 0
0.49539906 0.26530594 0
0.5017162 0.26487115 0
0.0048578922 0.27501106 0
0.013311562 0.27497891 0
0.48792928 0.27502492 0
0.49520919 0.27510986 0
0.50155628 0.27474147 0
0.0048445589 0.28549391 0
0.013317388 0.2849412 0
0.48778972 0.28517413 0
0.49434292 0.28517291 0
0.50163639 0.28526419 0
0.0058889501 0.29498947 0
0.013512426 0.29448172 0
0.48794231 0.29540941 0
0.49540156 0.29500082 0
0.50136018 0.29569295 0
0.0051596211 0.30504748 0
0.013273449 0.30514508 0
0.48761681 0.30506435 0
0.49448192 0.30484521 0
0.50155902 0.30551013 0
0.0052712942 0.31537992 0
0.014028617 0.31557128 0
0.02360001 0.31898689 0
0.036549039 0.31893554 0
0.045551535 0.31904289 0
0.055879153 0.31907672 0
0.064549506 0.31899697 0
0.074653722 0.31907943 0
0.085537434 0.31896964 0
0.093066454 0.31911471 0
0.104187 0.31899625 0
0.11441895 0.31892195 0
0.12432887 0.31876916 0
0.13673292 0.31902379 0
0.14423552 0.31888497 0
0.15490517 0.31906122 0
0.16524203 0.31897897 0
0.17525154 0.31911606 0
0.18348248 0.31904885 0
0.19495738 0.31896925 0
0.20569487 0.31911519 0
0.21547292 0.31884792 0
0.22572584 0.31901705 0
0.23524146 0.31903735 0
0.24444231 0.31892484 0
0.25525355 0.3189663 0
0.26466167 0.31883562 0
0.27576518 0.31885383 0
0.28455648 0.3188791 0
0.29418874 0.31886476 0
0.30577284 0.31899068 0
0.31594846 0.31908673 0
0.32531068 0.3190442 0
0.33499753 0.31925121 0
0.34471455 0.31936461 0
0.35546571 0.31895763 0
0.36486959 0.31891879 0
0.37434134 0.31909278 0
0.38444585 0.31904012 0
0.39524877 0.31917676 0
0.40591568 0.31900218 0
0.41581094 0.31877965 0
0.42632452 0.31896967 0
0.43424022 0.31877717 0
0.445685 0.31893906 0
0.45449296 0.31902656 0
0.46476364 0.31899536 0
0.4737891 0.31881252 0
0.48690993 0.315474 0
0.49508676 0.31481552 0
0.50122845 0.3153443 0
0.0048465123 0.32448798 0
0.014630652 0.32523322 0
0.025410099 0.32540783 0
0.035545405 0.32565507 0
0.045196436 0.32520649 0
0.054918911 0.3248997 0
0.064783052 0.3251625 0
0.074829996 0.32525253 0
0.085165568 0.32476455 0
0.094618335 0.32479131 0
0.10497944 0.3253397 0
0.11477713 0.32570136 0
0.12479302 0.32516167 0
0.13479239 0.3248786 0
0.14490455 0.32471082 0
0.15553711 0.32527539 0
0.16530119 0.32545114 0
0.17460355 0.32489797 0
0.18522485 0.32486162 0
0.19520575 0.32496026 0
0.20460252 0.32540205 0
0.21478547 0.32503432 0
0.22459091 0.3254301 0
0.23440252 0.32523435 0
0.24523582 0.3248044 0
0.25499651 0.32469645 0
0.26540983 0.32504138 0
0.27425763 0.32507917 0
0.28537336 0.32472309 0
0.29528117 0.32535496 0
0.30526984 0.32518777 0
0.31589442 0.32448906 0
0.3250106 0.32500136 0
0.33471888 0.32497475 0
0.34497583 0.32550955 0
0.35468745 0.32534796 0
0.36485028 0.32494146 0
0.37503886 0.32482135 0
0.38543895 0.3251397 0
0.39514518 0.32514477 0
0.40472755 0.32532585 0
0.41507959 0.32511148 0
0.4250187 0.32421291 0
0.43518192 0.32505602 0
0.44540471 0.32519418 0
0.45537901 0.32520607 0
0.46473822 0.32487723 0
0.47478953 0.3251287 0
0.48517147 0.32445034 0
0.49485523 0.32502994 0
0.50150597 0.3249481 0
0.0051466585 0.33232915 0
0.014859126 0.3325198 0
0.024402341 0.33253679 0
0.035194602 0.33252341 0
0.04513659 0.33255175 0
0.05452216 0.33255303 0
0.065834515 0.33250046 0
0.074747734 0.33252075 0
0.084985413 0.33256209 0
0.094720908 0.33258298 0
0.1049558 0.33212245 0
0.11495867 0.33272606 0
0.12503846 0.33248287 0
0.1349709 0.33255476 0
0.14506173 0.33278373 0
0.15508863 0.33263889 0
0.16467179 0.33221605 0
0.17500076 0.33240369 0
0.18541433 0.33248067 0
0.19483076 0.33251074 0
0.20492059 0.33255595 0
0.21492454 0.33251926 0
0.22493251 0.33218399 0
0.23496452 0.33260086 0
0.24560368 0.33261389 0
0.25509706 0.33275518 0
0.26474684 0.33278894 0
0.27324906 0.3326416 0
0.28536555 0.33254778 0
0.29482234 0.33242241 0
0.30587396 0.3327786 0
0.31494755 0.33234289 0
0.32509264 0.33241895 0
0.33463997 0.33230558 0
0.34522197 0.33268139 0
0.35476378 0.33233118 0
0.36516514 0.3323656 0
0.37479272 0.33249554 0
0.3848466 0.33272314 0
0.39524665 0.33267716 0
0.40503794 0.33231604 0
0.41503242 0.33247864 0
0.42503917 0.33231744 0
0.43474546 0.33270767 0
0.44483703 0.33272445 0
0.45571595 0.33263913 0
0.46524617 0.33255148 0
0.47502264 0.33265385 0
0.48502532 0.33187744 0
0.49450698 0.33218163 0
0.50175363 0.3318468 0
